ply
format ascii 1.0
comment Created by Open3D
element vertex 2364
property double x
property double y
property double z
end_header
70.3125 -296.875 843
-476.562 -234.375 1464
-429.688 -93.75 1214
-234.375 -39.0625 925
-265.625 101.562 920
-46.875 -375 1028
-164.062 -109.375 967
-23.4375 -156.25 901
-179.688 335.938 1080
132.812 -328.125 987
39.0625 -148.438 903
-281.25 -210.938 1105
-15.625 -242.188 854
492.188 406.25 970
93.75 375 1503
164.062 -343.75 967
375 -7.8125 796
179.688 343.75 1415
156.25 -328.125 967
-406.25 -31.25 1034
85.9375 -414.062 1010
-62.5 -195.312 878
70.3125 -101.562 928
-15.625 -375 1001
-437.5 304.688 1338
140.625 -320.312 987
-304.688 -257.812 3269
-234.375 -125 964
-320.312 -367.188 3037
-39.0625 -367.188 1016
257.812 195.312 894
125 -343.75 1028
-351.562 101.562 933
156.25 -265.625 930
484.375 195.312 835
-390.625 296.875 1112
-250 -7.8125 933
-398.438 -203.125 1404
-62.5 -203.125 878
-460.938 312.5 1317
257.812 390.625 1343
31.25 -281.25 839
140.625 -304.688 992
-156.25 390.625 1185
-421.875 -351.562 2301
-164.062 359.375 1138
-242.188 -234.375 1445
-414.062 289.062 1123
351.562 -46.875 835
-492.188 -406.25 2256
242.188 421.875 1328
-429.688 -414.062 2381
-414.062 0 1090
132.812 -351.562 970
-343.75 39.0625 906
-304.688 -296.875 3149
39.0625 -187.5 880
-421.875 -117.188 989
-156.25 -117.188 973
-398.438 62.5 1016
-375 -453.125 2701
226.562 421.875 1328
273.438 421.875 1349
-320.312 -414.062 2933
15.625 398.438 1464
468.75 437.5 1185
-476.562 250 1108
-101.562 429.688 1307
-289.062 0 920
-367.188 -23.4375 901
-398.438 -39.0625 1041
117.188 390.625 1404
0 -304.688 858
7.8125 -218.75 867
-375 125 959
-468.75 250 1034
-437.5 -171.875 1057
-296.875 -250 3300
179.688 429.688 1349
375 -109.375 847
-343.75 -46.875 913
-312.5 -46.875 910
-257.812 85.9375 915
39.0625 -359.375 992
-312.5 -359.375 3037
-15.625 -296.875 851
-250 46.875 915
-62.5 -187.5 875
-304.688 -304.688 3149
0 445.312 1415
-179.688 -78.125 938
-273.438 -187.5 1087
109.375 -335.938 1016
-148.438 414.062 1219
-367.188 85.9375 928
-414.062 -296.875 2398
179.688 -320.312 978
31.25 -187.5 882
-31.25 -390.625 1016
-500 -445.312 2184
-445.312 -171.875 1349
62.5 -351.562 992
-382.812 -398.438 2450
54.6875 -132.812 910
-390.625 93.75 989
-226.562 15.625 925
-429.688 -367.188 2301
179.688 -273.438 970
-296.875 -273.438 3208
-437.5 -179.688 1080
-460.938 218.75 1047
-117.188 -281.25 3238
-382.812 117.188 964
0 -257.812 845
171.875 375 1354
-7.8125 375 1509
148.438 -312.5 987
-54.6875 -93.75 943
406.25 -31.25 849
78.125 -203.125 871
-312.5 -304.688 3149
-328.125 -445.312 2744
-23.4375 -382.812 1007
85.9375 -132.812 908
-406.25 -398.438 2398
-421.875 -85.9375 935
-359.375 250 1016
-437.5 -132.812 1278
-320.312 -359.375 3037
-203.125 250 995
-359.375 242.188 1041
-296.875 54.6875 901
93.75 -351.562 1001
-250 39.0625 915
46.875 -132.812 910
187.5 390.625 1343
-265.625 -179.688 1067
156.25 -289.062 981
-421.875 -31.25 1130
-242.188 70.3125 920
-429.688 -132.812 1007
-7.8125 390.625 1489
-187.5 296.875 1038
437.5 429.688 1210
242.188 -242.188 906
-70.3125 382.812 1245
-320.312 -15.625 896
-421.875 -109.375 984
304.688 -31.25 819
140.625 -296.875 978
-429.688 -85.9375 1202
-296.875 -46.875 908
-31.25 -109.375 928
23.4375 -187.5 882
-414.062 -429.688 2485
-257.812 -156.25 1038
296.875 -78.125 869
39.0625 -242.188 851
-359.375 -421.875 2598
-54.6875 -359.375 1034
31.25 320.312 1586
265.625 320.312 1421
-15.625 -250 851
117.188 -343.75 1019
460.938 -234.375 1112
312.5 -109.375 938
46.875 -296.875 843
-343.75 15.625 906
85.9375 -210.938 869
-46.875 -406.25 1041
-265.625 -171.875 1060
-218.75 23.4375 847
15.625 -429.688 1004
-296.875 -132.812 1119
351.562 -39.0625 835
-390.625 -390.625 2450
-414.062 -7.8125 1097
-62.5 -179.688 873
-406.25 -93.75 928
-429.688 -54.6875 1157
-156.25 -125 973
234.375 281.25 862
-15.625 -148.438 906
-281.25 -132.812 1115
-406.25 -195.312 1080
101.562 -296.875 843
-335.938 -195.312 1105
-281.25 -117.188 946
-351.562 -453.125 2701
-312.5 -351.562 3064
-382.812 93.75 928
-54.6875 -343.75 1038
-375 54.6875 930
-210.938 -281.25 3269
140.625 -351.562 970
179.688 -343.75 970
93.75 -195.312 871
-70.3125 367.188 1250
-289.062 -132.812 1115
234.375 398.438 1349
-281.25 -203.125 1105
62.5 -203.125 871
-398.438 70.3125 1013
-398.438 -382.812 2381
-312.5 -265.625 3269
-62.5 351.562 1543
101.562 -93.75 925
109.375 328.125 1464
-31.25 -203.125 878
-429.688 -62.5 1169
-265.625 -15.625 906
54.6875 -375 989
156.25 -273.438 930
-46.875 -312.5 862
-312.5 -367.188 3037
-343.75 78.125 915
-414.062 0 1090
-406.25 -62.5 906
-195.312 273.438 1016
140.625 -312.5 989
-304.688 -312.5 3120
265.625 382.812 1349
-429.688 -93.75 1214
179.688 -281.25 970
-257.812 15.625 913
-93.75 382.812 1255
-445.312 -359.375 2286
171.875 335.938 1410
-328.125 -429.688 2835
-429.688 -101.562 1232
-414.062 351.562 1496
-179.688 257.812 995
468.75 328.125 920
367.188 -78.125 843
-265.625 -85.9375 920
125 304.688 1464
203.125 328.125 1439
-414.062 -390.625 2398
-328.125 -421.875 2835
-257.812 -31.25 910
23.4375 -273.438 839
476.562 312.5 906
0 -187.5 882
-421.875 -101.562 940
242.188 -234.375 903
-398.438 -109.375 975
101.562 -335.938 1010
-382.812 117.188 964
-203.125 -31.25 880
-484.375 -359.375 2286
-7.8125 -242.188 854
109.375 -304.688 856
-320.312 -421.875 2933
-218.75 -226.562 1427
-351.562 117.188 948
23.4375 -257.812 845
445.312 367.188 962
-296.875 -187.5 1115
-23.4375 -390.625 1010
-437.5 -125 1268
39.0625 -437.5 998
390.625 -101.562 847
-445.312 -296.875 2415
-195.312 281.25 1022
-453.125 289.062 1130
351.562 281.25 847
-304.688 289.062 1073
-328.125 46.875 901
-421.875 -23.4375 1119
-156.25 -281.25 3238
-382.812 -23.4375 975
-320.312 -375 3037
-70.3125 -257.812 1169
-62.5 -171.875 898
-218.75 46.875 864
-257.812 -148.438 1028
-500 -453.125 2184
335.938 -93.75 869
164.062 -265.625 928
-304.688 -296.875 3149
-468.75 273.438 1123
-390.625 -414.062 2522
-398.438 54.6875 938
-281.25 31.25 906
-414.062 296.875 1123
-226.562 15.625 925
468.75 -218.75 1084
-429.688 -54.6875 1157
-390.625 93.75 989
-265.625 31.25 908
-171.875 296.875 1034
-31.25 -351.562 1016
-476.562 218.75 1063
492.188 296.875 827
-148.438 421.875 1219
-125 -218.75 1108
132.812 -328.125 987
390.625 -117.188 847
-445.312 -156.25 1322
70.3125 359.375 1523
-484.375 -390.625 2286
-476.562 273.438 1130
-164.062 359.375 1138
23.4375 312.5 1601
218.75 328.125 1445
250 312.5 1445
-460.938 -367.188 2317
-414.062 343.75 1496
-320.312 -445.312 2812
54.6875 -445.312 995
-179.688 250 987
382.812 -62.5 841
-460.938 289.062 1349
-281.25 0 920
406.25 421.875 1060
23.4375 -281.25 839
484.375 -179.688 1019
-226.562 31.25 925
148.438 -281.25 970
289.062 -78.125 908
-242.188 -93.75 928
-281.25 -203.125 1105
-265.625 -148.438 1028
-132.812 -203.125 1090
-484.375 -234.375 3365
-273.438 -187.5 1087
210.938 328.125 1445
-382.812 257.812 1013
304.688 -296.875 1219
328.125 -85.9375 867
468.75 -203.125 1060
148.438 -289.062 973
-429.688 -85.9375 1202
62.5 382.812 1496
-265.625 39.0625 908
-390.625 -117.188 989
-351.562 -15.625 898
187.5 -117.188 954
273.438 367.188 1376
148.438 -304.688 989
-328.125 -226.562 1439
-187.5 289.062 1028
-343.75 -39.0625 906
-375 -15.625 981
-234.375 -46.875 925
296.875 -7.8125 839
-492.188 296.875 1202
-468.75 312.5 1312
226.562 304.688 1445
-195.312 289.062 1034
257.812 398.438 1333
70.3125 -335.938 995
-335.938 109.375 946
-62.5 -164.062 901
-23.4375 -226.562 864
460.938 390.625 981
-468.75 -164.062 1338
250 390.625 1354
-31.25 312.5 1594
-54.6875 367.188 1241
-70.3125 -250 1161
-117.188 382.812 1185
-148.438 351.562 1130
226.562 -250 906
93.75 -398.438 1004
-156.25 398.438 1197
-320.312 -398.438 2958
-320.312 -414.062 2933
-312.5 -343.75 3064
164.062 -273.438 928
-46.875 -218.75 869
-218.75 0 864
23.4375 320.312 1579
-23.4375 296.875 1609
156.25 -257.812 930
179.688 -195.312 940
335.938 429.688 1359
-335.938 304.688 1108
-70.3125 -257.812 1169
-62.5 281.25 1529
39.0625 -218.75 867
-257.812 -156.25 1038
-304.688 312.5 1097
335.938 -101.562 906
-367.188 242.188 1047
-265.625 320.312 1094
109.375 -320.312 1025
-375 117.188 964
-39.0625 335.938 1564
195.312 437.5 1338
-210.938 101.562 889
-335.938 -468.75 2789
-382.812 31.25 1054
46.875 -250 847
-421.875 320.312 1307
-203.125 242.188 989
-484.375 -421.875 2184
-70.3125 242.188 891
-101.562 390.625 1278
-234.375 -117.188 948
62.5 -210.938 869
335.938 7.8125 825
-476.562 -359.375 2286
-335.938 15.625 901
78.125 -125 915
-218.75 15.625 849
7.8125 39.0625 819
85.9375 -125 915
-468.75 -382.812 2301
-304.688 -289.062 3208
187.5 -257.812 913
-234.375 -109.375 938
-359.375 -23.4375 901
-382.812 382.812 1489
0 -218.75 867
-320.312 -429.688 2908
-437.5 -265.625 2415
-312.5 -414.062 2958
-351.562 85.9375 925
78.125 343.75 1543
164.062 351.562 1387
-70.3125 -242.188 1145
-382.812 46.875 928
164.062 -320.312 970
31.25 351.562 1516
226.562 54.6875 794
-398.438 70.3125 1013
-437.5 -164.062 1054
484.375 296.875 835
-125 31.25 835
-320.312 -437.5 2908
-429.688 -117.188 989
125 -343.75 1028
7.8125 -148.438 906
7.8125 429.688 1439
-296.875 406.25 1464
460.938 -242.188 1123
414.062 -39.0625 837
-23.4375 421.875 1427
468.75 406.25 989
-437.5 -117.188 1250
-281.25 335.938 1312
46.875 -296.875 843
-445.312 289.062 1123
-23.4375 -296.875 851
-226.562 398.438 1470
-320.312 398.438 1470
257.812 335.938 1415
312.5 -70.3125 871
-476.562 -437.5 2226
453.125 226.562 858
-70.3125 343.75 1458
218.75 -93.75 928
78.125 335.938 1550
-7.8125 -335.938 1004
-164.062 367.188 1138
-31.25 -343.75 1013
-203.125 -39.0625 898
-140.625 -156.25 1022
-429.688 -46.875 1149
93.75 -93.75 928
-328.125 351.562 1278
-359.375 78.125 928
-7.8125 -359.375 1001
-343.75 -460.938 2744
-367.188 -460.938 2744
-70.3125 -250 1161
156.25 -320.312 970
-429.688 -54.6875 1157
-320.312 -359.375 3037
312.5 -31.25 819
-421.875 -23.4375 1119
-500 -437.5 2212
-15.625 -320.312 1016
-250 -46.875 918
406.25 -62.5 845
-234.375 46.875 920
-265.625 -31.25 906
-7.8125 -343.75 1001
-429.688 -62.5 1169
414.062 -62.5 839
132.812 -343.75 975
-226.562 39.0625 858
-70.3125 -257.812 1169
476.562 -195.312 1047
140.625 -304.688 992
406.25 -54.6875 841
-242.188 -93.75 928
-140.625 -281.25 3238
-453.125 -398.438 2301
257.812 328.125 1415
-320.312 -406.25 2933
-320.312 -351.562 3064
-335.938 -265.625 3433
-421.875 -15.625 1105
-437.5 281.25 1123
265.625 390.625 1343
-382.812 109.375 975
-265.625 -70.3125 918
-445.312 -148.438 1307
-390.625 101.562 981
-312.5 -296.875 3149
-406.25 -375 2349
-296.875 -54.6875 915
-281.25 109.375 923
171.875 -257.812 918
-289.062 351.562 1278
-312.5 -351.562 3064
23.4375 -265.625 841
-85.9375 351.562 1250
-328.125 -351.562 3037
-359.375 -468.75 2789
-304.688 414.062 1445
453.125 -250 1138
-367.188 93.75 928
460.938 -234.375 1112
375 -109.375 847
39.0625 -453.125 992
-242.188 78.125 920
-179.688 -85.9375 938
-421.875 -343.75 2317
-15.625 -164.062 896
-500 -429.688 2226
-93.75 359.375 1250
-257.812 -7.8125 938
-164.062 328.125 1070
-359.375 101.562 930
367.188 -62.5 835
-500 -421.875 2226
-429.688 382.812 1445
15.625 39.0625 817
-54.6875 -265.625 843
-460.938 -390.625 2286
-328.125 -414.062 2933
-312.5 -335.938 3092
62.5 -179.688 885
62.5 -382.812 989
93.75 -281.25 835
132.812 -320.312 987
-492.188 -398.438 2271
-78.125 31.25 829
-382.812 -390.625 2450
-85.9375 31.25 831
-304.688 -250 3300
-312.5 320.312 1097
-257.812 -62.5 925
-468.75 -398.438 2271
-78.125 359.375 1255
-39.0625 -218.75 869
-375 132.812 956
-429.688 -78.125 1197
-398.438 -406.25 2467
78.125 -171.875 889
242.188 398.438 1343
-437.5 -273.438 2415
-421.875 -31.25 1130
0 39.0625 819
46.875 -250 847
-476.562 226.562 1067
125 398.438 1381
-453.125 312.5 1317
93.75 -296.875 841
-484.375 -414.062 2184
93.75 390.625 1483
-62.5 -156.25 1016
-250 7.8125 920
-367.188 -414.062 2560
382.812 -46.875 837
31.25 -125 918
54.6875 -62.5 898
-226.562 23.4375 925
39.0625 -257.812 843
-296.875 -62.5 908
-62.5 -359.375 1047
281.25 437.5 1370
-140.625 -164.062 1034
-414.062 7.8125 1080
-273.438 85.9375 910
-70.3125 -242.188 1145
-437.5 -257.812 2432
-390.625 328.125 1307
-7.8125 -257.812 845
-210.938 -23.4375 875
-476.562 -375 2301
-70.3125 -234.375 867
-367.188 296.875 1112
375 -15.625 796
-265.625 -93.75 928
-234.375 54.6875 923
-343.75 -445.312 2680
7.8125 -195.312 878
62.5 -132.812 908
-343.75 -31.25 898
-93.75 39.0625 831
484.375 70.3125 766
-453.125 -148.438 1307
-500 312.5 1219
-257.812 -164.062 1044
-328.125 -406.25 2933
0 437.5 1427
492.188 414.062 970
-289.062 93.75 910
-78.125 390.625 1245
351.562 -117.188 862
-281.25 -39.0625 906
187.5 -203.125 946
-351.562 31.25 910
93.75 -257.812 841
93.75 -109.375 923
93.75 -132.812 908
-78.125 445.312 1288
-242.188 -132.812 975
195.312 -210.938 938
-421.875 -421.875 2432
-140.625 -195.312 1365
468.75 -210.938 1070
-406.25 289.062 1115
70.3125 437.5 1421
-70.3125 -250 1161
359.375 7.8125 811
101.562 -296.875 843
-375 -265.625 3468
-218.75 78.125 880
-195.312 343.75 1084
-171.875 -101.562 967
-382.812 -7.8125 1054
140.625 -328.125 978
-234.375 -15.625 935
-164.062 54.6875 851
382.812 437.5 1126
-382.812 117.188 964
-62.5 -148.438 1010
-328.125 -460.938 2789
23.4375 39.0625 817
-390.625 101.562 981
-15.625 -257.812 845
93.75 -289.062 837
148.438 187.5 903
421.875 390.625 1022
-429.688 -140.625 1041
265.625 171.875 858
140.625 54.6875 802
-234.375 -117.188 948
-359.375 343.75 1288
93.75 -179.688 885
-398.438 78.125 1004
179.688 -265.625 915
-234.375 -125 964
-320.312 -406.25 2933
257.812 390.625 1343
398.438 406.25 1090
23.4375 15.625 833
15.625 46.875 817
-351.562 312.5 1108
-101.562 375 1241
101.562 351.562 1427
132.812 46.875 803
54.6875 -367.188 989
-359.375 0 935
-421.875 -15.625 1105
164.062 -304.688 970
93.75 -125 913
-101.562 31.25 833
-445.312 -406.25 2365
-242.188 -242.188 1445
0 46.875 819
-179.688 335.938 1080
7.8125 -187.5 882
203.125 -250 908
-328.125 -468.75 2789
-195.312 281.25 1022
312.5 382.812 1445
351.562 -78.125 843
-445.312 -304.688 2415
78.125 -203.125 871
-375 296.875 1115
125 -359.375 1025
-39.0625 351.562 1543
-500 -414.062 2226
-101.562 367.188 1250
-484.375 -445.312 2198
-343.75 70.3125 910
78.125 359.375 1523
156.25 -281.25 981
140.625 -234.375 1022
93.75 367.188 1516
-210.938 343.75 1292
101.562 343.75 1421
179.688 -273.438 970
-281.25 -203.125 1105
7.8125 -421.875 1007
140.625 46.875 802
15.625 -195.312 878
-187.5 31.25 845
-312.5 351.562 1283
-132.812 31.25 837
-195.312 -54.6875 906
-351.562 -429.688 2639
93.75 -281.25 835
-203.125 257.812 1004
-421.875 -359.375 2301
93.75 -304.688 854
-273.438 328.125 1094
-406.25 -109.375 975
382.812 -109.375 845
-437.5 320.312 1307
132.812 54.6875 803
-85.9375 164.062 918
-398.438 -31.25 1041
-218.75 -7.8125 869
-406.25 15.625 1070
-101.562 437.5 1307
-382.812 312.5 1328
-437.5 -109.375 1236
-148.438 23.4375 841
109.375 -375 1010
-445.312 -148.438 1307
93.75 -273.438 835
93.75 -265.625 837
85.9375 -179.688 885
-312.5 -281.25 3238
304.688 -15.625 845
-328.125 343.75 1283
437.5 351.562 978
445.312 343.75 967
93.75 -218.75 862
359.375 -15.625 802
-226.562 328.125 1090
31.25 -304.688 858
-328.125 320.312 1312
406.25 414.062 1050
-421.875 320.312 1307
-70.3125 -234.375 867
-39.0625 39.0625 825
-414.062 -265.625 2432
-367.188 93.75 928
-101.562 39.0625 833
-328.125 101.562 918
-148.438 429.688 1245
140.625 -320.312 987
-429.688 -375 2301
492.188 -148.438 981
-78.125 328.125 1392
-492.188 -453.125 2184
-171.875 375 1250
226.562 -218.75 908
-70.3125 -226.562 1119
359.375 -31.25 831
-273.438 -31.25 906
-429.688 -46.875 1149
-257.812 -46.875 915
-484.375 -437.5 2198
-429.688 -125 1004
-320.312 -398.438 2958
-164.062 -117.188 973
265.625 -226.562 915
171.875 -343.75 967
-429.688 -39.0625 1141
46.875 -343.75 992
70.3125 46.875 811
101.562 -328.125 1013
93.75 -234.375 854
-31.25 312.5 1594
-70.3125 -242.188 1145
31.25 -398.438 992
-382.812 0 1060
-343.75 304.688 1108
-250 -23.4375 918
-312.5 -328.125 3120
-445.312 -328.125 2349
-382.812 304.688 1115
-320.312 -390.625 2958
-343.75 343.75 1288
-62.5 265.625 1516
-375 78.125 928
-335.938 -468.75 2789
398.438 429.688 1080
-351.562 78.125 923
-265.625 -164.062 1054
39.0625 -257.812 843
-203.125 -39.0625 898
-437.5 -156.25 1047
-343.75 39.0625 906
93.75 -289.062 837
-414.062 0 1090
39.0625 398.438 1483
187.5 390.625 1343
-484.375 234.375 1087
-429.688 -70.3125 1181
93.75 -226.562 860
-359.375 335.938 1283
195.312 234.375 867
101.562 -320.312 1022
-304.688 351.562 1283
-492.188 406.25 1359
-23.4375 -218.75 867
312.5 351.562 1496
54.6875 -359.375 992
-250 93.75 915
-375 335.938 1292
93.75 -250 847
-171.875 304.688 1047
-390.625 -62.5 898
164.062 -296.875 970
117.188 46.875 805
304.688 -54.6875 885
-351.562 320.312 1322
281.25 -250 915
-265.625 93.75 913
-328.125 -398.438 2958
109.375 320.312 1464
-359.375 101.562 930
-312.5 -289.062 3208
-226.562 31.25 925
93.75 -187.5 880
85.9375 -367.188 995
-62.5 -140.625 998
93.75 -164.062 889
-195.312 289.062 1034
-265.625 15.625 913
-437.5 -414.062 2381
320.312 -109.375 930
367.188 -296.875 1202
54.6875 437.5 1427
-375 70.3125 925
-390.625 101.562 981
-429.688 -335.938 2333
-218.75 367.188 1268
-312.5 -335.938 3092
-273.438 -179.688 1087
-70.3125 31.25 829
31.25 -109.375 925
-156.25 -132.812 992
93.75 -265.625 837
-93.75 31.25 833
-437.5 -117.188 1250
-335.938 -460.938 2744
-414.062 -15.625 1108
210.938 335.938 1439
-7.8125 39.0625 821
15.625 -414.062 1001
-320.312 -335.938 3092
-343.75 -453.125 2744
93.75 -242.188 851
-476.562 273.438 1130
-39.0625 328.125 1572
265.625 -234.375 908
-273.438 359.375 1268
-351.562 -414.062 2618
-234.375 367.188 1264
-492.188 -445.312 2184
-62.5 367.188 1241
-500 320.312 1227
-187.5 23.4375 845
-23.4375 -343.75 1013
-406.25 -46.875 1038
164.062 359.375 1381
-390.625 328.125 1307
-406.25 328.125 1302
93.75 -257.812 841
-70.3125 -218.75 1108
93.75 -117.188 918
109.375 -312.5 856
335.938 -39.0625 811
-31.25 -203.125 878
7.8125 312.5 1601
-468.75 273.438 1123
-250 -140.625 1016
-187.5 304.688 1050
-46.875 39.0625 825
-390.625 265.625 1090
-296.875 312.5 1097
-195.312 375 1255
-171.875 343.75 1080
-15.625 -242.188 854
-70.3125 -226.562 1119
-367.188 312.5 1322
-242.188 -101.562 933
-304.688 101.562 913
-257.812 -23.4375 906
-203.125 23.4375 845
375 -78.125 845
226.562 -117.188 951
-257.812 54.6875 913
328.125 -7.8125 813
-210.938 109.375 978
93.75 -281.25 835
-187.5 312.5 1057
-156.25 390.625 1185
-367.188 125 959
-312.5 -343.75 3064
-187.5 -70.3125 915
93.75 -93.75 928
70.3125 390.625 1489
-414.062 296.875 1123
-281.25 -195.312 1105
-15.625 -218.75 867
39.0625 -335.938 992
-320.312 -375 3037
-328.125 -265.625 3433
-70.3125 359.375 1250
335.938 218.75 871
375 -109.375 847
93.75 -273.438 835
23.4375 312.5 1601
101.562 -273.438 835
23.4375 -265.625 841
-7.8125 -171.875 891
-187.5 335.938 1080
-375 62.5 925
-250 429.688 1433
-39.0625 -210.938 873
-164.062 367.188 1138
-398.438 78.125 1004
-382.812 54.6875 933
-242.188 335.938 1090
-171.875 23.4375 843
7.8125 39.0625 819
-437.5 -257.812 2432
-320.312 -453.125 2789
-304.688 -289.062 3208
-304.688 312.5 1097
-414.062 -62.5 906
-421.875 -15.625 1105
187.5 -257.812 913
351.562 367.188 1292
140.625 -296.875 978
-132.812 -210.938 1392
132.812 445.312 1387
250 54.6875 792
-382.812 -46.875 896
335.938 -7.8125 813
257.812 54.6875 792
398.438 62.5 776
7.8125 -148.438 906
-23.4375 335.938 1557
-250 335.938 1297
-304.688 -367.188 3037
-226.562 15.625 925
429.688 367.188 1004
-109.375 39.0625 835
-281.25 328.125 1094
-187.5 156.25 935
-265.625 320.312 1094
-296.875 -46.875 908
-257.812 -54.6875 920
-156.25 398.438 1197
93.75 -171.875 887
62.5 -218.75 862
-156.25 406.25 1202
39.0625 -320.312 864
-429.688 -39.0625 1141
-390.625 -23.4375 1044
-406.25 54.6875 1028
-109.375 31.25 835
335.938 -46.875 843
-23.4375 -367.188 1004
-437.5 398.438 1427
117.188 -226.562 856
171.875 -335.938 967
296.875 -23.4375 856
171.875 -257.812 918
-453.125 312.5 1317
265.625 382.812 1349
-335.938 -453.125 2744
-85.9375 31.25 831
31.25 -195.312 875
320.312 -54.6875 845
-31.25 304.688 1601
-328.125 343.75 1283
-257.812 359.375 1273
-226.562 7.8125 928
-476.562 -398.438 2256
93.75 -250 847
-445.312 -375 2301
-218.75 23.4375 847
-453.125 109.375 975
390.625 164.062 829
-281.25 335.938 1312
250 62.5 792
-31.25 335.938 1557
-179.688 210.938 903
179.688 -289.062 970
0 -187.5 882
-62.5 -132.812 987
414.062 421.875 1054
164.062 343.75 1392
281.25 382.812 1349
226.562 398.438 1349
-476.562 312.5 1307
179.688 -296.875 973
93.75 -218.75 862
-351.562 242.188 1025
-406.25 171.875 933
406.25 390.625 1063
-7.8125 367.188 1516
-320.312 171.875 918
109.375 46.875 805
-484.375 -242.188 3365
-445.312 289.062 1123
62.5 289.062 1616
265.625 375 1359
-273.438 -156.25 1044
-210.938 23.4375 847
-242.188 -23.4375 940
-117.188 31.25 835
-273.438 -164.062 1054
46.875 242.188 873
-468.75 -156.25 1322
-31.25 382.812 1496
-304.688 382.812 1489
-273.438 -7.8125 935
335.938 -78.125 860
-367.188 257.812 1013
-203.125 265.625 1013
93.75 -203.125 871
-250 359.375 1268
15.625 -257.812 845
-414.062 -257.812 2450
93.75 -265.625 837
-382.812 0 1060
23.4375 359.375 1536
117.188 -328.125 1025
31.25 -390.625 989
-312.5 -265.625 3269
140.625 -257.812 948
460.938 320.312 935
-421.875 -7.8125 1097
-54.6875 -367.188 1038
125 -335.938 981
476.562 -187.5 1031
-351.562 -460.938 2744
-203.125 343.75 1090
0 -117.188 925
0 -117.188 925
-234.375 328.125 1090
39.0625 343.75 1529
-304.688 -359.375 3037
265.625 54.6875 792
-218.75 328.125 1087
93.75 -242.188 851
39.0625 406.25 1477
257.812 335.938 1415
-429.688 296.875 1134
-242.188 -132.812 975
-257.812 335.938 1302
-414.062 171.875 935
-359.375 7.8125 928
132.812 -320.312 987
257.812 351.562 1410
-85.9375 390.625 1250
0 39.0625 819
-335.938 -39.0625 906
343.75 -78.125 847
93.75 -109.375 923
-398.438 304.688 1112
-320.312 -390.625 2958
-187.5 187.5 908
-218.75 31.25 849
62.5 375 1503
-445.312 -296.875 2415
296.875 0 833
-375 78.125 928
148.438 -156.25 1001
-398.438 -62.5 903
-210.938 367.188 1264
-195.312 343.75 1084
-125 39.0625 837
-359.375 -23.4375 898
437.5 85.9375 771
-54.6875 -132.812 920
-312.5 -273.438 3238
335.938 -62.5 841
132.812 -312.5 989
-125 164.062 928
15.625 -218.75 862
-312.5 -320.312 3120
132.812 -304.688 967
-7.8125 -328.125 1004
-273.438 320.312 1094
101.562 -312.5 847
-351.562 312.5 1105
-31.25 -320.312 1022
406.25 62.5 774
-500 -406.25 2241
484.375 -171.875 1007
-7.8125 -445.312 1010
-445.312 242.188 1047
-156.25 31.25 837
-54.6875 39.0625 823
-281.25 -125 1105
460.938 -234.375 1108
-351.562 -390.625 3149
-343.75 335.938 1288
125 46.875 802
-250 62.5 918
-15.625 39.0625 819
93.75 -125 910
398.438 -46.875 843
-312.5 -421.875 2908
-343.75 312.5 1105
-296.875 328.125 1302
-70.3125 -218.75 869
62.5 46.875 811
-328.125 -343.75 3092
-117.188 39.0625 833
-398.438 328.125 1297
-312.5 70.3125 903
-78.125 367.188 1250
-500 -421.875 2226
-367.188 85.9375 925
-429.688 -179.688 1063
125 54.6875 802
-390.625 109.375 970
-289.062 351.562 1273
-23.4375 -242.188 851
476.562 -179.688 1019
-164.062 23.4375 839
398.438 -54.6875 845
343.75 -85.9375 860
-296.875 351.562 1273
289.062 -78.125 906
78.125 -281.25 835
109.375 54.6875 803
-398.438 335.938 1297
-250 0 925
-23.4375 -250 847
-414.062 -398.438 2381
125 -343.75 975
-242.188 335.938 1288
93.75 -273.438 835
93.75 -179.688 882
-218.75 85.9375 878
148.438 -281.25 967
-328.125 -406.25 2958
-421.875 -304.688 2381
-398.438 257.812 1090
-500 398.438 1354
242.188 54.6875 790
-62.5 -117.188 923
-437.5 -101.562 1223
93.75 -187.5 878
93.75 -226.562 858
-328.125 -7.8125 894
-218.75 367.188 1259
-382.812 -7.8125 1050
140.625 -281.25 964
-289.062 -210.938 1105
-335.938 351.562 1283
-351.562 39.0625 906
-7.8125 -132.812 910
-484.375 -414.062 2241
148.438 -265.625 935
-101.562 31.25 831
-343.75 343.75 1283
148.438 -296.875 975
-250 -39.0625 915
-234.375 93.75 935
-257.812 -54.6875 918
-62.5 -125 920
-296.875 -54.6875 910
-257.812 -78.125 925
-226.562 328.125 1090
-148.438 429.688 1245
-62.5 343.75 1550
-414.062 7.8125 1077
-367.188 -125 1097
-54.6875 -218.75 869
93.75 -257.812 839
93.75 -289.062 835
-445.312 -140.625 1288
-382.812 296.875 1112
-312.5 351.562 1278
-7.8125 -218.75 864
-242.188 -125 964
-343.75 -468.75 2767
171.875 -328.125 970
-195.312 296.875 1041
23.4375 -304.688 854
335.938 0 823
171.875 -343.75 964
-320.312 -250 1464
-484.375 273.438 1123
-398.438 85.9375 995
-414.062 -406.25 2432
-328.125 -390.625 2984
-70.3125 -226.562 867
-70.3125 -210.938 1087
7.8125 -242.188 851
171.875 -304.688 970
-179.688 375 1250
-421.875 296.875 1119
234.375 54.6875 790
-320.312 -351.562 3064
351.562 -7.8125 803
-429.688 -343.75 2301
117.188 -351.562 1019
-23.4375 46.875 819
125 -359.375 1025
-171.875 375 1250
117.188 46.875 803
101.562 359.375 1427
-320.312 320.312 1307
-257.812 -148.438 1022
-265.625 -164.062 1050
-429.688 -39.0625 1134
-179.688 23.4375 841
-7.8125 -125 918
39.0625 -39.0625 878
-500 -445.312 2143
-265.625 -39.0625 906
226.562 54.6875 792
-343.75 7.8125 903
289.062 54.6875 789
-343.75 304.688 1105
-226.562 54.6875 862
23.4375 -195.312 875
31.25 343.75 1536
414.062 -54.6875 835
15.625 -265.625 839
-7.8125 46.875 819
-15.625 -132.812 910
-195.312 375 1255
39.0625 -140.625 906
93.75 -210.938 869
203.125 398.438 1338
-257.812 -62.5 923
-312.5 312.5 1094
93.75 -250 845
-265.625 -46.875 913
-234.375 39.0625 854
-23.4375 -140.625 908
-164.062 31.25 837
-351.562 -242.188 1458
-414.062 -414.062 2432
-7.8125 171.875 903
-421.875 -453.125 2432
-54.6875 -398.438 1038
93.75 179.688 882
-7.8125 -406.25 1001
-62.5 -109.375 956
-171.875 351.562 1134
-382.812 -15.625 1050
-351.562 0 901
390.625 62.5 776
242.188 62.5 790
429.688 429.688 1073
-187.5 335.938 1080
-93.75 164.062 920
15.625 -304.688 851
140.625 -351.562 964
218.75 335.938 1439
-281.25 328.125 1094
-203.125 351.562 1288
-445.312 0 1087
-78.125 242.188 894
-93.75 343.75 1370
-195.312 335.938 1084
-54.6875 -296.875 849
85.9375 296.875 1609
-320.312 -382.812 3010
414.062 195.312 845
-70.3125 -234.375 860
-265.625 367.188 1268
-242.188 343.75 1288
-273.438 -179.688 1077
-335.938 -445.312 2744
-171.875 343.75 1080
-234.375 367.188 1264
-421.875 -460.938 2432
335.938 -31.25 813
-46.875 -320.312 1034
101.562 46.875 803
93.75 -156.25 896
-7.8125 39.0625 819
-125 31.25 835
-203.125 343.75 1292
257.812 -171.875 970
-382.812 296.875 1112
-46.875 -15.625 862
-312.5 -328.125 3092
-359.375 335.938 1288
164.062 351.562 1398
-234.375 328.125 1087
-250 -140.625 987
-382.812 -406.25 2485
-164.062 375 1153
-257.812 359.375 1273
335.938 54.6875 783
-445.312 -289.062 2415
-289.062 -195.312 1105
-429.688 -31.25 1123
70.3125 351.562 1529
-429.688 -109.375 975
-101.562 375 1255
-210.938 31.25 845
-7.8125 -148.438 901
31.25 -148.438 903
484.375 195.312 835
7.8125 -265.625 839
-210.938 234.375 978
-15.625 390.625 1483
-289.062 429.688 1427
-70.3125 -203.125 1070
-132.812 218.75 894
-242.188 -39.0625 920
-335.938 109.375 918
-351.562 304.688 1105
93.75 -148.438 898
-312.5 390.625 1477
390.625 414.062 1101
421.875 195.312 843
429.688 70.3125 769
-101.562 -15.625 864
117.188 390.625 1398
140.625 289.062 1483
-23.4375 39.0625 819
132.812 -312.5 989
-484.375 -406.25 2241
70.3125 179.688 889
437.5 195.312 843
257.812 343.75 1415
-445.312 7.8125 1080
-437.5 296.875 1439
-203.125 257.812 1001
-328.125 -257.812 3333
-7.8125 -289.062 839
164.062 367.188 1376
-382.812 335.938 1292
429.688 195.312 843
-273.438 320.312 1094
-320.312 328.125 1292
453.125 195.312 837
-140.625 382.812 1173
-195.312 289.062 1031
-382.812 7.8125 1077
39.0625 -296.875 841
-414.062 328.125 1297
382.812 62.5 776
-367.188 -242.188 1470
-46.875 359.375 1523
-304.688 -304.688 3149
171.875 -320.312 970
-390.625 312.5 1322
-375 421.875 1439
-437.5 242.188 1047
-406.25 62.5 1016
-195.312 23.4375 843
257.812 62.5 790
242.188 296.875 1489
-328.125 -429.688 2859
-406.25 -39.0625 1041
-367.188 335.938 1288
468.75 -210.938 1067
-437.5 -250 1464
234.375 320.312 1445
117.188 54.6875 803
39.0625 -250 845
164.062 -257.812 920
-46.875 -218.75 869
-406.25 54.6875 1025
171.875 -312.5 970
-406.25 304.688 1322
-375 0 930
-421.875 -7.8125 1094
-242.188 367.188 1264
-351.562 343.75 1283
-335.938 320.312 1312
132.812 -335.938 978
-15.625 171.875 906
-39.0625 -382.812 1013
-375 85.9375 920
85.9375 -187.5 878
7.8125 304.688 1609
367.188 62.5 776
328.125 62.5 783
-312.5 414.062 1445
398.438 70.3125 774
85.9375 179.688 885
-257.812 367.188 1273
85.9375 46.875 805
492.188 62.5 764
15.625 -187.5 880
-335.938 242.188 1028
156.25 351.562 1398
-460.938 -437.5 2301
-250 367.188 1268
93.75 -234.375 851
460.938 351.562 943
460.938 335.938 928
-265.625 -70.3125 930
78.125 -382.812 992
-468.75 398.438 1343
-335.938 85.9375 906
-320.312 -273.438 3238
351.562 281.25 849
-296.875 -125 1105
-273.438 359.375 1268
-320.312 343.75 1278
-218.75 93.75 882
109.375 46.875 803
-62.5 171.875 920
0 -304.688 851
-359.375 320.312 1317
390.625 70.3125 774
109.375 -367.188 1010
-15.625 359.375 1523
-406.25 31.25 1050
7.8125 -242.188 851
-62.5 39.0625 823
171.875 335.938 1415
-85.9375 242.188 896
-406.25 -62.5 898
-421.875 -78.125 915
250 335.938 1421
-93.75 390.625 1255
-367.188 15.625 925
210.938 62.5 794
382.812 -117.188 845
171.875 -335.938 967
-476.562 273.438 1123
-328.125 343.75 1283
-460.938 312.5 1317
-390.625 304.688 1112
-429.688 320.312 1302
-281.25 320.312 1094
-320.312 320.312 1307
-203.125 343.75 1292
-242.188 54.6875 918
78.125 -203.125 869
93.75 -218.75 862
-437.5 -101.562 1223
-46.875 -203.125 875
-109.375 31.25 833
-382.812 257.812 1013
-226.562 23.4375 847
101.562 343.75 1439
-398.438 85.9375 995
-234.375 335.938 1087
-406.25 -257.812 2467
-242.188 335.938 1288
-218.75 23.4375 847
-39.0625 -390.625 1016
-335.938 23.4375 901
-328.125 -468.75 2835
-351.562 78.125 915
-15.625 39.0625 819
328.125 -54.6875 845
468.75 195.312 837
-382.812 117.188 962
-242.188 85.9375 925
109.375 -312.5 847
93.75 -242.188 849
-250 -7.8125 933
343.75 -117.188 862
-421.875 -382.812 2301
-421.875 -437.5 2398
39.0625 -101.562 928
-31.25 -429.688 1038
-453.125 289.062 1123
218.75 54.6875 792
-484.375 242.188 1094
-70.3125 -195.312 1067
93.75 -164.062 889
-304.688 -273.438 3238
-117.188 31.25 835
-445.312 -171.875 1063
-93.75 31.25 831
-304.688 359.375 1278
148.438 -273.438 962
-437.5 164.062 935
171.875 -273.438 918
23.4375 -203.125 871
-328.125 -437.5 2812
-62.5 -101.562 948
-312.5 320.312 1094
-250 335.938 1292
-15.625 -242.188 851
93.75 46.875 805
-359.375 -15.625 898
-250 -62.5 925
-398.438 328.125 1297
7.8125 -289.062 839
-320.312 -328.125 3092
203.125 257.812 858
-242.188 -7.8125 933
398.438 85.9375 776
-296.875 351.562 1273
320.312 62.5 783
0 -289.062 839
-445.312 281.25 1119
351.562 7.8125 813
460.938 -226.562 1094
-179.688 375 1250
-171.875 31.25 839
367.188 117.188 802
-343.75 23.4375 901
156.25 375 1387
-406.25 -54.6875 898
375 -70.3125 837
-367.188 7.8125 925
-23.4375 -375 1001
-179.688 312.5 1054
-234.375 -93.75 930
296.875 390.625 1415
-78.125 31.25 827
-31.25 39.0625 821
328.125 7.8125 823
-328.125 -382.812 3010
148.438 187.5 903
-328.125 93.75 908
304.688 -78.125 862
406.25 195.312 845
-31.25 -218.75 864
7.8125 -359.375 992
-359.375 179.688 925
-382.812 296.875 1112
-320.312 -320.312 3092
-273.438 328.125 1094
-234.375 70.3125 925
0 -257.812 843
-70.3125 -242.188 856
85.9375 54.6875 805
-375 125 956
-437.5 -148.438 1038
-234.375 39.0625 854
-375 -414.062 2522
-375 -414.062 2522
-265.625 85.9375 910
-328.125 -453.125 2744
492.188 421.875 1165
-265.625 -156.25 1031
-398.438 -414.062 2503
15.625 -242.188 847
476.562 -187.5 1028
-421.875 296.875 1119
-132.812 429.688 1241
-367.188 312.5 1105
164.062 -187.5 948
-382.812 -15.625 1050
156.25 -328.125 967
-62.5 -234.375 860
-367.188 101.562 928
-320.312 101.562 913
203.125 281.25 864
218.75 62.5 792
-351.562 242.188 1025
-398.438 171.875 930
-421.875 -93.75 943
-382.812 304.688 1112
-46.875 250 889
101.562 265.625 875
226.562 312.5 1445
-93.75 445.312 1297
210.938 54.6875 794
-390.625 109.375 970
273.438 54.6875 790
-406.25 257.812 1090
-203.125 -250 3333
-359.375 -242.188 1464
265.625 -187.5 959
-39.0625 39.0625 821
93.75 -265.625 837
-390.625 101.562 978
-328.125 390.625 1483
-281.25 359.375 1268
-23.4375 -320.312 1016
453.125 398.438 989
140.625 312.5 1489
-273.438 -171.875 1057
109.375 234.375 869
-484.375 -242.188 3468
382.812 70.3125 776
-257.812 335.938 1292
203.125 -250 908
-304.688 328.125 1297
-375 101.562 925
7.8125 -304.688 851
-484.375 281.25 1123
-265.625 335.938 1302
-31.25 -335.938 1013
-320.312 312.5 1094
-226.562 367.188 1268
-281.25 101.562 920
-351.562 250 1019
164.062 -312.5 970
-398.438 -54.6875 898
375 195.312 854
-460.938 156.25 938
-335.938 93.75 915
117.188 -343.75 1019
-62.5 -242.188 856
-195.312 375 1255
117.188 398.438 1398
-226.562 375 1264
-312.5 312.5 1094
39.0625 -203.125 871
-320.312 -375 3037
-203.125 320.312 1070
414.062 -234.375 1108
-351.562 304.688 1105
-234.375 328.125 1087
-406.25 62.5 1016
-312.5 -320.312 3120
-453.125 281.25 1123
-484.375 -398.438 2256
-218.75 367.188 1259
-359.375 312.5 1105
-156.25 406.25 1197
-156.25 335.938 1080
375 -109.375 845
257.812 382.812 1349
171.875 382.812 1354
-195.312 335.938 1084
-140.625 164.062 930
-468.75 156.25 938
242.188 54.6875 790
-304.688 78.125 906
62.5 179.688 891
-351.562 -421.875 2639
-312.5 101.562 913
375 -62.5 837
-281.25 -187.5 1094
148.438 -257.812 935
367.188 70.3125 776
-265.625 359.375 1268
-335.938 343.75 1283
-359.375 31.25 910
-125 437.5 1255
437.5 437.5 1197
-429.688 164.062 933
-7.8125 -242.188 851
54.6875 46.875 811
-320.312 85.9375 903
-367.188 234.375 1031
-304.688 -351.562 3092
-335.938 187.5 920
-289.062 328.125 1302
31.25 -203.125 871
-78.125 39.0625 827
226.562 54.6875 792
-367.188 78.125 925
-78.125 445.312 1288
164.062 -289.062 973
-390.625 296.875 1112
-398.438 93.75 987
-398.438 93.75 987
-445.312 -132.812 1273
-343.75 93.75 915
140.625 -312.5 984
-250 -250 3365
-484.375 273.438 1123
281.25 54.6875 790
359.375 70.3125 780
-187.5 23.4375 843
-320.312 70.3125 903
-273.438 -15.625 901
-203.125 -234.375 1421
31.25 -320.312 862
-429.688 -31.25 1123
-390.625 257.812 1013
-132.812 31.25 835
31.25 -257.812 841
-437.5 -93.75 1210
-132.812 164.062 930
-242.188 367.188 1264
-382.812 125 956
-242.188 -125 964
125 -328.125 984
359.375 -46.875 833
-281.25 320.312 1094
-218.75 93.75 882
-460.938 312.5 1317
-39.0625 46.875 821
226.562 -250 906
-382.812 132.812 951
7.8125 -218.75 864
-296.875 -132.812 1115
117.188 328.125 1458
-476.562 -382.812 2301
-351.562 343.75 1283
156.25 -273.438 925
-367.188 335.938 1288
-179.688 351.562 1273
328.125 -31.25 813
-117.188 218.75 894
-390.625 46.875 938
-226.562 343.75 1288
-195.312 156.25 933
-382.812 -242.188 1477
-242.188 328.125 1084
218.75 -250 906
-500 -242.188 3399
210.938 -250 906
-367.188 101.562 928
46.875 46.875 811
484.375 -156.25 989
54.6875 -343.75 992
-343.75 85.9375 910
-7.8125 -437.5 1016
-320.312 93.75 906
-210.938 -234.375 1421
398.438 195.312 847
-226.562 210.938 908
-39.0625 -210.938 871
148.438 -265.625 935
-375 -437.5 2598
484.375 70.3125 764
328.125 15.625 817
-390.625 -242.188 1470
226.562 62.5 792
-351.562 -242.188 1458
54.6875 -218.75 862
-7.8125 70.3125 829
-46.875 -382.812 1019
78.125 179.688 887
-421.875 0 1084
-250 335.938 1292
257.812 54.6875 790
140.625 -226.562 1007
54.6875 179.688 894
0 304.688 1601
15.625 -304.688 851
46.875 -203.125 869
-140.625 39.0625 837
15.625 179.688 910
-242.188 70.3125 920
-70.3125 -203.125 1070
179.688 -257.812 915
-406.25 335.938 1297
468.75 -195.312 1044
-289.062 335.938 1302
-187.5 31.25 843
265.625 367.188 1376
-359.375 85.9375 925
-421.875 -39.0625 1038
-85.9375 39.0625 829
132.812 -312.5 989
179.688 187.5 880
164.062 -257.812 920
328.125 -78.125 862
70.3125 -101.562 928
-484.375 414.062 1370
85.9375 46.875 805
-78.125 367.188 1250
93.75 -226.562 858
-484.375 226.562 1070
-179.688 382.812 1250
-226.562 367.188 1268
-335.938 -7.8125 894
-367.188 -242.188 1470
375 -39.0625 835
-304.688 351.562 1278
-335.938 -453.125 2744
-335.938 117.188 918
-250 85.9375 918
476.562 62.5 769
23.4375 -289.062 837
-132.812 -281.25 3238
-210.938 23.4375 845
-304.688 195.312 918
-7.8125 -257.812 845
382.812 195.312 849
39.0625 -218.75 864
-46.875 39.0625 823
-257.812 -23.4375 903
-375 312.5 1328
351.562 -46.875 835
390.625 195.312 849
-257.812 62.5 915
289.062 -70.3125 898
-70.3125 -210.938 1087
-195.312 23.4375 843
156.25 -148.438 987
-187.5 382.812 1255
-476.562 -164.062 1333
-445.312 320.312 1302
-7.8125 -234.375 854
15.625 -289.062 837
-289.062 -125 1105
7.8125 -242.188 851
-382.812 101.562 923
195.312 54.6875 794
234.375 54.6875 790
210.938 187.5 873
203.125 54.6875 794
-70.3125 171.875 920
-328.125 -39.0625 896
-453.125 -164.062 1328
-140.625 31.25 837
-70.3125 -257.812 847
-390.625 117.188 962
-31.25 171.875 913
-85.9375 343.75 1370
-304.688 117.188 915
414.062 -78.125 875
437.5 62.5 771
-359.375 312.5 1105
31.25 -187.5 880
-203.125 23.4375 845
320.312 -23.4375 811
171.875 -312.5 970
312.5 -23.4375 815
281.25 62.5 789
-210.938 343.75 1288
195.312 62.5 796
203.125 62.5 794
70.3125 46.875 807
179.688 -312.5 984
-132.812 39.0625 835
406.25 78.125 774
-31.25 -343.75 1007
-250 343.75 1288
7.8125 -289.062 839
-203.125 343.75 1292
-23.4375 39.0625 819
62.5 -101.562 928
-359.375 39.0625 910
421.875 78.125 771
-445.312 164.062 938
62.5 46.875 811
-281.25 85.9375 908
70.3125 54.6875 809
335.938 15.625 817
351.562 195.312 856
0 335.938 1557
-179.688 375 1250
0 -242.188 851
445.312 62.5 771
0 -234.375 858
-367.188 179.688 925
148.438 -335.938 970
-320.312 351.562 1278
-320.312 -335.938 3092
70.3125 -375 992
-351.562 -210.938 1094
-406.25 -7.8125 1050
-328.125 187.5 918
-328.125 -31.25 894
-125 31.25 835
101.562 187.5 903
-429.688 320.312 1302
70.3125 -132.812 906
-335.938 335.938 1288
-328.125 320.312 1312
164.062 187.5 903
-23.4375 -132.812 913
-328.125 328.125 1288
31.25 -257.812 841
15.625 -195.312 875
148.438 -343.75 964
-257.812 -15.625 940
-54.6875 -328.125 1038
414.062 62.5 774
171.875 -343.75 964
-382.812 328.125 1292
70.3125 328.125 1564
203.125 -250 908
187.5 62.5 796
-375 296.875 1112
-414.062 289.062 1119
-265.625 -171.875 1054
-296.875 -203.125 1108
-54.6875 39.0625 823
-289.062 328.125 1302
-31.25 39.0625 821
343.75 70.3125 780
-148.438 39.0625 837
-414.062 15.625 1067
164.062 359.375 1387
421.875 62.5 774
-476.562 -218.75 1439
-382.812 335.938 1292
320.312 -296.875 1214
-187.5 375 1255
-359.375 304.688 1105
-203.125 335.938 1080
-335.938 335.938 1288
-343.75 187.5 923
-343.75 320.312 1312
-7.8125 -320.312 1004
-39.0625 335.938 1557
-257.812 -140.625 1004
85.9375 -187.5 878
-351.562 312.5 1105
132.812 312.5 1483
242.188 -148.438 978
195.312 -250 908
-273.438 -171.875 1057
-39.0625 39.0625 821
351.562 -117.188 858
-320.312 312.5 1094
-429.688 296.875 1477
7.8125 257.812 885
187.5 328.125 1433
-203.125 351.562 1288
-343.75 171.875 918
-312.5 359.375 1283
-101.562 226.562 889
359.375 62.5 780
-429.688 -117.188 981
-468.75 218.75 1044
-31.25 250 889
-70.3125 375 1245
31.25 257.812 882
23.4375 257.812 882
-335.938 343.75 1283
328.125 312.5 1503
-421.875 -7.8125 1094
-125 218.75 894
-343.75 -46.875 910
-367.188 125 956
-367.188 125 956
-226.562 203.125 906
-500 -414.062 2226
-46.875 46.875 823
-390.625 335.938 1302
-195.312 31.25 843
492.188 195.312 829
-148.438 437.5 1245
-210.938 242.188 989
-398.438 93.75 987
15.625 335.938 1550
-406.25 328.125 1297
-500 -382.812 2286
-257.812 359.375 1273
-70.3125 -195.312 1067
171.875 -296.875 970
-468.75 289.062 1338
-265.625 359.375 1268
23.4375 -257.812 843
-250 406.25 1464
359.375 195.312 854
-195.312 304.688 1050
445.312 195.312 839
-39.0625 -85.9375 928
-328.125 -460.938 2789
171.875 382.812 1354
-312.5 93.75 906
-62.5 39.0625 823
-203.125 250 992
-406.25 62.5 1016
320.312 117.188 809
-54.6875 -85.9375 930
-93.75 39.0625 829
351.562 70.3125 780
-414.062 -54.6875 898
23.4375 -218.75 862
7.8125 -234.375 854
-320.312 -54.6875 913
398.438 -31.25 851
335.938 273.438 845
101.562 54.6875 803
-328.125 70.3125 903
484.375 85.9375 766
-320.312 390.625 1483
-250 335.938 1292
109.375 187.5 906
-226.562 343.75 1288
460.938 85.9375 769
234.375 195.312 896
-453.125 320.312 1307
-351.562 -39.0625 903
-390.625 296.875 1112
-406.25 -54.6875 898
-62.5 -93.75 940
-320.312 320.312 1307
31.25 -257.812 841
375 -46.875 835
-265.625 -7.8125 935
-210.938 351.562 1259
140.625 -289.062 964
-281.25 320.312 1094
-437.5 -85.9375 1206
-281.25 78.125 908
-46.875 -359.375 1025
39.0625 46.875 811
218.75 54.6875 792
-335.938 -46.875 908
-304.688 328.125 1297
-500 328.125 1236
-304.688 -54.6875 913
-335.938 -54.6875 901
-273.438 70.3125 910
23.4375 -242.188 847
140.625 54.6875 800
-398.438 -23.4375 1041
-31.25 -140.625 908
-445.312 -125 1259
-320.312 -367.188 3037
343.75 195.312 856
335.938 195.312 856
343.75 -70.3125 837
-93.75 171.875 918
46.875 46.875 811
-148.438 164.062 928
-453.125 -156.25 1307
-250 328.125 1087
195.312 -156.25 973
7.8125 -382.812 992
-421.875 328.125 1297
-203.125 375 1255
-70.3125 -218.75 869
-414.062 -85.9375 918
93.75 -328.125 1007
382.812 -31.25 800
-156.25 414.062 1214
-343.75 93.75 915
-421.875 -85.9375 925
-351.562 23.4375 906
179.688 390.625 1343
156.25 -265.625 925
-289.062 31.25 906
-421.875 -390.625 2349
-406.25 70.3125 1010
39.0625 -328.125 995
429.688 93.75 776
-382.812 125 956
195.312 398.438 1338
-398.438 -242.188 1464
429.688 62.5 773
304.688 -70.3125 862
-414.062 -250 1477
-289.062 320.312 1094
15.625 -257.812 843
78.125 -164.062 889
39.0625 -296.875 841
328.125 54.6875 785
-398.438 257.812 1090
312.5 70.3125 783
-320.312 109.375 913
-250 367.188 1268
-46.875 -85.9375 930
-390.625 117.188 962
-406.25 -406.25 2450
-23.4375 -242.188 851
54.6875 54.6875 811
156.25 359.375 1387
312.5 -93.75 867
-289.062 -203.125 1105
-62.5 46.875 823
-156.25 39.0625 837
31.25 -218.75 864
-429.688 -31.25 1123
-39.0625 343.75 1550
23.4375 -234.375 854
85.9375 -132.812 908
-476.562 250 1105
312.5 -78.125 864
-54.6875 250 891
-210.938 343.75 1288
-15.625 -257.812 845
46.875 -218.75 862
-375 78.125 920
-312.5 85.9375 903
335.938 70.3125 781
265.625 -289.062 978
257.812 195.312 894
85.9375 -179.688 882
164.062 367.188 1376
-70.3125 46.875 827
-406.25 7.8125 1077
78.125 46.875 807
-265.625 335.938 1302
-54.6875 46.875 823
-421.875 289.062 1119
31.25 -289.062 837
23.4375 -195.312 875
312.5 -296.875 1214
210.938 62.5 794
-164.062 39.0625 837
-46.875 39.0625 823
-31.25 382.812 1496
-390.625 304.688 1112
78.125 -390.625 992
-429.688 -23.4375 1115
117.188 -335.938 1022
-414.062 304.688 1328
-117.188 31.25 835
375 -31.25 835
-382.812 62.5 928
-367.188 320.312 1322
320.312 62.5 783
-484.375 156.25 940
101.562 46.875 803
-226.562 -234.375 1427
-70.3125 -179.688 891
-23.4375 367.188 1516
101.562 367.188 1452
-437.5 320.312 1297
-101.562 382.812 1245
-265.625 -148.438 1019
-156.25 31.25 833
-70.3125 -250 849
164.062 375 1370
-187.5 375 1255
156.25 187.5 903
-359.375 -46.875 903
-226.562 23.4375 839
-445.312 -312.5 2349
-476.562 312.5 1307
-78.125 171.875 918
-500 -375 2286
-281.25 -195.312 1077
-445.312 414.062 1410
-453.125 -375 2286
156.25 -257.812 918
-390.625 -54.6875 887
359.375 -39.0625 831
54.6875 359.375 1516
117.188 -351.562 973
-226.562 367.188 1255
-265.625 328.125 1087
15.625 -242.188 847
-343.75 351.562 1283
62.5 54.6875 807
304.688 70.3125 783
320.312 70.3125 783
-492.188 226.562 1067
140.625 -343.75 962
-242.188 328.125 1084
-164.062 164.062 925
-390.625 -445.312 2579
31.25 46.875 811
39.0625 -429.688 995
-367.188 -421.875 2560
414.062 421.875 1054
-281.25 -187.5 1073
-390.625 -398.438 2415
78.125 -210.938 864
-195.312 281.25 1016
187.5 54.6875 796
117.188 320.312 1464
210.938 54.6875 792
335.938 -101.562 871
-468.75 281.25 1126
85.9375 -203.125 869
-328.125 320.312 1087
-304.688 351.562 1264
492.188 203.125 829
171.875 54.6875 796
-359.375 304.688 1097
-132.812 31.25 831
70.3125 46.875 805
-398.438 304.688 1105
398.438 62.5 776
-390.625 -15.625 930
-257.812 101.562 923
164.062 62.5 798
-23.4375 -296.875 843
-54.6875 -226.562 860
226.562 -250 903
187.5 -250 908
-62.5 39.0625 819
101.562 335.938 1439
-375 -39.0625 882
-31.25 -93.75 935
-296.875 -296.875 3208
-351.562 109.375 933
-312.5 78.125 901
-203.125 273.438 1010
-312.5 421.875 1433
-257.812 335.938 1288
-257.812 78.125 910
-484.375 312.5 1302
-234.375 367.188 1259
335.938 -46.875 837
-257.812 -46.875 913
-375 335.938 1283
-140.625 218.75 891
492.188 101.562 767
-23.4375 -289.062 837
-265.625 -140.625 1019
62.5 -203.125 869
62.5 -281.25 833
-218.75 101.562 885
-328.125 -445.312 2812
257.812 62.5 790
-390.625 46.875 935
-54.6875 39.0625 817
195.312 -250 906
-429.688 296.875 1322
406.25 62.5 774
171.875 62.5 796
-54.6875 -218.75 864
-437.5 -93.75 1197
203.125 398.438 1333
-210.938 31.25 841
195.312 398.438 1333
171.875 -265.625 910
15.625 -265.625 837
-70.3125 -187.5 880
328.125 70.3125 781
250 328.125 1421
-242.188 85.9375 923
-171.875 164.062 923
429.688 70.3125 769
-375 125 954
-78.125 46.875 823
-78.125 312.5 1439
-171.875 39.0625 835
-62.5 -382.812 1028
7.8125 -234.375 851
-210.938 250 989
328.125 -109.375 862
-101.562 39.0625 827
-203.125 31.25 839
179.688 62.5 796
-289.062 328.125 1292
-351.562 93.75 910
203.125 195.312 896
343.75 -31.25 821
210.938 195.312 896
171.875 257.812 860
234.375 -250 898
-289.062 359.375 1264
-328.125 -429.688 2883
-359.375 343.75 1268
-312.5 328.125 1297
-281.25 109.375 920
-429.688 -54.6875 1041
-312.5 429.688 1427
46.875 367.188 1516
351.562 -23.4375 805
-367.188 312.5 1097
390.625 -289.062 1193
-343.75 70.3125 898
-375 -242.188 1458
-7.8125 -218.75 860
250 62.5 790
-203.125 335.938 1077
-421.875 0 1077
-31.25 -85.9375 925
-273.438 85.9375 903
-390.625 179.688 923
-226.562 335.938 1080
-62.5 -210.938 869
-382.812 -242.188 1464
-39.0625 -85.9375 925
39.0625 -250 843
-351.562 31.25 896
-296.875 335.938 1297
-453.125 164.062 933
382.812 -70.3125 851
-218.75 164.062 923
-109.375 164.062 915
-437.5 -54.6875 1145
-382.812 343.75 1292
-375 343.75 1283
-445.312 -273.438 2398
-289.062 -46.875 906
109.375 -359.375 1013
-273.438 335.938 1297
-382.812 125 954
-234.375 -234.375 1415
-437.5 -140.625 1010
39.0625 -132.812 906
-281.25 328.125 1087
-70.3125 39.0625 821
-382.812 -31.25 964
304.688 62.5 783
31.25 -117.188 918
-265.625 -62.5 918
-414.062 7.8125 1070
-148.438 31.25 833
390.625 62.5 776
-375 7.8125 925
-343.75 -46.875 906
15.625 -179.688 882
-492.188 398.438 1333
93.75 -367.188 998
375 62.5 776
-179.688 242.188 981
46.875 54.6875 809
164.062 54.6875 796
-203.125 281.25 1022
-367.188 101.562 923
-437.5 -85.9375 1193
414.062 62.5 773
140.625 -265.625 938
54.6875 242.188 871
-164.062 31.25 833
156.25 62.5 798
-273.438 359.375 1264
351.562 62.5 778
359.375 -117.188 849
-320.312 -31.25 891
-210.938 23.4375 841
-218.75 23.4375 841
-328.125 23.4375 896
476.562 203.125 839
23.4375 46.875 811
-468.75 -328.125 2271
312.5 62.5 783
-15.625 -195.312 875
343.75 -23.4375 813
382.812 62.5 776
-257.812 -54.6875 915
-304.688 125 956
-296.875 39.0625 898
-179.688 39.0625 835
-109.375 226.562 887
39.0625 54.6875 811
148.438 62.5 800
-421.875 -23.4375 1031
-398.438 93.75 984
-328.125 117.188 906
-31.25 -273.438 835
-7.8125 -390.625 989
-484.375 218.75 1047
-156.25 164.062 925
39.0625 -296.875 837
93.75 187.5 901
-343.75 343.75 1278
7.8125 242.188 875
-375 93.75 920
-93.75 359.375 1250
414.062 93.75 778
-23.4375 -85.9375 925
-15.625 46.875 819
-203.125 265.625 1004
125 250 862
-445.312 406.25 1415
179.688 -257.812 910
-210.938 375 1255
-109.375 39.0625 827
171.875 -257.812 910
-406.25 -242.188 1445
-39.0625 -343.75 1004
296.875 62.5 785
250 312.5 1439
-226.562 62.5 856
-406.25 328.125 1288
-140.625 375 1157
-460.938 312.5 1307
-78.125 39.0625 823
414.062 398.438 1031
179.688 195.312 896
382.812 421.875 1105
351.562 203.125 885
-390.625 328.125 1288
-85.9375 171.875 918
343.75 -78.125 839
-335.938 70.3125 898
-234.375 85.9375 930
54.6875 -343.75 989
-312.5 -265.625 3208
-328.125 312.5 1087
-359.375 -257.812 3433
-359.375 320.312 1312
-289.062 101.562 913
39.0625 179.688 901
-31.25 179.688 913
-406.25 320.312 1302
179.688 429.688 1338
-328.125 351.562 1268
-375 242.188 1034
-312.5 -312.5 3120
492.188 429.688 1169
-179.688 164.062 923
-140.625 31.25 833
-46.875 -93.75 933
320.312 195.312 860
-203.125 226.562 901
