ply
format ascii 1.0
comment Created by Open3D
element vertex 2372
property double x
property double y
property double z
end_header
-140.625 140.625 802
-226.562 359.375 1632
-304.688 -62.5 1025
140.625 -39.0625 746
-132.812 -468.75 2271
406.25 -351.562 722
0 -359.375 1219
187.5 -23.4375 733
195.312 -445.312 757
-328.125 312.5 1766
468.75 -234.375 682
-218.75 148.438 875
296.875 -125 635
367.188 -429.688 696
-242.188 117.188 841
117.188 -195.312 835
-93.75 -250 933
-93.75 -101.562 796
-78.125 398.438 1404
-226.562 117.188 837
-445.312 -414.062 2958
203.125 218.75 637
-171.875 179.688 856
-335.938 304.688 1776
148.438 -156.25 653
-257.812 125 894
-257.812 296.875 1489
-62.5 -148.438 807
-281.25 -23.4375 989
-281.25 -156.25 875
15.625 156.25 682
-148.438 156.25 807
414.062 -273.438 684
39.0625 -429.688 2835
-414.062 132.812 940
218.75 -390.625 738
-93.75 101.562 713
156.25 -148.438 657
-117.188 -203.125 956
304.688 -101.562 646
468.75 -195.312 637
-289.062 -93.75 819
-171.875 -382.812 1297
476.562 -343.75 657
-429.688 -304.688 2883
-210.938 328.125 1489
187.5 203.125 638
468.75 -242.188 680
-7.8125 140.625 688
218.75 -328.125 774
414.062 -343.75 730
-492.188 -390.625 2812
273.438 -171.875 609
117.188 -187.5 833
132.812 -109.375 690
-85.9375 -203.125 869
414.062 -335.938 736
414.062 -367.188 719
-15.625 320.312 794
-414.062 -304.688 2859
-70.3125 281.25 803
-257.812 132.812 891
-257.812 203.125 871
-296.875 -31.25 998
484.375 -187.5 632
132.812 -78.125 767
-85.9375 7.8125 780
421.875 -406.25 710
-421.875 -304.688 2859
312.5 -85.9375 652
-421.875 -328.125 2883
-304.688 -54.6875 1019
-148.438 -421.875 2984
-140.625 359.375 1452
-156.25 351.562 1458
-296.875 390.625 1688
-78.125 382.812 1410
-250 335.938 1550
-320.312 210.938 1019
-101.562 312.5 1028
-289.062 -62.5 796
-93.75 -31.25 781
-460.938 -250 2723
210.938 -46.875 708
-109.375 -265.625 933
-273.438 312.5 1523
445.312 -359.375 663
-187.5 335.938 1483
257.812 -109.375 654
-148.438 -179.688 964
-93.75 -140.625 925
-140.625 296.875 1050
31.25 156.25 678
-62.5 132.812 704
437.5 -351.562 666
-117.188 -54.6875 771
39.0625 164.062 678
398.438 -367.188 713
484.375 -218.75 683
-500 -375 2835
-492.188 -359.375 2835
445.312 -250 703
242.188 -195.312 603
-312.5 343.75 1739
445.312 -335.938 664
-148.438 70.3125 785
-85.9375 -78.125 774
-39.0625 148.438 701
-156.25 140.625 802
210.938 -148.438 638
-101.562 375 1433
-273.438 296.875 1464
-296.875 -62.5 796
203.125 210.938 635
-15.625 -101.562 935
7.8125 429.688 1370
-179.688 -23.4375 783
-281.25 -375 2883
234.375 -335.938 755
-54.6875 125 701
-257.812 -23.4375 783
-250 -23.4375 783
343.75 -171.875 594
-406.25 -335.938 2958
-117.188 -375 1268
445.312 -351.562 663
164.062 195.312 644
398.438 367.188 701
-156.25 -445.312 3064
335.938 -85.9375 647
-78.125 -70.3125 774
101.562 429.688 1292
-109.375 -179.688 954
367.188 -289.062 767
-359.375 -250 1202
257.812 250 643
-85.9375 -46.875 789
-164.062 -468.75 3149
-257.812 -62.5 798
-320.312 281.25 1439
-265.625 328.125 1557
-203.125 226.562 851
-7.8125 156.25 691
-281.25 -195.312 903
-226.562 320.312 1509
-85.9375 -210.938 880
125 -132.812 798
242.188 -109.375 654
304.688 -414.062 701
85.9375 171.875 664
-296.875 -117.188 1067
312.5 234.375 611
218.75 -39.0625 713
289.062 -93.75 655
351.562 242.188 606
-54.6875 -140.625 802
-148.438 -54.6875 771
250 218.75 625
-210.938 15.625 780
46.875 -351.562 1197
-234.375 265.625 1536
429.688 -281.25 688
257.812 -187.5 603
-195.312 -15.625 781
-187.5 351.562 1464
210.938 -390.625 746
-164.062 -46.875 771
343.75 -195.312 582
-351.562 164.062 903
-359.375 289.062 1804
0 351.562 1004
187.5 -242.188 611
-296.875 304.688 1766
-39.0625 -78.125 935
343.75 -187.5 585
-320.312 265.625 1370
-296.875 -187.5 1126
-250 250 1483
-93.75 -23.4375 778
-46.875 -109.375 785
429.688 -273.438 684
445.312 -343.75 663
-7.8125 -359.375 1219
-320.312 328.125 1748
445.312 -328.125 664
187.5 -156.25 641
304.688 -429.688 700
-31.25 132.812 696
93.75 187.5 666
-85.9375 125 710
-257.812 -15.625 981
296.875 -289.062 620
421.875 -304.688 862
203.125 -359.375 767
218.75 -234.375 604
-85.9375 -195.312 867
-343.75 -304.688 2812
39.0625 171.875 682
-242.188 335.938 1550
187.5 -351.562 794
70.3125 179.688 671
-281.25 296.875 1477
117.188 187.5 655
140.625 -85.9375 700
-226.562 -23.4375 774
-304.688 -78.125 1034
-15.625 -85.9375 938
429.688 -250 680
-265.625 117.188 901
414.062 -242.188 684
-93.75 117.188 708
468.75 -203.125 637
-39.0625 312.5 967
-203.125 117.188 807
-179.688 156.25 869
23.4375 390.625 1169
-281.25 250 1410
421.875 -156.25 713
-281.25 195.312 885
-117.188 -429.688 2333
-210.938 85.9375 796
-265.625 -23.4375 787
343.75 -203.125 582
429.688 -398.438 713
125 -148.438 807
-296.875 -156.25 1097
-117.188 -187.5 959
-171.875 7.8125 771
7.8125 148.438 683
421.875 -375 717
343.75 -179.688 589
-289.062 -85.9375 817
-257.812 210.938 871
31.25 421.875 1359
-250 -15.625 783
-125 203.125 837
-156.25 -23.4375 778
148.438 203.125 652
-437.5 -296.875 2723
132.812 -335.938 1161
-445.312 125 948
-328.125 265.625 1415
-296.875 -132.812 1077
-140.625 -23.4375 778
320.312 242.188 610
148.438 -179.688 638
-296.875 -210.938 1145
421.875 -312.5 757
-93.75 -242.188 935
421.875 -398.438 711
476.562 -273.438 674
156.25 257.812 716
398.438 -242.188 688
-242.188 117.188 841
-421.875 117.188 933
109.375 -429.688 2812
-265.625 203.125 878
-171.875 242.188 847
-93.75 15.625 785
351.562 -250 597
15.625 375 1119
-281.25 304.688 1503
-210.938 -23.4375 774
-187.5 -273.438 938
-15.625 148.438 690
429.688 -414.062 711
109.375 179.688 657
-15.625 -476.562 3037
-304.688 367.188 1722
-39.0625 140.625 698
-242.188 39.0625 943
-62.5 -367.188 1241
367.188 -281.25 767
171.875 210.938 647
437.5 -343.75 670
-187.5 234.375 841
-195.312 62.5 792
-179.688 -179.688 967
312.5 -23.4375 698
15.625 148.438 682
-257.812 -31.25 783
-195.312 335.938 1483
-171.875 62.5 789
445.312 -398.438 725
187.5 203.125 638
437.5 -257.812 680
-296.875 -179.688 1119
429.688 -226.562 658
-156.25 54.6875 790
-437.5 -414.062 2984
125 -140.625 803
-109.375 -382.812 1273
-273.438 328.125 1739
-281.25 -187.5 898
-70.3125 46.875 790
257.812 -257.812 610
-335.938 171.875 898
-242.188 257.812 1509
-234.375 132.812 843
398.438 257.812 593
-62.5 -148.438 807
-367.188 85.9375 930
343.75 -226.562 586
-70.3125 -109.375 789
429.688 -218.75 657
-62.5 -226.562 885
-328.125 179.688 903
-218.75 226.562 862
140.625 187.5 652
414.062 -328.125 741
-273.438 -382.812 2883
-453.125 -437.5 2908
148.438 -257.812 623
-250 -265.625 1189
-226.562 70.3125 827
-46.875 -101.562 783
273.438 -234.375 597
195.312 -242.188 610
-257.812 289.062 1483
39.0625 421.875 1283
-156.25 46.875 796
-23.4375 -148.438 1028
-164.062 7.8125 771
320.312 234.375 611
335.938 242.188 606
78.125 -195.312 843
375 250 598
312.5 -117.188 632
-70.3125 -125 796
54.6875 -156.25 821
-296.875 -164.062 1105
421.875 -421.875 707
406.25 -273.438 845
-320.312 164.062 887
-367.188 156.25 906
-132.812 140.625 800
-54.6875 -132.812 796
-62.5 -242.188 896
62.5 164.062 671
-265.625 312.5 1516
-296.875 -148.438 1087
-226.562 132.812 843
343.75 -218.75 585
-156.25 -85.9375 794
-210.938 265.625 981
234.375 -429.688 720
343.75 242.188 606
-226.562 -31.25 774
398.438 -343.75 720
-179.688 281.25 1077
7.8125 -78.125 978
-304.688 -70.3125 1028
-281.25 -125 841
7.8125 414.062 1376
-468.75 414.062 1688
359.375 -421.875 696
-265.625 109.375 906
-132.812 156.25 798
-265.625 0 973
250 -234.375 600
-101.562 -273.438 928
-70.3125 125 704
-429.688 132.812 1126
-218.75 78.125 802
-492.188 85.9375 970
257.812 85.9375 678
132.812 187.5 652
210.938 210.938 634
-125 140.625 798
-453.125 -203.125 2598
-226.562 39.0625 796
218.75 -359.375 750
335.938 -93.75 642
343.75 -242.188 593
-476.562 -460.938 2744
39.0625 -351.562 1197
-296.875 -203.125 1138
-46.875 15.625 741
445.312 -335.938 664
429.688 -359.375 678
-242.188 343.75 1594
-31.25 -7.8125 754
343.75 -359.375 710
-140.625 -54.6875 771
-312.5 359.375 1722
-328.125 320.312 1757
382.812 15.625 690
-179.688 78.125 787
304.688 -31.25 694
-460.938 -460.938 2883
-85.9375 320.312 1028
-179.688 0 773
257.812 226.562 624
234.375 226.562 629
-46.875 -62.5 970
117.188 195.312 659
-187.5 -382.812 1302
-453.125 -187.5 2598
-265.625 -62.5 794
210.938 -437.5 738
-15.625 140.625 690
117.188 -203.125 841
-156.25 -15.625 774
-23.4375 398.438 1398
54.6875 164.062 674
226.562 218.75 629
-117.188 -421.875 2349
-62.5 328.125 1025
-171.875 -382.812 1297
39.0625 156.25 678
23.4375 148.438 682
171.875 203.125 642
-453.125 117.188 948
-117.188 -375 1268
132.812 -85.9375 769
195.312 -62.5 701
62.5 171.875 671
117.188 -179.688 829
-125 -273.438 938
-500 -109.375 1097
-7.8125 140.625 688
210.938 -234.375 604
164.062 195.312 644
343.75 -210.938 582
-296.875 -171.875 1108
-23.4375 -234.375 1097
218.75 -242.188 606
187.5 -242.188 611
-273.438 203.125 878
0 304.688 783
-85.9375 85.9375 716
250 -257.812 611
156.25 -156.25 652
-78.125 117.188 707
265.625 -179.688 607
-7.8125 -85.9375 984
-148.438 -414.062 2958
-343.75 304.688 1776
-93.75 -85.9375 785
-234.375 132.812 843
-23.4375 140.625 693
304.688 234.375 612
-23.4375 -23.4375 755
-296.875 -195.312 1130
-156.25 0 771
85.9375 -210.938 849
203.125 -320.312 910
-93.75 -234.375 885
7.8125 156.25 683
-54.6875 31.25 739
-125 -375 1268
382.812 -234.375 821
335.938 -101.562 636
-335.938 -312.5 2835
-164.062 -468.75 3149
343.75 -250 596
-140.625 132.812 798
-132.812 93.75 787
-304.688 -414.062 3092
492.188 31.25 664
-437.5 125 940
62.5 179.688 674
281.25 226.562 619
273.438 62.5 684
-335.938 -414.062 3120
-187.5 -15.625 781
-281.25 210.938 1080
406.25 257.812 592
-164.062 148.438 811
-203.125 31.25 778
-85.9375 -187.5 862
320.312 -414.062 698
-250 304.688 1516
-289.062 -23.4375 992
187.5 -23.4375 733
125 -156.25 811
31.25 406.25 1206
-70.3125 117.188 704
-46.875 -93.75 783
-226.562 218.75 851
-85.9375 -195.312 867
-382.812 156.25 1105
-265.625 304.688 1489
-117.188 296.875 1034
335.938 -203.125 583
296.875 -429.688 701
187.5 -171.875 632
-351.562 296.875 1794
218.75 -148.438 636
-367.188 -304.688 2812
-242.188 257.812 1509
-78.125 -78.125 774
125 -125 792
-265.625 109.375 906
-15.625 -93.75 938
-296.875 -187.5 1126
-164.062 -476.562 3149
-109.375 -7.8125 773
-54.6875 140.625 704
-93.75 -257.812 933
-296.875 -140.625 1084
-390.625 148.438 915
-203.125 0 780
-289.062 -101.562 819
-414.062 140.625 940
-31.25 0 746
0 148.438 688
335.938 -39.0625 678
-46.875 -101.562 783
-437.5 -398.438 2984
-234.375 -140.625 908
421.875 -296.875 854
382.812 -351.562 713
468.75 -39.0625 703
-289.062 -367.188 2883
93.75 -343.75 1177
132.812 -70.3125 764
335.938 23.4375 693
-210.938 -257.812 940
-296.875 -156.25 1097
-179.688 -382.812 1302
-320.312 328.125 1748
210.938 -351.562 767
187.5 -70.3125 698
-62.5 -367.188 1241
-7.8125 -359.375 1219
-242.188 210.938 867
-250 -132.812 873
-7.8125 289.062 783
-187.5 156.25 869
-93.75 -46.875 789
-296.875 -218.75 1149
414.062 -335.938 736
-70.3125 140.625 711
-265.625 -23.4375 787
-7.8125 -46.875 767
62.5 335.938 774
-203.125 242.188 851
-242.188 148.438 880
-7.8125 -46.875 767
203.125 -234.375 607
429.688 -289.062 693
289.062 234.375 618
296.875 -125 635
-39.0625 -234.375 1097
-31.25 -156.25 943
-218.75 140.625 880
156.25 195.312 647
-156.25 148.438 809
-85.9375 -273.438 923
-164.062 93.75 787
-203.125 273.438 981
-343.75 171.875 910
-93.75 23.4375 794
-210.938 62.5 796
164.062 -23.4375 736
414.062 -367.188 719
85.9375 179.688 664
-62.5 46.875 728
31.25 156.25 678
23.4375 156.25 680
234.375 -78.125 678
343.75 -164.062 598
335.938 -148.438 610
-421.875 93.75 935
-414.062 -273.438 2767
-234.375 257.812 973
-265.625 -31.25 787
7.8125 164.062 693
-54.6875 -140.625 802
-164.062 289.062 1067
-195.312 -164.062 959
-257.812 140.625 887
-125 304.688 1489
-453.125 -359.375 2908
117.188 -171.875 825
-226.562 85.9375 825
359.375 -273.438 606
-78.125 -164.062 841
117.188 -406.25 2744
203.125 -382.812 757
23.4375 -437.5 2933
421.875 -304.688 862
-101.562 304.688 1028
226.562 -242.188 606
109.375 179.688 657
437.5 -343.75 670
179.688 -406.25 781
-70.3125 -101.562 783
406.25 -351.562 722
210.938 -398.438 744
-289.062 -140.625 1084
-78.125 -148.438 817
335.938 -78.125 650
250 -15.625 720
273.438 226.562 621
421.875 -414.062 710
164.062 -156.25 649
195.312 -328.125 920
125 -132.812 798
-15.625 156.25 693
140.625 -210.938 622
-445.312 -273.438 2701
296.875 -421.875 701
210.938 210.938 634
78.125 398.438 1312
328.125 -101.562 638
15.625 -101.562 987
-312.5 187.5 891
398.438 -414.062 700
-296.875 421.875 1655
-492.188 101.562 2090
-148.438 -39.0625 771
-70.3125 -93.75 780
7.8125 -85.9375 981
-70.3125 -367.188 1241
414.062 0 691
-54.6875 -132.812 796
-250 -7.8125 975
390.625 406.25 688
234.375 218.75 628
-406.25 132.812 933
-15.625 -359.375 1223
-445.312 -234.375 2701
-445.312 398.438 1696
179.688 -179.688 629
-132.812 375 1445
46.875 320.312 769
-54.6875 125 701
406.25 406.25 686
-203.125 15.625 774
-85.9375 -203.125 869
335.938 -140.625 612
78.125 171.875 666
343.75 -156.25 602
-62.5 -148.438 807
0 -62.5 771
328.125 -23.4375 693
-304.688 187.5 894
445.312 273.438 581
117.188 -179.688 829
-234.375 148.438 878
117.188 -187.5 833
-85.9375 -179.688 849
414.062 -101.562 741
-62.5 125 704
-296.875 -132.812 1077
195.312 -23.4375 731
335.938 -406.25 698
414.062 -328.125 741
-281.25 -375 2883
132.812 187.5 652
-109.375 -273.438 933
-39.0625 -101.562 783
-93.75 125 710
-179.688 343.75 1464
-250 312.5 1516
429.688 -382.812 719
265.625 -304.688 767
-226.562 140.625 882
-54.6875 -125 790
85.9375 414.062 1278
-445.312 414.062 1680
-437.5 -265.625 2767
-93.75 -15.625 776
421.875 -226.562 674
-117.188 164.062 858
-125 -421.875 2333
-39.0625 148.438 701
414.062 -281.25 847
-210.938 226.562 858
-218.75 62.5 802
-156.25 -437.5 3037
-15.625 -39.0625 767
-390.625 -250 2701
437.5 -250 680
-273.438 78.125 925
-398.438 148.438 1115
-171.875 0 773
-179.688 -273.438 938
-250 -125 871
-460.938 -210.938 2659
-234.375 -23.4375 776
31.25 -351.562 1202
351.562 250 603
234.375 -109.375 657
-296.875 -164.062 1105
-46.875 15.625 741
-289.062 -54.6875 794
156.25 -148.438 657
132.812 -335.938 1161
-484.375 117.188 2065
414.062 -234.375 682
-304.688 351.562 1731
-54.6875 23.4375 741
-242.188 218.75 867
7.8125 -312.5 1165
429.688 -367.188 664
46.875 -476.562 3010
-164.062 -460.938 3120
-304.688 382.812 1696
429.688 -304.688 682
-93.75 -242.188 935
-93.75 -7.8125 774
-304.688 -85.9375 1041
-492.188 93.75 964
304.688 -93.75 648
-70.3125 -148.438 815
-109.375 31.25 796
304.688 -7.8125 711
-93.75 -226.562 943
445.312 -312.5 679
-421.875 -296.875 2859
-78.125 70.3125 720
-484.375 -210.938 2680
218.75 -234.375 604
226.562 -70.3125 687
-242.188 125 841
242.188 -15.625 720
242.188 -15.625 720
296.875 242.188 614
-210.938 140.625 813
-265.625 -15.625 987
-62.5 140.625 707
-296.875 289.062 1421
-234.375 359.375 1705
343.75 -335.938 719
289.062 -335.938 731
-289.062 -210.938 1145
437.5 -335.938 679
-296.875 -93.75 819
-414.062 -296.875 2789
-78.125 -156.25 819
-257.812 140.625 887
31.25 164.062 679
-296.875 -359.375 2933
437.5 -234.375 679
-195.312 -382.812 1302
-468.75 -359.375 2789
460.938 -195.312 638
265.625 -210.938 594
-460.938 -234.375 2701
-85.9375 -187.5 862
335.938 -171.875 596
-39.0625 132.812 698
-242.188 -78.125 802
-226.562 54.6875 837
187.5 -437.5 769
179.688 -23.4375 734
-140.625 289.062 1050
-312.5 335.938 1748
171.875 -23.4375 736
-250 -54.6875 792
-117.188 -265.625 935
-187.5 125 802
203.125 -406.25 750
257.812 -257.812 610
226.562 -406.25 731
31.25 320.312 776
-195.312 78.125 790
-414.062 179.688 1214
-226.562 367.188 1696
-179.688 -15.625 781
312.5 -296.875 752
-187.5 78.125 789
343.75 -257.812 599
445.312 -242.188 708
-164.062 351.562 1464
101.562 179.688 658
453.125 -242.188 713
-234.375 320.312 1509
429.688 -242.188 680
-187.5 -382.812 1302
117.188 179.688 654
-101.562 0 773
-335.938 164.062 898
414.062 -320.312 752
-101.562 -265.625 930
-101.562 -39.0625 787
-500 101.562 964
-453.125 -437.5 2908
203.125 -414.062 750
140.625 195.312 652
109.375 -218.75 854
226.562 226.562 631
210.938 -429.688 739
-164.062 -171.875 959
312.5 234.375 611
-234.375 164.062 869
335.938 -132.812 619
-226.562 140.625 882
-78.125 140.625 717
0 351.562 1004
125 -117.188 789
218.75 -429.688 733
-445.312 -421.875 2958
421.875 -375 717
-164.062 195.312 845
39.0625 -132.812 1001
156.25 195.312 647
54.6875 -429.688 2859
367.188 -304.688 744
-85.9375 117.188 708
-125 -429.688 2333
140.625 -132.812 672
406.25 -398.438 704
-289.062 -23.4375 992
-117.188 -390.625 1278
203.125 -234.375 607
-273.438 85.9375 923
7.8125 296.875 780
-320.312 289.062 1794
-437.5 -406.25 2984
23.4375 -101.562 794
-31.25 -476.562 3064
265.625 -23.4375 711
195.312 -320.312 913
140.625 203.125 655
-164.062 78.125 787
-445.312 156.25 1993
-250 93.75 841
7.8125 156.25 683
437.5 -210.938 652
445.312 -343.75 663
437.5 -382.812 722
289.062 -23.4375 706
-210.938 70.3125 796
-273.438 -15.625 987
-429.688 -250 2701
85.9375 187.5 668
39.0625 -351.562 1197
195.312 210.938 637
-460.938 -242.188 2723
-250 -39.0625 781
-78.125 125 707
85.9375 179.688 664
-226.562 171.875 864
85.9375 343.75 761
250 -46.875 700
-351.562 -296.875 2789
-93.75 -101.562 796
-265.625 250 1445
-242.188 148.438 880
320.312 -46.875 678
140.625 -78.125 766
-179.688 -46.875 773
-140.625 70.3125 787
-46.875 -93.75 783
-31.25 179.688 736
421.875 -93.75 736
335.938 -179.688 590
132.812 -78.125 767
-226.562 320.312 1509
-125 273.438 823
367.188 -406.25 696
-250 54.6875 858
117.188 -171.875 825
-351.562 171.875 1087
195.312 218.75 642
-70.3125 132.812 706
-250 148.438 880
429.688 -343.75 679
-140.625 375 1445
-125 -375 1268
-156.25 156.25 809
-203.125 273.438 981
-148.438 156.25 807
-210.938 171.875 864
-453.125 -257.812 2767
-281.25 320.312 1757
-304.688 -93.75 1050
-54.6875 -125 790
-109.375 265.625 817
218.75 -406.25 736
-203.125 -382.812 1307
414.062 -109.375 694
421.875 -296.875 854
109.375 -226.562 860
-132.812 -375 1273
54.6875 171.875 674
-460.938 -453.125 2883
-70.3125 -367.188 1241
-265.625 125 896
343.75 -234.375 589
343.75 -250 596
-46.875 148.438 708
-132.812 -273.438 938
-242.188 125 841
109.375 187.5 658
406.25 -351.562 722
445.312 -351.562 663
7.8125 148.438 683
296.875 -414.062 703
-460.938 -429.688 2835
-453.125 85.9375 948
-93.75 125 710
-289.062 -203.125 1134
-15.625 -359.375 1223
-398.438 -429.688 3178
-343.75 -414.062 3092
62.5 -414.062 2812
-85.9375 125 710
-226.562 226.562 851
273.438 -46.875 691
375 -367.188 707
-195.312 140.625 809
-218.75 -265.625 943
7.8125 312.5 783
414.062 -257.812 683
7.8125 -312.5 1165
250 -117.188 650
-234.375 117.188 843
-7.8125 429.688 1376
-296.875 -78.125 811
234.375 -15.625 722
-460.938 -203.125 2598
54.6875 328.125 773
-132.812 195.312 843
-31.25 414.062 1398
-46.875 140.625 701
-257.812 132.812 891
-210.938 328.125 1489
-31.25 132.812 696
-78.125 -132.812 809
296.875 -437.5 701
39.0625 328.125 780
54.6875 179.688 679
492.188 -250 704
31.25 -351.562 1202
468.75 -312.5 670
-85.9375 -179.688 849
46.875 -343.75 1185
-242.188 -23.4375 780
-179.688 359.375 1464
54.6875 164.062 674
-453.125 -429.688 2883
-140.625 257.812 827
312.5 242.188 611
-46.875 15.625 741
-109.375 -273.438 933
-398.438 -437.5 3300
265.625 -250 606
0 148.438 688
-101.562 -31.25 780
-437.5 -390.625 2984
-468.75 414.062 1688
-468.75 -390.625 2835
390.625 -335.938 725
-242.188 257.812 1509
-296.875 -85.9375 817
-250 257.812 1489
367.188 -375 706
-273.438 -23.4375 787
335.938 -148.438 610
242.188 -343.75 746
31.25 -117.188 1001
46.875 164.062 676
-78.125 -101.562 789
-257.812 -23.4375 783
390.625 257.812 594
0 -429.688 2859
-343.75 -304.688 2812
-46.875 -101.562 783
-140.625 -179.688 962
187.5 -125 662
-78.125 -367.188 1245
-179.688 148.438 803
117.188 -164.062 819
-109.375 39.0625 792
-117.188 367.188 1439
-500 -359.375 2835
-257.812 140.625 887
-164.062 132.812 802
460.938 -250 680
-226.562 31.25 789
437.5 -335.938 679
-367.188 164.062 1090
179.688 -156.25 643
-23.4375 148.438 693
-359.375 164.062 906
-304.688 304.688 1776
460.938 -257.812 679
-250 -23.4375 783
367.188 250 598
-195.312 125 805
-343.75 156.25 896
234.375 -195.312 607
-218.75 140.625 880
-289.062 -117.188 837
195.312 -234.375 608
-218.75 171.875 864
-78.125 -140.625 811
-226.562 156.25 875
31.25 171.875 683
-312.5 289.062 1458
-93.75 -234.375 885
-226.562 140.625 882
-125 -179.688 959
-93.75 -93.75 789
468.75 -296.875 672
421.875 -289.062 693
-273.438 78.125 925
226.562 -195.312 609
-296.875 429.688 1655
406.25 -343.75 727
-335.938 289.062 1794
70.3125 -187.5 1041
-328.125 281.25 1794
62.5 -171.875 1028
-140.625 -476.562 2271
-242.188 351.562 1647
476.562 -187.5 634
-234.375 0 790
140.625 -93.75 697
429.688 -218.75 657
-296.875 -23.4375 992
-171.875 187.5 849
7.8125 -78.125 978
-250 0 970
-437.5 -62.5 1050
-46.875 -85.9375 783
-78.125 -85.9375 776
39.0625 429.688 1354
-234.375 148.438 878
125 187.5 653
-132.812 -460.938 2286
320.312 -382.812 706
-31.25 140.625 696
-273.438 -15.625 987
421.875 -281.25 684
117.188 -335.938 1165
-125 140.625 798
-281.25 -234.375 933
335.938 -156.25 603
-109.375 312.5 1483
-195.312 -382.812 1302
250 -187.5 604
-148.438 296.875 1060
-210.938 62.5 796
-15.625 398.438 1398
-187.5 281.25 1077
-203.125 140.625 809
335.938 -187.5 586
-476.562 -453.125 2744
-171.875 132.812 802
-39.0625 0 845
-335.938 273.438 1813
-460.938 -445.312 2883
328.125 -39.0625 682
-85.9375 -171.875 845
281.25 234.375 619
109.375 -218.75 854
187.5 -414.062 762
-195.312 335.938 1483
-453.125 335.938 1776
414.062 -320.312 752
23.4375 156.25 680
-23.4375 156.25 703
421.875 -273.438 684
273.438 -242.188 600
-289.062 -156.25 1094
-7.8125 148.438 688
187.5 -343.75 794
-125 -382.812 1278
-23.4375 -476.562 3037
429.688 -359.375 678
-148.438 203.125 839
296.875 -15.625 707
250 -250 607
-148.438 359.375 1458
-289.062 195.312 889
70.3125 171.875 668
-304.688 -31.25 1001
414.062 -273.438 684
-257.812 312.5 1516
-281.25 -62.5 794
437.5 265.625 585
132.812 203.125 661
492.188 -195.312 670
-250 15.625 962
-195.312 -62.5 792
281.25 -234.375 597
226.562 -148.438 632
132.812 -54.6875 755
-39.0625 234.375 813
-179.688 335.938 1477
218.75 -351.562 754
-78.125 -234.375 887
382.812 -343.75 717
-250 218.75 1038
234.375 218.75 628
-453.125 125 1138
-320.312 187.5 903
468.75 -250 679
-210.938 -382.812 1312
-203.125 -15.625 783
-304.688 226.562 1349
78.125 171.875 666
468.75 -273.438 674
-234.375 218.75 851
335.938 242.188 606
-7.8125 398.438 1392
375 257.812 597
-187.5 312.5 1496
140.625 -54.6875 754
-179.688 62.5 790
-210.938 148.438 875
125 -335.938 1161
-140.625 148.438 800
-367.188 296.875 1794
-156.25 -429.688 3010
-54.6875 -117.188 789
281.25 226.562 619
-250 148.438 880
31.25 156.25 678
484.375 343.75 613
-203.125 -7.8125 780
-210.938 234.375 851
-132.812 -453.125 2301
210.938 -359.375 762
-484.375 109.375 2078
-476.562 -234.375 2723
-93.75 320.312 1038
257.812 -46.875 696
-101.562 39.0625 790
-234.375 -101.562 901
-15.625 140.625 690
445.312 -382.812 730
296.875 -382.812 708
-406.25 148.438 1126
-7.8125 414.062 1381
23.4375 -351.562 1202
-304.688 382.812 1696
406.25 -359.375 719
-500 -132.812 2485
-500 382.812 1722
-171.875 343.75 1470
0 414.062 1381
-218.75 0 781
-85.9375 -46.875 789
203.125 -242.188 609
-195.312 46.875 796
-296.875 -46.875 794
-164.062 -453.125 3092
421.875 -406.25 710
109.375 -210.938 847
210.938 -242.188 609
-125 367.188 1439
421.875 -109.375 694
-437.5 132.812 1145
-93.75 -226.562 943
468.75 -335.938 666
-179.688 78.125 787
179.688 -70.3125 701
203.125 -335.938 778
179.688 -421.875 785
-93.75 -218.75 946
218.75 -421.875 731
304.688 234.375 612
-132.812 -23.4375 778
132.812 -46.875 750
242.188 218.75 628
335.938 -164.062 599
-273.438 85.9375 923
-296.875 -70.3125 798
-203.125 -382.812 1307
445.312 -203.125 647
-304.688 242.188 1349
343.75 250 603
-312.5 296.875 1794
-109.375 195.312 841
250 -70.3125 680
265.625 -179.688 607
-15.625 250 803
-265.625 250 1445
-140.625 -468.75 2271
0 156.25 688
-187.5 148.438 807
468.75 -328.125 667
-117.188 -31.25 780
15.625 382.812 1169
-296.875 398.438 1680
109.375 195.312 664
-500 -367.188 2835
-257.812 -31.25 783
-218.75 -23.4375 774
-429.688 23.4375 984
-140.625 -375 1273
468.75 -320.312 668
406.25 265.625 589
-242.188 148.438 880
-281.25 -15.625 987
-359.375 281.25 1813
-281.25 -23.4375 989
-85.9375 125 710
-62.5 125 704
-226.562 242.188 973
468.75 -242.188 680
-203.125 -171.875 964
242.188 -234.375 600
132.812 187.5 652
218.75 218.75 631
171.875 -78.125 697
46.875 -148.438 1016
421.875 -210.938 663
-226.562 125 843
-31.25 218.75 805
54.6875 437.5 1343
335.938 -195.312 584
-257.812 335.938 1586
-359.375 -289.062 2767
-179.688 15.625 771
226.562 -296.875 891
-234.375 -7.8125 792
-453.125 109.375 948
-273.438 101.562 913
-85.9375 109.375 710
250 -257.812 611
0 164.062 696
117.188 -156.25 813
328.125 -429.688 696
-468.75 117.188 1123
265.625 -250 606
-171.875 -273.438 940
-406.25 -468.75 3300
257.812 -179.688 608
335.938 -125 622
-281.25 203.125 885
250 226.562 625
-54.6875 -125 790
-289.062 296.875 1489
140.625 -101.562 690
-312.5 343.75 1739
343.75 -257.812 599
15.625 320.312 780
-203.125 -23.4375 785
78.125 179.688 667
-304.688 273.438 1410
-234.375 93.75 835
-93.75 -210.938 948
-164.062 148.438 811
273.438 -171.875 609
-203.125 70.3125 794
-218.75 328.125 1496
-343.75 -429.688 3208
-156.25 -46.875 771
-289.062 -367.188 2883
-101.562 -195.312 956
-85.9375 -367.188 1250
218.75 -171.875 623
-250 70.3125 843
-265.625 62.5 933
78.125 343.75 761
460.938 -218.75 653
-210.938 -15.625 787
203.125 -234.375 607
-289.062 -125 841
-31.25 140.625 696
-265.625 125 896
468.75 -343.75 659
-437.5 -195.312 2541
-78.125 -367.188 1245
-54.6875 140.625 704
187.5 210.938 638
437.5 273.438 583
-187.5 343.75 1483
-171.875 78.125 787
70.3125 -343.75 1181
335.938 -265.625 607
-171.875 -476.562 3149
468.75 -257.812 678
-468.75 -453.125 2812
-257.812 281.25 1470
-101.562 164.062 856
-132.812 304.688 1489
-351.562 101.562 918
-218.75 132.812 843
-242.188 265.625 1509
281.25 -140.625 628
-125 265.625 823
-226.562 62.5 831
468.75 -281.25 674
273.438 -382.812 717
164.062 -23.4375 736
406.25 -343.75 727
-132.812 -7.8125 773
226.562 -335.938 761
15.625 156.25 682
335.938 -203.125 583
-132.812 -437.5 2349
218.75 -195.312 610
-156.25 23.4375 769
-54.6875 304.688 962
-54.6875 31.25 739
179.688 -242.188 613
-218.75 -156.25 959
343.75 23.4375 691
-93.75 23.4375 794
-117.188 117.188 794
-304.688 -93.75 1050
-195.312 148.438 809
335.938 -140.625 612
234.375 -398.438 727
492.188 -218.75 678
78.125 -203.125 1054
-132.812 -93.75 796
429.688 -296.875 686
132.812 195.312 653
-46.875 23.4375 741
-445.312 125 948
-281.25 312.5 1503
-109.375 -31.25 780
-31.25 -359.375 1227
-218.75 85.9375 803
375 -382.812 703
156.25 195.312 647
-273.438 -62.5 794
-257.812 62.5 849
-46.875 15.625 741
335.938 -171.875 596
-101.562 -117.188 913
109.375 -226.562 860
-132.812 125 796
-421.875 -296.875 2859
-101.562 -31.25 780
-328.125 -390.625 3037
195.312 -343.75 794
-148.438 257.812 831
265.625 226.562 623
-148.438 -23.4375 778
203.125 -312.5 906
398.438 257.812 593
-148.438 -375 1283
-218.75 7.8125 780
-23.4375 -359.375 1223
484.375 -210.938 682
117.188 -179.688 829
242.188 -187.5 609
414.062 -382.812 711
-250 101.562 841
-31.25 -148.438 935
-132.812 7.8125 769
328.125 -15.625 697
-406.25 -93.75 1070
-218.75 15.625 780
-304.688 375 1696
-101.562 7.8125 773
328.125 -23.4375 693
-218.75 148.438 875
343.75 -187.5 585
23.4375 164.062 683
-117.188 15.625 767
203.125 210.938 635
148.438 -132.812 671
117.188 -164.062 819
-218.75 -382.812 1317
-328.125 234.375 1307
367.188 -312.5 738
-93.75 -23.4375 778
-187.5 140.625 807
164.062 210.938 650
-62.5 289.062 803
-429.688 132.812 1126
-242.188 39.0625 943
265.625 234.375 623
-203.125 335.938 1489
-445.312 117.188 948
195.312 -328.125 920
-226.562 78.125 825
-273.438 70.3125 930
-351.562 281.25 1823
304.688 -140.625 622
257.812 -70.3125 682
234.375 -117.188 653
-46.875 -85.9375 783
-218.75 -7.8125 785
335.938 -187.5 586
78.125 -234.375 1077
242.188 -210.938 597
-382.812 187.5 1227
-210.938 -382.812 1312
429.688 -359.375 678
468.75 -289.062 672
-289.062 -195.312 1130
-15.625 304.688 792
492.188 281.25 571
125 359.375 754
-476.562 -359.375 2767
429.688 -273.438 684
-62.5 320.312 1019
-437.5 -406.25 2984
-351.562 304.688 1785
-296.875 226.562 1359
0 -70.3125 973
125 187.5 653
187.5 -250 614
-93.75 31.25 794
31.25 328.125 776
-46.875 -109.375 785
460.938 93.75 647
210.938 -171.875 623
-460.938 -437.5 2859
187.5 203.125 638
-375 -125 1087
-23.4375 140.625 693
210.938 -367.188 757
-226.562 140.625 882
-242.188 125 841
-460.938 148.438 2016
-78.125 -93.75 780
-195.312 -15.625 781
-93.75 -101.562 796
-132.812 -265.625 940
-70.3125 125 704
335.938 -109.375 632
148.438 195.312 648
-289.062 320.312 1757
23.4375 398.438 1206
-250 23.4375 956
109.375 -203.125 843
101.562 195.312 668
109.375 -210.938 847
359.375 -304.688 744
-234.375 -148.438 906
-328.125 179.688 903
7.8125 421.875 1370
328.125 242.188 607
414.062 -312.5 762
429.688 265.625 586
304.688 -39.0625 688
-54.6875 398.438 1398
468.75 -265.625 675
-93.75 -203.125 951
-203.125 125 809
187.5 -171.875 632
-101.562 -257.812 933
-179.688 -265.625 938
468.75 -328.125 667
218.75 -437.5 733
468.75 -304.688 670
226.562 -15.625 722
-265.625 343.75 1722
-203.125 -257.812 940
375 -304.688 747
429.688 -289.062 693
187.5 -242.188 611
-54.6875 218.75 821
242.188 -257.812 612
132.812 -39.0625 747
-296.875 281.25 1421
-31.25 343.75 1013
468.75 -335.938 666
375 265.625 597
-320.312 351.562 1722
-164.062 -7.8125 774
-101.562 125 796
-125 -265.625 938
-85.9375 85.9375 716
-289.062 -164.062 1101
-78.125 132.812 713
429.688 -351.562 678
210.938 -39.0625 716
-132.812 367.188 1445
187.5 -62.5 706
-210.938 273.438 981
-125 -406.25 2398
-226.562 148.438 878
296.875 -335.938 727
-234.375 -54.6875 792
-78.125 -125 803
-210.938 -7.8125 783
-289.062 -203.125 1134
-117.188 -273.438 935
-101.562 117.188 796
414.062 -265.625 684
-187.5 -265.625 938
-85.9375 117.188 708
296.875 -54.6875 679
-164.062 250 849
-500 -351.562 2835
-85.9375 -164.062 841
-320.312 335.938 1748
-250 210.938 864
-296.875 -359.375 2933
125 -109.375 785
-445.312 -414.062 2958
-460.938 117.188 956
93.75 179.688 661
312.5 -406.25 701
-164.062 -460.938 3120
296.875 234.375 614
-453.125 -429.688 2883
460.938 -203.125 643
171.875 -23.4375 736
-164.062 -445.312 3092
-218.75 234.375 862
328.125 -46.875 675
54.6875 343.75 776
-304.688 -31.25 1001
-171.875 148.438 811
-54.6875 140.625 704
218.75 -164.062 628
-304.688 398.438 1680
-406.25 -257.812 2701
-320.312 273.438 1439
468.75 -226.562 684
-31.25 156.25 706
-7.8125 -78.125 975
-257.812 257.812 1470
-226.562 31.25 789
109.375 429.688 1288
-382.812 39.0625 964
273.438 39.0625 694
335.938 -210.938 584
-242.188 117.188 841
-273.438 93.75 915
-7.8125 148.438 688
-54.6875 -109.375 785
-93.75 -210.938 948
-85.9375 234.375 817
-156.25 -421.875 2984
-85.9375 125 710
257.812 -125 643
-101.562 -78.125 774
-273.438 -382.812 2883
-54.6875 148.438 713
-93.75 117.188 708
-156.25 148.438 809
-273.438 242.188 1427
-7.8125 -54.6875 771
-101.562 15.625 805
-210.938 140.625 813
-85.9375 -171.875 845
-445.312 -187.5 2598
-109.375 -218.75 951
195.312 -234.375 608
-335.938 312.5 1766
-234.375 140.625 843
-156.25 250 843
46.875 164.062 676
109.375 -195.312 837
-273.438 101.562 913
226.562 218.75 629
312.5 250 611
-304.688 -351.562 2908
117.188 -156.25 813
-7.8125 -476.562 3037
179.688 -250 615
-226.562 -250 940
390.625 -351.562 717
23.4375 171.875 690
312.5 242.188 611
226.562 -117.188 657
-289.062 203.125 889
414.062 -375 713
437.5 -328.125 679
-210.938 210.938 847
7.8125 156.25 683
-468.75 -203.125 2618
117.188 -335.938 1165
-39.0625 296.875 796
398.438 -351.562 717
-234.375 54.6875 839
15.625 421.875 1370
-273.438 203.125 878
125 -101.562 781
-156.25 -375 1283
46.875 171.875 676
226.562 -70.3125 687
289.062 -15.625 710
265.625 -242.188 602
78.125 187.5 672
117.188 -148.438 807
-320.312 -328.125 2835
273.438 226.562 621
39.0625 164.062 678
-500 -390.625 2680
468.75 -312.5 670
-85.9375 -367.188 1250
468.75 -273.438 674
265.625 -273.438 618
148.438 -46.875 749
-85.9375 -156.25 819
-328.125 218.75 1292
-179.688 -31.25 771
-195.312 226.562 843
-234.375 242.188 1073
-210.938 -31.25 773
-171.875 -476.562 3149
164.062 -179.688 632
23.4375 304.688 774
179.688 -250 615
-304.688 -54.6875 1019
-226.562 -23.4375 774
-78.125 -117.188 800
-390.625 -210.938 1173
-179.688 -273.438 938
-218.75 78.125 802
-414.062 171.875 1214
-140.625 296.875 1050
359.375 -281.25 771
210.938 -328.125 774
-85.9375 -148.438 817
398.438 -398.438 704
218.75 -70.3125 691
-226.562 -382.812 1322
23.4375 421.875 1365
-148.438 -375 1283
242.188 218.75 628
-203.125 148.438 875
-101.562 -140.625 925
-15.625 -39.0625 767
226.562 -164.062 624
437.5 -257.812 680
406.25 -335.938 731
-46.875 -93.75 783
390.625 -335.938 725
-218.75 -382.812 1317
-31.25 -359.375 1227
-460.938 -210.938 2659
-156.25 93.75 787
-273.438 320.312 1523
-210.938 0 780
-281.25 179.688 873
-101.562 218.75 825
-171.875 351.562 1464
460.938 273.438 580
15.625 -437.5 2933
-179.688 132.812 802
210.938 -195.312 612
468.75 -343.75 659
-210.938 -382.812 1312
289.062 -273.438 614
-195.312 125 805
-289.062 -210.938 1145
421.875 265.625 587
-195.312 70.3125 790
15.625 -351.562 1206
-195.312 0 776
-187.5 15.625 773
-140.625 359.375 1452
-93.75 -367.188 1255
-289.062 -132.812 1073
-234.375 62.5 839
-195.312 15.625 774
62.5 171.875 671
-242.188 -414.062 3064
476.562 -187.5 634
125 -93.75 776
-101.562 -250 935
-296.875 195.312 885
109.375 -203.125 843
7.8125 -312.5 1165
312.5 -117.188 632
132.812 -93.75 774
-46.875 -70.3125 935
468.75 -320.312 668
-187.5 -164.062 956
343.75 257.812 604
-101.562 -109.375 796
-250 312.5 1516
203.125 -109.375 666
-484.375 93.75 967
-468.75 -218.75 2680
-460.938 -195.312 2598
179.688 -242.188 613
468.75 -203.125 637
406.25 -367.188 717
335.938 -156.25 603
-242.188 203.125 860
-46.875 226.562 819
-31.25 148.438 697
-164.062 -70.3125 790
15.625 359.375 1101
-132.812 187.5 845
132.812 203.125 661
31.25 -429.688 2835
-398.438 148.438 1115
-312.5 -54.6875 1019
-117.188 312.5 1483
31.25 429.688 1354
-406.25 195.312 1915
-414.062 195.312 1915
250 -39.0625 704
-140.625 164.062 858
-351.562 -296.875 2789
-476.562 -351.562 2767
101.562 187.5 662
-54.6875 406.25 1392
-93.75 -195.312 954
-109.375 210.938 833
-101.562 -367.188 1255
-242.188 320.312 1509
-273.438 93.75 915
218.75 -195.312 610
242.188 226.562 628
-195.312 242.188 849
-125 125 796
-242.188 132.812 843
148.438 195.312 648
460.938 -234.375 694
-304.688 -101.562 1054
23.4375 156.25 680
-156.25 -39.0625 771
226.562 -445.312 727
156.25 203.125 648
406.25 -250 683
93.75 -460.938 2883
78.125 351.562 1214
-39.0625 -359.375 1227
-359.375 -289.062 2767
-312.5 -343.75 2883
203.125 -328.125 918
-421.875 -343.75 2883
210.938 -164.062 629
-7.8125 164.062 703
468.75 -328.125 667
-7.8125 156.25 691
-281.25 -15.625 987
375 -320.312 731
-234.375 320.312 1509
54.6875 320.312 767
148.438 -164.062 649
-476.562 109.375 962
-195.312 31.25 774
375 -398.438 700
210.938 -304.688 898
-328.125 328.125 1757
179.688 -414.062 781
-257.812 62.5 849
-117.188 -179.688 956
-164.062 -273.438 940
62.5 -343.75 1185
218.75 -429.688 733
468.75 273.438 579
-93.75 382.812 1421
-117.188 -15.625 774
0 148.438 688
-250 257.812 1489
-148.438 148.438 807
-398.438 -242.188 2680
-101.562 -242.188 938
-289.062 -140.625 1084
429.688 -265.625 683
-117.188 210.938 833
-156.25 0 771
-156.25 0 771
70.3125 171.875 668
242.188 -390.625 728
-187.5 -62.5 790
-148.438 164.062 860
210.938 -445.312 739
-31.25 242.188 807
414.062 -281.25 847
414.062 -328.125 741
-78.125 -78.125 774
132.812 -132.812 672
-250 109.375 843
109.375 -195.312 837
-109.375 -179.688 954
-125 140.625 798
234.375 -382.812 733
-234.375 265.625 1536
468.75 -335.938 666
-421.875 -273.438 2789
-218.75 -15.625 789
148.438 -23.4375 738
250 -250 607
-93.75 15.625 785
187.5 210.938 638
15.625 156.25 682
390.625 -390.625 704
250 -187.5 604
-164.062 351.562 1464
-156.25 -375 1283
-156.25 -265.625 940
117.188 187.5 655
406.25 -335.938 731
304.688 234.375 612
-54.6875 -109.375 785
281.25 -273.438 615
406.25 -375 711
-257.812 312.5 1516
-250 -7.8125 975
429.688 -382.812 719
289.062 -429.688 703
-289.062 -15.625 987
-445.312 -390.625 2908
-148.438 -70.3125 787
195.312 -179.688 623
195.312 -320.312 913
-85.9375 -70.3125 773
-328.125 312.5 1766
-445.312 406.25 1688
-140.625 -78.125 790
367.188 -390.625 701
-335.938 312.5 1766
-234.375 140.625 843
-226.562 -54.6875 789
7.8125 -351.562 1210
-312.5 -39.0625 1010
-156.25 156.25 809
117.188 -148.438 807
-132.812 171.875 854
359.375 -296.875 750
132.812 -39.0625 747
-93.75 125 710
187.5 -234.375 609
195.312 -359.375 781
-85.9375 54.6875 787
468.75 -351.562 658
335.938 -148.438 610
-195.312 281.25 1529
-46.875 242.188 809
-289.062 -187.5 1126
460.938 -242.188 693
343.75 343.75 719
125 203.125 667
367.188 250 598
375 -351.562 713
328.125 -390.625 701
-156.25 -273.438 938
445.312 -375 663
-406.25 140.625 933
-273.438 78.125 925
46.875 179.688 682
-492.188 109.375 2078
70.3125 179.688 671
203.125 -429.688 747
210.938 218.75 634
-109.375 -234.375 948
421.875 -257.812 683
382.812 -328.125 730
265.625 -414.062 713
-226.562 328.125 1509
-148.438 195.312 843
203.125 -359.375 767
406.25 -242.188 688
-312.5 -46.875 1013
140.625 195.312 652
-273.438 312.5 1523
265.625 -171.875 611
-312.5 343.75 1739
-460.938 414.062 1688
-164.062 -15.625 778
-210.938 70.3125 796
179.688 250 687
-257.812 343.75 1722
-93.75 -367.188 1255
-445.312 -375 2883
-281.25 328.125 1748
-31.25 -15.625 946
-460.938 -187.5 2598
31.25 -125 1004
390.625 -406.25 701
-312.5 -62.5 1025
312.5 -101.562 643
-304.688 390.625 1688
-367.188 101.562 920
-125 -273.438 938
390.625 -203.125 742
-164.062 -437.5 3010
-101.562 -85.9375 789
70.3125 -343.75 1181
-234.375 -382.812 1322
226.562 218.75 629
-453.125 -421.875 2883
-117.188 70.3125 785
-85.9375 218.75 825
195.312 210.938 637
-210.938 -23.4375 774
-210.938 125 815
-343.75 179.688 1090
-226.562 -382.812 1322
-257.812 148.438 882
-187.5 242.188 841
-171.875 0 773
-476.562 117.188 2078
437.5 -351.562 666
0 421.875 1376
289.062 -132.812 630
-226.562 0 785
335.938 -351.562 711
62.5 406.25 1259
-156.25 359.375 1458
390.625 -367.188 710
414.062 -421.875 703
-187.5 125 802
-85.9375 398.438 1404
-7.8125 257.812 798
-101.562 226.562 823
-125 -179.688 959
437.5 -421.875 717
-117.188 -164.062 946
-296.875 -117.188 1067
304.688 242.188 612
-125 46.875 790
406.25 -273.438 845
-390.625 140.625 915
-46.875 -359.375 1227
109.375 -187.5 835
437.5 -343.75 670
-62.5 132.812 704
-132.812 382.812 1445
-62.5 132.812 704
-171.875 289.062 1516
-156.25 296.875 1067
-62.5 140.625 707
54.6875 -164.062 1022
-304.688 -109.375 1057
-257.812 -7.8125 978
296.875 -164.062 610
-203.125 234.375 851
226.562 -195.312 609
476.562 -218.75 683
437.5 -195.312 652
-367.188 289.062 1804
-382.812 156.25 1105
-93.75 -382.812 1264
320.312 -429.688 697
-312.5 -242.188 1181
62.5 -375 2723
328.125 -62.5 664
-46.875 -476.562 3064
-445.312 -406.25 2958
-242.188 132.812 843
101.562 179.688 658
414.062 -390.625 710
-257.812 -54.6875 790
78.125 -210.938 1060
453.125 273.438 580
46.875 335.938 776
187.5 -54.6875 713
132.812 -31.25 744
-226.562 140.625 882
-148.438 132.812 798
-125 -62.5 771
-117.188 -7.8125 773
-101.562 -367.188 1255
-187.5 62.5 790
-250 31.25 948
-265.625 -328.125 1264
-101.562 -242.188 938
-359.375 218.75 1250
-312.5 -382.812 2984
-312.5 -54.6875 1019
-101.562 -132.812 923
242.188 -125 644
-203.125 140.625 809
429.688 -257.812 680
218.75 -15.625 723
-210.938 148.438 875
-289.062 304.688 1489
421.875 -390.625 713
-406.25 148.438 1126
-226.562 226.562 851
-101.562 109.375 792
-140.625 -460.938 2286
46.875 171.875 676
23.4375 -109.375 995
195.312 -156.25 638
-117.188 375 1439
-93.75 -195.312 954
437.5 -335.938 679
210.938 -257.812 614
-117.188 -257.812 938
-289.062 -179.688 1119
257.812 -234.375 600
70.3125 187.5 678
226.562 -210.938 600
-148.438 54.6875 790
-54.6875 -101.562 783
257.812 -414.062 716
320.312 -421.875 697
-109.375 -367.188 1255
125 -85.9375 771
195.312 -335.938 794
140.625 -179.688 641
-164.062 -375 1283
-265.625 -54.6875 790
-93.75 23.4375 794
-101.562 382.812 1427
-218.75 148.438 875
-46.875 296.875 796
-468.75 -445.312 2812
-289.062 -156.25 1094
7.8125 156.25 683
-320.312 -335.938 2859
-93.75 -46.875 789
-210.938 335.938 1489
468.75 -343.75 659
453.125 -359.375 663
-117.188 -375 1268
-156.25 -414.062 2933
375 -359.375 710
-304.688 -437.5 3208
-304.688 406.25 1671
-265.625 132.812 891
-85.9375 -156.25 819
-195.312 54.6875 794
-62.5 -218.75 878
468.75 -296.875 672
93.75 429.688 1273
-109.375 164.062 858
-62.5 -132.812 798
-304.688 -117.188 1067
-132.812 -273.438 938
-218.75 320.312 1503
-218.75 320.312 1503
210.938 -171.875 623
179.688 -171.875 635
-23.4375 406.25 1392
265.625 -351.562 731
257.812 -179.688 608
335.938 -179.688 590
-273.438 93.75 915
-171.875 -468.75 3149
-304.688 -179.688 1119
453.125 -265.625 688
-421.875 179.688 1219
-132.812 -265.625 940
54.6875 429.688 1283
453.125 -273.438 687
328.125 -39.0625 682
-171.875 -375 1288
335.938 -132.812 619
-414.062 -390.625 3064
406.25 -257.812 683
171.875 203.125 642
382.812 437.5 682
-54.6875 414.062 1392
-93.75 -187.5 956
-15.625 148.438 690
-320.312 367.188 1705
265.625 226.562 623
328.125 -359.375 711
414.062 -320.312 752
453.125 -195.312 643
-203.125 -39.0625 773
156.25 -23.4375 736
-273.438 109.375 906
-109.375 -23.4375 776
-210.938 179.688 860
-242.188 265.625 1509
-109.375 -265.625 933
-296.875 -109.375 1057
171.875 -210.938 613
335.938 -210.938 584
-320.312 187.5 903
-156.25 -15.625 774
-304.688 -54.6875 1019
-203.125 125 809
-101.562 -234.375 943
437.5 -328.125 679
-140.625 304.688 1489
-328.125 289.062 1794
-226.562 273.438 1543
-242.188 -15.625 780
171.875 -70.3125 706
289.062 234.375 618
390.625 257.812 594
421.875 -218.75 662
187.5 -234.375 609
226.562 -351.562 752
-101.562 320.312 1470
273.438 -7.8125 714
-351.562 171.875 1087
335.938 250 606
335.938 242.188 606
-171.875 -460.938 3120
-117.188 -109.375 794
421.875 -289.062 693
-234.375 273.438 1536
-492.188 -460.938 2680
250 -23.4375 716
156.25 -31.25 741
250 -164.062 621
117.188 -140.625 803
-390.625 -289.062 2789
429.688 -343.75 679
-265.625 140.625 887
375 -296.875 757
0 312.5 789
-23.4375 140.625 693
15.625 164.062 688
-164.062 257.812 849
414.062 -289.062 854
-375 164.062 1123
-203.125 46.875 796
-210.938 140.625 813
-15.625 -78.125 978
328.125 -85.9375 648
437.5 -273.438 684
-156.25 -406.25 2933
210.938 -140.625 646
-179.688 343.75 1464
312.5 -398.438 701
-484.375 -460.938 2680
-453.125 -265.625 2767
0 359.375 1421
453.125 -187.5 643
-367.188 304.688 1785
-195.312 179.688 858
117.188 187.5 655
-148.438 -476.562 3149
179.688 210.938 642
335.938 -171.875 596
210.938 -406.25 742
-234.375 304.688 1516
46.875 164.062 676
-109.375 -226.562 951
-78.125 -148.438 817
-445.312 164.062 1993
-304.688 -210.938 1149
109.375 -195.312 837
-109.375 23.4375 805
-304.688 -132.812 1077
101.562 -335.938 1165
-312.5 -70.3125 1028
-156.25 164.062 862
-148.438 -273.438 938
-343.75 312.5 1766
-46.875 -70.3125 935
-226.562 23.4375 783
-70.3125 132.812 706
-304.688 -195.312 1134
-304.688 195.312 894
406.25 -109.375 746
-101.562 23.4375 803
-304.688 -171.875 1115
281.25 -46.875 687
-242.188 164.062 873
-46.875 132.812 700
328.125 -93.75 644
296.875 -242.188 598
-78.125 312.5 1025
-296.875 296.875 1477
265.625 -101.562 658
-304.688 -148.438 1087
-304.688 -164.062 1108
-304.688 -187.5 1130
-242.188 156.25 875
-203.125 -265.625 940
54.6875 -468.75 2933
-312.5 -39.0625 1010
179.688 -328.125 925
320.312 -265.625 607
-156.25 -46.875 771
-234.375 -382.812 1322
492.188 -281.25 691
414.062 -375 713
-250 39.0625 946
328.125 -78.125 653
-226.562 78.125 825
328.125 -265.625 607
-171.875 -453.125 3120
-257.812 351.562 1722
-468.75 -234.375 2701
195.312 210.938 637
-171.875 93.75 787
-210.938 -156.25 959
-250 -23.4375 783
296.875 -46.875 684
-15.625 351.562 1004
-453.125 -250 2744
-250 -93.75 837
-257.812 -132.812 856
359.375 -250 596
-93.75 117.188 708
-421.875 132.812 940
328.125 -70.3125 659
437.5 -234.375 679
-117.188 -23.4375 776
-250 320.312 1523
-234.375 156.25 875
-281.25 -23.4375 989
-367.188 171.875 1130
-234.375 265.625 1536
-39.0625 156.25 708
125 351.562 749
-140.625 -23.4375 778
203.125 -242.188 609
-171.875 -39.0625 771
-156.25 140.625 802
-429.688 -453.125 2984
-312.5 -62.5 1025
-7.8125 156.25 691
203.125 -46.875 711
62.5 171.875 671
-304.688 -351.562 2908
335.938 257.812 608
437.5 -359.375 664
-265.625 -15.625 987
-140.625 -273.438 938
-218.75 273.438 1543
93.75 195.312 676
39.0625 164.062 678
328.125 242.188 607
-187.5 93.75 790
-257.812 70.3125 843
257.812 226.562 624
304.688 -265.625 609
-335.938 281.25 1804
-117.188 23.4375 805
-140.625 -265.625 940
-500 109.375 2078
54.6875 171.875 674
-62.5 -132.812 798
257.812 -429.688 713
-468.75 -210.938 2659
-398.438 140.625 915
-93.75 109.375 710
-164.062 -265.625 940
-210.938 -7.8125 783
335.938 -218.75 585
203.125 203.125 635
-218.75 93.75 819
148.438 210.938 659
-39.0625 125 700
54.6875 -343.75 1185
-304.688 -203.125 1141
-289.062 -398.438 3037
-39.0625 406.25 1392
398.438 257.812 593
-351.562 304.688 1785
-257.812 257.812 1470
-164.062 -429.688 3010
304.688 -101.562 646
7.8125 -351.562 1210
-101.562 -257.812 933
414.062 -414.062 704
-46.875 140.625 701
-250 -445.312 3120
15.625 171.875 698
-304.688 -140.625 1087
-62.5 -125 792
210.938 -15.625 725
468.75 281.25 576
312.5 -125 628
-46.875 15.625 741
140.625 195.312 652
335.938 -140.625 612
-54.6875 -359.375 1227
335.938 -234.375 590
414.062 -304.688 762
-484.375 -453.125 2680
-148.438 148.438 807
-304.688 179.688 889
484.375 -320.312 667
-101.562 -242.188 938
-85.9375 125 710
-218.75 23.4375 780
421.875 -367.188 720
-164.062 78.125 787
-70.3125 -140.625 805
351.562 250 603
335.938 -226.562 587
-359.375 171.875 1097
-156.25 375 1464
367.188 265.625 597
-179.688 289.062 1516
-164.062 -15.625 778
289.062 -140.625 624
328.125 -421.875 696
195.312 -257.812 618
429.688 -210.938 655
-140.625 156.25 800
-460.938 -195.312 2598
-31.25 140.625 696
31.25 164.062 679
421.875 -398.438 711
-304.688 -156.25 1101
-171.875 -265.625 940
-101.562 117.188 796
-226.562 -15.625 790
-242.188 265.625 1509
-54.6875 15.625 807
406.25 -234.375 688
398.438 265.625 590
265.625 -187.5 602
-125 312.5 1483
7.8125 -85.9375 981
-195.312 343.75 1483
-187.5 15.625 773
-54.6875 -390.625 2812
-93.75 125 710
-453.125 -414.062 2835
-265.625 140.625 887
-78.125 -101.562 789
-421.875 125 940
-85.9375 125 710
-39.0625 148.438 701
-312.5 304.688 1785
164.062 203.125 644
-156.25 -273.438 938
218.75 218.75 631
148.438 -23.4375 738
257.812 -250 606
-46.875 281.25 796
93.75 187.5 666
281.25 -15.625 713
218.75 -250 612
-203.125 242.188 851
414.062 -296.875 856
210.938 226.562 638
125 -117.188 789
390.625 -242.188 825
-242.188 -117.188 880
-140.625 367.188 1452
375 406.25 690
-7.8125 148.438 688
-437.5 140.625 1165
320.312 -367.188 710
328.125 -54.6875 671
-265.625 132.812 891
164.062 -148.438 653
-304.688 -117.188 1067
-296.875 -93.75 819
-429.688 125 940
218.75 -335.938 769
234.375 -31.25 716
-421.875 140.625 1130
-289.062 -171.875 1105
-93.75 -39.0625 787
109.375 179.688 657
-312.5 -226.562 1165
39.0625 445.312 1349
-171.875 -375 1288
-140.625 -445.312 3037
406.25 -328.125 736
-85.9375 -148.438 817
-234.375 23.4375 783
-109.375 -7.8125 773
281.25 -7.8125 714
328.125 -31.25 687
414.062 23.4375 683
109.375 -179.688 829
437.5 -351.562 666
-179.688 156.25 869
-109.375 -367.188 1255
242.188 -187.5 609
-242.188 226.562 1047
250 234.375 631
-179.688 0 773
398.438 -320.312 746
250 -46.875 700
-132.812 179.688 851
-382.812 -281.25 2767
-125 -390.625 1292
-460.938 -429.688 2835
-421.875 187.5 1936
445.312 -312.5 679
-31.25 -476.562 3064
0 -351.562 1210
117.188 367.188 755
-265.625 250 1445
335.938 -62.5 663
414.062 -406.25 706
-148.438 -265.625 940
-62.5 -257.812 908
406.25 -359.375 719
132.812 -320.312 1149
437.5 -343.75 670
-500 101.562 964
476.562 421.875 670
367.188 257.812 597
-242.188 78.125 839
367.188 -312.5 738
-289.062 -23.4375 992
484.375 -304.688 672
-101.562 -226.562 946
-218.75 -7.8125 785
