ply
format ascii 1.0
comment Created by Open3D
element vertex 2404
property double x
property double y
property double z
end_header
-187.5 -281.25 835
304.688 -132.812 1025
429.688 -62.5 762
265.625 -210.938 898
-359.375 -195.312 930
-382.812 -335.938 856
46.875 367.188 752
492.188 367.188 713
406.25 31.25 847
-179.688 -328.125 819
492.188 -203.125 629
-148.438 -304.688 803
187.5 46.875 862
-218.75 -359.375 794
-7.8125 351.562 637
179.688 148.438 851
171.875 78.125 847
-257.812 335.938 781
-429.688 -156.25 744
-156.25 351.562 716
187.5 132.812 862
-468.75 -46.875 833
257.812 -39.0625 959
164.062 179.688 837
-78.125 7.8125 750
-62.5 -15.625 761
-351.562 187.5 686
484.375 -273.438 624
250 -7.8125 938
125 257.812 800
195.312 -62.5 776
171.875 132.812 862
-273.438 -273.438 813
-328.125 -78.125 835
468.75 -195.312 668
-421.875 351.562 1483
171.875 54.6875 819
-164.062 132.812 697
-156.25 -375 1067
-210.938 140.625 670
210.938 78.125 889
-171.875 132.812 698
-164.062 -351.562 1047
335.938 -437.5 2485
-320.312 -101.562 849
-101.562 109.375 704
-93.75 78.125 716
-148.438 109.375 707
375 289.062 762
468.75 -203.125 664
-164.062 117.188 704
-429.688 -226.562 711
-429.688 289.062 823
-101.562 -179.688 875
-148.438 125 700
-414.062 156.25 704
-460.938 304.688 1529
-125 -257.812 766
-39.0625 -429.688 3010
406.25 312.5 749
-460.938 -148.438 762
-468.75 -195.312 727
257.812 -171.875 906
23.4375 414.062 733
210.938 -296.875 935
-7.8125 429.688 728
210.938 70.3125 896
-445.312 -351.562 1354
109.375 273.438 794
-492.188 117.188 736
-445.312 -78.125 827
85.9375 289.062 787
39.0625 406.25 734
226.562 46.875 906
148.438 210.938 825
-390.625 -273.438 1016
-343.75 -54.6875 821
-453.125 -156.25 754
-500 -132.812 798
-250 -343.75 792
273.438 -195.312 928
-203.125 140.625 696
-140.625 -437.5 3120
-250 -164.062 742
257.812 -31.25 951
281.25 -78.125 981
-304.688 -382.812 831
445.312 -109.375 728
-476.562 -85.9375 837
-218.75 250 646
-195.312 31.25 704
-367.188 -375 835
-203.125 -367.188 885
257.812 -195.312 894
218.75 62.5 898
-210.938 -242.188 851
-335.938 203.125 679
-203.125 -390.625 875
414.062 0 813
437.5 -78.125 749
195.312 109.375 873
226.562 -15.625 910
242.188 -132.812 889
187.5 -23.4375 843
429.688 -54.6875 767
-390.625 351.562 1302
429.688 70.3125 849
-164.062 93.75 697
-359.375 -304.688 873
-218.75 31.25 723
203.125 15.625 875
-343.75 -304.688 871
164.062 23.4375 825
140.625 156.25 805
-437.5 320.312 1509
-187.5 148.438 691
171.875 15.625 833
-101.562 -187.5 880
-101.562 -234.375 915
-265.625 -390.625 837
195.312 117.188 869
-296.875 390.625 1392
210.938 54.6875 906
-250 101.562 690
117.188 234.375 813
-203.125 -257.812 847
-367.188 -351.562 841
-148.438 23.4375 687
-164.062 -367.188 1063
-242.188 148.438 664
-328.125 203.125 675
164.062 148.438 854
-492.188 -117.188 809
273.438 -203.125 933
109.375 296.875 781
265.625 -54.6875 967
78.125 359.375 755
-218.75 -250 805
406.25 46.875 858
242.188 7.8125 928
242.188 -7.8125 938
203.125 70.3125 896
140.625 187.5 837
484.375 -218.75 649
-148.438 -218.75 754
39.0625 414.062 731
-101.562 39.0625 716
-312.5 210.938 671
-203.125 -328.125 823
-414.062 -226.562 725
265.625 -46.875 962
273.438 -70.3125 978
226.562 -101.562 862
125 218.75 821
54.6875 398.438 738
257.812 -23.4375 946
-109.375 -273.438 776
-382.812 -257.812 998
-273.438 -250 819
179.688 -23.4375 761
-187.5 -289.062 831
179.688 62.5 843
93.75 328.125 767
312.5 -148.438 1034
460.938 -164.062 688
-382.812 343.75 1307
-187.5 -273.438 841
-453.125 -257.812 716
-109.375 15.625 716
398.438 46.875 862
-390.625 -398.438 839
-195.312 -312.5 823
-460.938 -203.125 716
-468.75 -203.125 720
-187.5 -210.938 742
-54.6875 -406.25 3010
203.125 -78.125 796
195.312 85.9375 887
-156.25 -476.562 3037
-390.625 -406.25 839
-187.5 -265.625 847
-164.062 -210.938 747
-398.438 -171.875 750
250 -7.8125 938
218.75 54.6875 903
-226.562 -265.625 831
-265.625 140.625 698
210.938 -70.3125 849
-390.625 335.938 1283
171.875 164.062 845
164.062 171.875 841
-382.812 -421.875 835
-226.562 -453.125 858
-414.062 -343.75 880
-320.312 -250 975
7.8125 414.062 690
-304.688 -312.5 860
-226.562 -351.562 794
-31.25 62.5 720
-351.562 -179.688 790
421.875 -23.4375 789
187.5 132.812 862
-70.3125 -460.938 2933
-109.375 -265.625 773
-398.438 164.062 697
109.375 250 803
-406.25 -210.938 738
-320.312 210.938 672
-101.562 -210.938 898
304.688 -257.812 2485
-70.3125 39.0625 719
-218.75 -281.25 829
-265.625 -382.812 839
218.75 -109.375 831
-398.438 -164.062 750
-210.938 39.0625 700
-375 351.562 1322
-250 125 686
-414.062 296.875 817
-242.188 -320.312 800
-273.438 -382.812 837
-195.312 -296.875 827
39.0625 421.875 727
-445.312 281.25 827
-234.375 -289.062 807
-70.3125 -7.8125 759
-156.25 -281.25 819
164.062 93.75 841
-195.312 101.562 693
78.125 335.938 766
-367.188 -218.75 954
101.562 265.625 798
195.312 31.25 864
93.75 85.9375 697
281.25 -242.188 920
257.812 -164.062 920
-203.125 -335.938 908
273.438 -226.562 920
-296.875 -125 862
-312.5 296.875 803
289.062 -93.75 992
-335.938 -85.9375 841
218.75 -85.9375 864
101.562 312.5 774
-101.562 -171.875 867
-101.562 15.625 720
242.188 289.062 774
-476.562 -78.125 843
164.062 -226.562 880
-210.938 -234.375 856
445.312 -101.562 731
-476.562 -359.375 1387
-273.438 -242.188 819
367.188 296.875 762
-78.125 289.062 619
429.688 -46.875 771
-210.938 -218.75 741
312.5 -351.562 2680
406.25 39.0625 849
453.125 -132.812 708
-281.25 148.438 697
-382.812 -257.812 998
234.375 31.25 915
0 328.125 634
421.875 -31.25 787
117.188 281.25 789
-414.062 234.375 845
46.875 398.438 741
171.875 7.8125 837
-101.562 101.562 708
281.25 -218.75 940
171.875 132.812 862
-203.125 70.3125 691
-335.938 -78.125 837
-375 320.312 802
203.125 101.562 878
-226.562 -304.688 817
-437.5 226.562 849
62.5 -367.188 2812
437.5 -85.9375 742
-375 -234.375 970
-500 109.375 739
445.312 -93.75 736
406.25 -93.75 764
85.9375 320.312 771
171.875 125 867
281.25 -78.125 981
-359.375 -390.625 829
-31.25 -351.562 1019
-445.312 -148.438 755
234.375 -140.625 864
-375 -406.25 831
281.25 -85.9375 989
351.562 250 785
93.75 281.25 790
-492.188 -195.312 733
437.5 -70.3125 754
-421.875 156.25 707
453.125 -140.625 704
-148.438 -445.312 3120
257.812 78.125 887
312.5 -140.625 1028
164.062 148.438 854
179.688 117.188 871
-445.312 140.625 714
132.812 203.125 827
-437.5 -171.875 733
93.75 304.688 781
-429.688 101.562 733
421.875 -23.4375 789
-492.188 125 734
140.625 234.375 811
-382.812 195.312 703
-273.438 -218.75 749
-398.438 -85.9375 794
-437.5 140.625 714
-234.375 101.562 696
-78.125 54.6875 708
-335.938 -140.625 878
-445.312 -226.562 703
437.5 -78.125 749
-390.625 -367.188 849
-23.4375 359.375 600
-187.5 -203.125 744
-156.25 78.125 698
-195.312 164.062 686
242.188 -156.25 831
85.9375 343.75 761
-257.812 132.812 684
468.75 -187.5 672
-265.625 -257.812 825
484.375 -265.625 629
-210.938 78.125 691
-351.562 -320.312 858
-390.625 -390.625 841
-429.688 148.438 711
-406.25 -203.125 738
164.062 7.8125 739
125 265.625 798
62.5 335.938 766
484.375 -257.812 632
-281.25 -328.125 794
-117.188 78.125 687
132.812 250 805
-210.938 70.3125 693
-375 -218.75 755
-226.562 -320.312 809
-125 -437.5 3120
-101.562 62.5 716
-281.25 226.562 662
-390.625 -54.6875 825
-382.812 171.875 694
250 -437.5 2598
156.25 164.062 849
-359.375 -328.125 858
-171.875 -335.938 1031
210.938 54.6875 864
-257.812 421.875 1410
-203.125 -210.938 739
-164.062 15.625 687
62.5 367.188 754
-382.812 -78.125 798
296.875 -109.375 1004
367.188 234.375 792
54.6875 406.25 734
-226.562 -335.938 800
-218.75 -398.438 854
-484.375 250 845
-187.5 -343.75 901
382.812 23.4375 847
-125 -234.375 759
187.5 101.562 839
-187.5 125 704
93.75 328.125 769
210.938 -234.375 887
445.312 -101.562 733
273.438 -62.5 975
281.25 -210.938 918
406.25 31.25 845
312.5 -156.25 1044
-39.0625 -351.562 1022
-226.562 140.625 663
-382.812 -406.25 839
476.562 -226.562 652
70.3125 351.562 759
281.25 -140.625 964
-484.375 -218.75 717
39.0625 382.812 746
-453.125 273.438 835
421.875 -367.188 2485
257.812 -23.4375 948
-257.812 -265.625 819
-265.625 125 680
-265.625 148.438 697
54.6875 351.562 757
226.562 -132.812 813
-140.625 -421.875 3092
15.625 437.5 723
78.125 304.688 780
-140.625 109.375 707
-164.062 46.875 697
-359.375 -421.875 829
-234.375 132.812 666
218.75 62.5 898
226.562 23.4375 920
-156.25 -367.188 1063
-390.625 -382.812 847
-187.5 132.812 701
414.062 -93.75 750
265.625 179.688 831
390.625 -382.812 2503
-281.25 -164.062 764
406.25 23.4375 835
-265.625 -242.188 819
-460.938 -265.625 725
164.062 132.812 815
414.062 7.8125 821
-250 -367.188 792
226.562 -125 811
195.312 117.188 871
460.938 -156.25 694
148.438 54.6875 713
-203.125 -203.125 739
-46.875 375 641
492.188 -296.875 594
265.625 -39.0625 959
273.438 31.25 915
-343.75 195.312 683
-156.25 70.3125 694
203.125 0 843
-437.5 -226.562 703
414.062 15.625 823
468.75 -195.312 670
429.688 -39.0625 776
-351.562 273.438 819
148.438 218.75 821
-289.062 -195.312 762
210.938 85.9375 887
242.188 15.625 925
-179.688 132.812 701
-367.188 -218.75 755
-492.188 -164.062 767
-375 -328.125 864
-343.75 -273.438 1007
-289.062 226.562 664
-179.688 23.4375 716
-304.688 -273.438 910
242.188 -164.062 831
-343.75 -54.6875 823
-265.625 -351.562 790
250 -54.6875 925
-218.75 -445.312 856
195.312 23.4375 837
-375 -242.188 739
421.875 -15.625 798
132.812 250 805
-109.375 78.125 687
476.562 -242.188 643
234.375 31.25 918
-304.688 -281.25 896
-265.625 -210.938 747
304.688 -117.188 1010
-156.25 15.625 686
0 -343.75 1013
-375 -101.562 783
398.438 39.0625 849
-421.875 -234.375 708
218.75 -101.562 787
148.438 179.688 839
-109.375 109.375 680
-46.875 -7.8125 761
-195.312 -351.562 889
117.188 281.25 790
93.75 281.25 792
265.625 -203.125 858
195.312 15.625 839
273.438 -195.312 858
414.062 -7.8125 809
-148.438 39.0625 694
-250 -453.125 841
-343.75 -164.062 796
-70.3125 15.625 749
250 -148.438 821
-210.938 125 668
-500 281.25 1550
-476.562 125 731
140.625 234.375 813
0 406.25 674
-390.625 -335.938 875
281.25 -234.375 889
-164.062 70.3125 693
-257.812 -273.438 815
-187.5 85.9375 688
437.5 -70.3125 754
429.688 -46.875 774
-390.625 -375 849
132.812 210.938 823
-242.188 250 650
101.562 312.5 776
148.438 46.875 717
-382.812 -367.188 849
-218.75 31.25 725
453.125 -132.812 710
140.625 70.3125 710
117.188 242.188 811
-203.125 -351.562 878
-304.688 210.938 671
-203.125 -218.75 739
-195.312 -320.312 825
-250 234.375 658
-187.5 -367.188 887
-468.75 265.625 841
453.125 -125 714
-62.5 0 757
-492.188 242.188 849
-390.625 -218.75 741
476.562 -218.75 654
78.125 -406.25 2958
-179.688 -250 856
250 0 935
-273.438 382.812 778
-210.938 265.625 641
195.312 -31.25 771
-101.562 -203.125 894
-375 -382.812 839
-171.875 -226.562 746
-359.375 -320.312 862
-93.75 109.375 704
46.875 414.062 731
-382.812 257.812 831
109.375 296.875 783
-195.312 -312.5 823
-203.125 -343.75 792
164.062 85.9375 807
125 265.625 798
-390.625 -367.188 856
351.562 70.3125 885
187.5 -15.625 754
171.875 156.25 851
304.688 -39.0625 959
-109.375 -257.812 773
-187.5 -398.438 880
-453.125 -265.625 725
-500 -250 722
-187.5 31.25 704
-250 242.188 654
375 23.4375 910
-23.4375 351.562 602
156.25 203.125 829
-93.75 117.188 700
-226.562 148.438 663
-398.438 -210.938 734
-468.75 -140.625 778
195.312 -39.0625 767
132.812 70.3125 710
-375 -429.688 839
-234.375 250 649
-234.375 -296.875 803
453.125 -117.188 719
-226.562 70.3125 704
-343.75 343.75 796
-7.8125 343.75 606
-218.75 -195.312 739
-93.75 -273.438 954
257.812 -31.25 954
85.9375 343.75 762
-187.5 -453.125 882
-15.625 382.812 636
-7.8125 398.438 664
-460.938 -70.3125 849
-296.875 218.75 667
-382.812 -265.625 733
-85.9375 70.3125 714
-109.375 15.625 688
289.062 -226.562 928
-390.625 -273.438 727
171.875 171.875 843
-281.25 -226.562 766
-343.75 -296.875 880
-210.938 109.375 686
140.625 54.6875 713
-312.5 -335.938 843
-195.312 70.3125 690
-125 78.125 687
-164.062 -343.75 1034
-171.875 -414.062 889
335.938 171.875 829
289.062 -85.9375 989
-375 -179.688 764
492.188 -226.562 619
203.125 23.4375 862
-492.188 -265.625 731
70.3125 320.312 773
-234.375 -179.688 739
-367.188 -335.938 854
125 164.062 767
-484.375 289.062 1543
468.75 -187.5 674
-367.188 -85.9375 796
-437.5 281.25 827
203.125 101.562 880
-101.562 -140.625 845
-312.5 -421.875 825
-468.75 125 727
-429.688 328.125 1503
-257.812 -414.062 835
-421.875 289.062 821
-179.688 -281.25 835
242.188 0 935
414.062 0 815
-234.375 242.188 650
406.25 39.0625 847
234.375 39.0625 913
117.188 101.562 694
-398.438 -93.75 790
-484.375 117.188 734
-382.812 -421.875 839
-23.4375 367.188 627
125 250 805
-46.875 78.125 716
187.5 31.25 833
-140.625 -476.562 3037
93.75 328.125 769
-328.125 -78.125 837
414.062 7.8125 821
195.312 -46.875 767
-125 23.4375 688
-125 101.562 680
-187.5 -281.25 835
-250 -203.125 742
117.188 265.625 800
-484.375 -109.375 817
265.625 -46.875 964
-148.438 -460.938 3092
-304.688 -375 831
70.3125 328.125 769
429.688 -7.8125 798
445.312 -109.375 728
-304.688 -367.188 835
148.438 62.5 713
-70.3125 31.25 720
-179.688 -335.938 913
-187.5 148.438 693
179.688 156.25 851
-406.25 -250 719
39.0625 234.375 637
250 -414.062 2639
210.938 62.5 898
156.25 31.25 730
-351.562 -445.312 829
484.375 -250 637
421.875 -23.4375 790
492.188 -289.062 595
-289.062 -406.25 827
210.938 85.9375 887
-62.5 -7.8125 761
-265.625 -250 817
-414.062 335.938 1496
-195.312 -328.125 825
195.312 39.0625 837
414.062 31.25 837
210.938 -7.8125 837
-351.562 -304.688 875
250 -15.625 943
-265.625 -406.25 835
-429.688 289.062 825
-203.125 39.0625 700
-320.312 -109.375 856
-164.062 -210.938 746
-406.25 171.875 703
148.438 218.75 821
-195.312 171.875 682
-171.875 125 703
-445.312 -70.3125 839
-468.75 -210.938 716
-226.562 132.812 664
273.438 -54.6875 967
-132.812 31.25 687
-218.75 -304.688 817
-320.312 -85.9375 839
492.188 -195.312 631
85.9375 296.875 783
460.938 -164.062 690
-242.188 -359.375 781
210.938 0 843
421.875 -7.8125 800
-101.562 -195.312 887
-132.812 -226.562 754
195.312 -62.5 771
164.062 31.25 730
-265.625 -281.25 811
210.938 78.125 891
-85.9375 78.125 716
-367.188 -70.3125 807
187.5 132.812 862
-93.75 93.75 711
-125 -234.375 759
312.5 -273.438 2503
226.562 46.875 908
-367.188 -226.562 755
-132.812 -101.562 825
-226.562 257.812 648
-210.938 -265.625 839
437.5 -70.3125 754
421.875 -15.625 798
242.188 15.625 925
-93.75 85.9375 714
-492.188 -125 803
179.688 46.875 819
164.062 187.5 835
203.125 78.125 891
460.938 -148.438 696
-140.625 -445.312 3120
-398.438 -226.562 731
-179.688 -257.812 851
250 0 935
-492.188 203.125 871
132.812 234.375 813
195.312 93.75 882
-304.688 -343.75 841
-218.75 -250 803
226.562 54.6875 906
-210.938 -257.812 841
-492.188 -234.375 716
242.188 -148.438 821
-359.375 -429.688 831
54.6875 406.25 734
-62.5 -359.375 1034
-187.5 -289.062 833
226.562 31.25 918
-367.188 203.125 719
-117.188 304.688 619
-476.562 -359.375 1376
78.125 359.375 755
-398.438 359.375 1470
250 304.688 767
-414.062 156.25 707
281.25 -203.125 858
-437.5 -117.188 787
-187.5 -390.625 880
-453.125 312.5 1529
-125 -296.875 794
-187.5 -328.125 825
-7.8125 328.125 606
445.312 -93.75 736
187.5 -31.25 762
-390.625 171.875 697
-257.812 242.188 655
218.75 46.875 908
187.5 125 869
187.5 140.625 860
-179.688 281.25 634
-453.125 -250 713
-375 -328.125 864
-195.312 46.875 694
-421.875 296.875 825
70.3125 375 747
70.3125 -328.125 984
-125 -445.312 3120
-226.562 -328.125 807
171.875 62.5 813
-257.812 109.375 680
-234.375 -187.5 738
-382.812 -125 767
257.812 -15.625 943
132.812 93.75 700
234.375 15.625 925
-429.688 296.875 825
-382.812 -171.875 755
187.5 54.6875 851
-367.188 179.688 690
-171.875 93.75 691
-15.625 359.375 625
-296.875 -343.75 841
-93.75 31.25 713
-109.375 -132.812 841
62.5 343.75 761
-242.188 -171.875 741
31.25 406.25 734
296.875 -101.562 1001
-179.688 78.125 688
-203.125 265.625 640
281.25 -70.3125 978
54.6875 359.375 755
-437.5 234.375 847
-437.5 210.938 860
-351.562 335.938 798
195.312 125 867
23.4375 421.875 730
-320.312 -414.062 825
304.688 -125 1016
-296.875 -101.562 845
-85.9375 62.5 711
265.625 -39.0625 959
-273.438 -226.562 759
-242.188 -335.938 796
-382.812 171.875 694
-140.625 54.6875 703
-453.125 -265.625 725
125 85.9375 701
-359.375 -54.6875 821
-179.688 140.625 694
-500 -140.625 790
273.438 -62.5 975
382.812 -62.5 964
171.875 23.4375 829
62.5 390.625 741
164.062 15.625 736
273.438 -54.6875 967
-289.062 -226.562 766
156.25 85.9375 803
476.562 85.9375 825
187.5 109.375 875
-304.688 -382.812 829
-140.625 -476.562 3037
-156.25 -359.375 1057
-234.375 140.625 664
273.438 -218.75 880
140.625 195.312 833
-179.688 125 704
-296.875 -406.25 827
-335.938 -62.5 825
179.688 125 869
-179.688 273.438 635
-390.625 -195.312 746
-164.062 -320.312 821
-54.6875 335.938 604
-31.25 -351.562 1022
234.375 -132.812 813
-437.5 140.625 717
-179.688 -273.438 839
257.812 -156.25 891
-140.625 31.25 687
-179.688 54.6875 693
429.688 -39.0625 776
-320.312 -398.438 827
226.562 -93.75 780
-500 -250 722
-445.312 -117.188 792
-234.375 -312.5 802
-375 -242.188 739
-476.562 132.812 731
132.812 210.938 823
-187.5 -273.438 841
132.812 250 805
125 226.562 819
-375 -437.5 839
273.438 46.875 906
109.375 257.812 802
-171.875 -234.375 746
398.438 54.6875 862
-304.688 -390.625 827
-250 -281.25 802
54.6875 390.625 741
-226.562 -312.5 809
-406.25 250 833
-195.312 -335.938 906
-171.875 54.6875 693
117.188 242.188 811
476.562 -203.125 662
-226.562 -390.625 851
-398.438 -203.125 738
-210.938 156.25 664
414.062 15.625 823
179.688 156.25 851
195.312 117.188 871
367.188 257.812 781
-195.312 -226.562 802
-187.5 -320.312 825
46.875 375 747
171.875 85.9375 831
-351.562 -187.5 783
109.375 281.25 790
-23.4375 -351.562 1025
-500 -203.125 734
-304.688 234.375 684
109.375 -320.312 970
-281.25 -203.125 754
-125 -476.562 3010
445.312 -117.188 723
-179.688 -265.625 847
-351.562 187.5 687
-117.188 39.0625 694
78.125 312.5 776
-265.625 320.312 794
-117.188 -445.312 3092
-421.875 148.438 710
-234.375 -304.688 802
-453.125 -257.812 717
460.938 -156.25 694
-203.125 -351.562 878
-156.25 0 686
453.125 -117.188 719
-335.938 -367.188 833
-218.75 -437.5 854
-140.625 23.4375 686
-250 -210.938 742
-492.188 250 849
-281.25 -156.25 764
-367.188 -210.938 759
-312.5 421.875 1410
-390.625 -70.3125 809
-132.812 101.562 684
226.562 54.6875 906
242.188 0 935
-164.062 -210.938 746
195.312 125 867
-187.5 -203.125 739
-125 54.6875 704
-437.5 -70.3125 837
-15.625 437.5 723
-218.75 -85.9375 825
-203.125 -226.562 802
-140.625 -460.938 3092
-7.8125 382.812 643
-156.25 101.562 696
-476.562 -93.75 831
257.812 -15.625 943
250 -23.4375 948
-140.625 -453.125 3120
-476.562 -250 717
-70.3125 62.5 708
-109.375 -250 773
-367.188 -226.562 755
93.75 312.5 776
-468.75 -101.562 819
-382.812 -226.562 752
-117.188 -468.75 3037
-132.812 62.5 701
234.375 39.0625 913
-179.688 -242.188 817
-250 109.375 682
164.062 179.688 839
164.062 93.75 778
-328.125 -445.312 827
-109.375 312.5 618
-140.625 -468.75 3064
-500 -257.812 727
-351.562 -375 833
187.5 140.625 860
-335.938 -148.438 805
-203.125 -234.375 802
250 -7.8125 938
-468.75 -78.125 847
-320.312 -257.812 987
-187.5 -242.188 817
-398.438 257.812 831
210.938 7.8125 854
-500 -234.375 719
-101.562 -468.75 3010
484.375 -242.188 638
382.812 234.375 790
-179.688 -250 856
265.625 -46.875 964
-398.438 -398.438 854
-179.688 -203.125 741
406.25 46.875 856
445.312 -132.812 714
-210.938 -250 803
-195.312 -320.312 825
242.188 23.4375 920
148.438 62.5 713
101.562 273.438 794
-226.562 -273.438 805
-210.938 -375 862
429.688 -31.25 781
-328.125 -289.062 887
-226.562 -421.875 849
-109.375 -281.25 781
-203.125 -273.438 835
-250 -234.375 839
-187.5 156.25 690
-273.438 -187.5 754
250 -164.062 833
-7.8125 320.312 607
-218.75 265.625 644
203.125 109.375 875
7.8125 -453.125 2933
-453.125 132.812 723
-273.438 234.375 659
218.75 70.3125 896
445.312 -93.75 736
234.375 -234.375 882
156.25 203.125 829
-406.25 296.875 815
171.875 140.625 860
-359.375 -312.5 869
445.312 -85.9375 739
-156.25 -359.375 1057
-117.188 101.562 680
210.938 85.9375 887
-367.188 -445.312 837
-460.938 320.312 1516
-453.125 320.312 1516
218.75 -101.562 787
156.25 46.875 717
304.688 -117.188 1010
-187.5 -304.688 823
179.688 -39.0625 757
171.875 171.875 843
-382.812 -343.75 858
-203.125 -218.75 739
-195.312 242.188 647
343.75 54.6875 896
125 93.75 700
-46.875 281.25 622
101.562 320.312 771
-101.562 -421.875 3092
-226.562 -281.25 805
-148.438 -468.75 3064
-218.75 -289.062 825
-398.438 164.062 700
0 335.938 625
-171.875 31.25 703
492.188 -257.812 606
-148.438 23.4375 686
23.4375 382.812 690
-421.875 343.75 1483
-242.188 -109.375 845
-7.8125 375 638
-390.625 179.688 697
484.375 -234.375 644
484.375 -257.812 634
414.062 23.4375 829
-421.875 328.125 1503
-414.062 -101.562 789
226.562 31.25 918
-125 304.688 622
453.125 -117.188 719
-460.938 304.688 1529
-492.188 117.188 738
-250 125 682
-85.9375 54.6875 711
-453.125 -148.438 764
460.938 -148.438 696
-382.812 -85.9375 792
-187.5 -296.875 825
54.6875 382.812 747
-476.562 117.188 734
-382.812 -351.562 856
109.375 304.688 778
-296.875 -281.25 898
-109.375 7.8125 690
-273.438 -359.375 790
421.875 -7.8125 800
-375 -250 992
85.9375 351.562 759
-171.875 -250 854
-500 242.188 851
468.75 -164.062 684
164.062 156.25 851
-179.688 -351.562 906
195.312 31.25 837
132.812 257.812 800
445.312 23.4375 805
460.938 -171.875 684
453.125 -101.562 727
-304.688 -359.375 837
31.25 -203.125 878
382.812 -23.4375 938
46.875 421.875 728
70.3125 359.375 755
250 -140.625 819
-234.375 -320.312 798
-320.312 289.062 811
148.438 -429.688 2767
429.688 -23.4375 785
-390.625 -171.875 750
-195.312 265.625 640
-265.625 343.75 780
-476.562 257.812 843
492.188 -281.25 597
-359.375 281.25 817
62.5 375 749
78.125 367.188 752
-460.938 -31.25 821
-93.75 -468.75 3010
406.25 39.0625 847
-312.5 -257.812 984
-320.312 203.125 676
234.375 39.0625 913
-320.312 -390.625 827
296.875 -101.562 1001
-445.312 312.5 1523
140.625 242.188 809
281.25 -70.3125 978
-234.375 -335.938 796
-421.875 -85.9375 809
429.688 -39.0625 776
-39.0625 -460.938 2908
171.875 164.062 847
445.312 -85.9375 739
-234.375 164.062 687
132.812 78.125 708
437.5 -54.6875 762
218.75 78.125 889
453.125 -109.375 719
351.562 -437.5 2467
117.188 289.062 785
359.375 -203.125 2349
-476.562 -218.75 714
492.188 -265.625 602
-226.562 250 648
187.5 109.375 875
125 226.562 819
468.75 -171.875 682
312.5 -132.812 1025
54.6875 281.25 713
-406.25 -148.438 749
-429.688 -226.562 704
0 -343.75 1013
-234.375 -328.125 796
-140.625 85.9375 696
265.625 -31.25 954
46.875 85.9375 701
492.188 -218.75 623
-382.812 -359.375 849
-484.375 -164.062 764
-250 -429.688 837
437.5 -62.5 759
-140.625 23.4375 686
164.062 23.4375 730
-15.625 375 636
-359.375 -210.938 759
-328.125 -70.3125 829
390.625 -257.812 2450
-421.875 -218.75 708
-156.25 -210.938 747
-390.625 -218.75 741
210.938 93.75 882
156.25 31.25 730
-179.688 -257.812 851
460.938 -140.625 698
203.125 101.562 880
453.125 -203.125 676
281.25 -226.562 889
-289.062 -398.438 829
-250 140.625 668
-328.125 -132.812 825
-312.5 -414.062 825
-375 -429.688 839
-109.375 70.3125 723
-312.5 -93.75 845
-414.062 304.688 829
-406.25 242.188 839
-195.312 -328.125 825
78.125 -328.125 981
93.75 335.938 766
203.125 0 843
-460.938 -257.812 722
-218.75 148.438 663
-289.062 -132.812 781
-460.938 -203.125 719
15.625 390.625 701
-203.125 117.188 686
453.125 -125 714
132.812 242.188 811
-375 -335.938 856
-187.5 -289.062 833
-187.5 -382.812 882
421.875 0 805
-85.9375 39.0625 717
-195.312 281.25 638
78.125 343.75 762
484.375 -195.312 661
93.75 265.625 798
-140.625 -218.75 750
-382.812 -273.438 727
-31.25 -460.938 2908
203.125 109.375 875
195.312 -23.4375 754
156.25 171.875 843
-343.75 -171.875 794
-421.875 -242.188 708
210.938 -7.8125 837
-367.188 -93.75 792
156.25 210.938 825
-265.625 234.375 658
54.6875 289.062 719
-109.375 -117.188 833
-335.938 195.312 682
203.125 7.8125 849
-171.875 -328.125 821
-460.938 210.938 860
-31.25 70.3125 719
-437.5 -179.688 733
242.188 23.4375 920
-406.25 312.5 813
187.5 39.0625 833
492.188 -164.062 646
125 234.375 815
257.812 -23.4375 948
-335.938 -429.688 827
226.562 54.6875 906
-218.75 -304.688 817
-46.875 -7.8125 761
-398.438 -218.75 733
-468.75 -359.375 1376
492.188 -101.562 676
148.438 187.5 835
164.062 195.312 831
125 273.438 796
-101.562 -164.062 864
-70.3125 -250 930
429.688 -31.25 781
-312.5 -289.062 891
210.938 93.75 882
-179.688 93.75 690
-187.5 -351.562 898
140.625 62.5 713
414.062 15.625 823
-85.9375 93.75 710
-93.75 -195.312 885
273.438 -210.938 880
-375 179.688 693
-351.562 -195.312 778
-210.938 -179.688 746
-101.562 -156.25 858
-257.812 -210.938 744
-460.938 -281.25 739
-218.75 -453.125 858
-476.562 -179.688 746
-140.625 93.75 691
-187.5 -453.125 882
-445.312 -156.25 755
203.125 31.25 869
-390.625 328.125 1264
-171.875 -210.938 742
-140.625 -210.938 754
-101.562 85.9375 717
421.875 -7.8125 800
226.562 62.5 898
148.438 46.875 717
-382.812 -265.625 733
148.438 226.562 817
101.562 296.875 783
-203.125 -242.188 851
-203.125 140.625 666
-132.812 -242.188 757
-382.812 -406.25 839
-296.875 -367.188 835
-234.375 101.562 694
-390.625 164.062 700
-85.9375 62.5 711
-367.188 -445.312 837
210.938 70.3125 896
-367.188 -164.062 780
-382.812 -414.062 839
-179.688 -265.625 847
-132.812 -445.312 3120
-500 109.375 739
-242.188 -289.062 802
-164.062 -210.938 746
-179.688 -359.375 903
-484.375 -117.188 807
-171.875 -257.812 851
101.562 320.312 771
281.25 -62.5 975
-281.25 226.562 662
195.312 125 867
-132.812 109.375 684
445.312 -78.125 741
171.875 70.3125 813
-406.25 156.25 707
109.375 304.688 778
132.812 218.75 821
257.812 -15.625 943
164.062 15.625 736
437.5 -54.6875 762
-500 312.5 1529
140.625 203.125 829
-351.562 390.625 1433
-171.875 -226.562 746
-218.75 -257.812 809
414.062 23.4375 829
-132.812 70.3125 697
476.562 -203.125 662
-93.75 15.625 716
281.25 -203.125 858
101.562 273.438 794
-93.75 312.5 613
-101.562 15.625 714
-93.75 -210.938 898
250 -156.25 827
-484.375 117.188 734
-210.938 -250 803
156.25 39.0625 720
-304.688 -414.062 827
210.938 15.625 862
492.188 -320.312 597
31.25 398.438 741
367.188 304.688 757
156.25 195.312 831
-492.188 -265.625 731
187.5 62.5 813
-500 -203.125 734
289.062 -242.188 918
265.625 -31.25 954
-257.812 132.812 683
476.562 -195.312 666
-273.438 -226.562 759
-93.75 54.6875 711
226.562 39.0625 913
-390.625 367.188 1464
-335.938 -312.5 860
179.688 148.438 854
179.688 54.6875 819
-226.562 -320.312 809
-367.188 179.688 690
31.25 406.25 734
148.438 -312.5 962
-257.812 -273.438 815
-234.375 -312.5 802
242.188 -140.625 819
-468.75 -85.9375 835
-359.375 -343.75 845
484.375 -179.688 667
164.062 39.0625 821
-492.188 -132.812 800
85.9375 351.562 759
-265.625 -273.438 811
203.125 -39.0625 767
140.625 78.125 708
187.5 -421.875 2744
-421.875 -226.562 708
-398.438 -343.75 873
-242.188 -320.312 796
-492.188 109.375 741
-101.562 -265.625 774
31.25 -335.938 1001
250 414.062 717
218.75 78.125 889
-148.438 109.375 708
0 320.312 612
-367.188 -234.375 749
265.625 39.0625 908
117.188 289.062 785
273.438 -54.6875 967
-179.688 -390.625 891
-500 -218.75 722
-148.438 -375 1070
148.438 226.562 817
-429.688 148.438 713
-257.812 234.375 657
-15.625 328.125 604
-273.438 226.562 659
23.4375 -343.75 1007
-242.188 140.625 667
78.125 367.188 752
109.375 289.062 787
195.312 132.812 862
-85.9375 70.3125 714
-257.812 -257.812 823
320.312 -148.438 1038
-187.5 156.25 690
-390.625 -390.625 847
242.188 23.4375 920
-382.812 -187.5 755
132.812 257.812 800
-242.188 -203.125 741
-437.5 140.625 717
265.625 -39.0625 959
54.6875 414.062 731
-382.812 -359.375 849
-453.125 -39.0625 825
281.25 -78.125 984
-179.688 -296.875 823
-242.188 -351.562 783
156.25 187.5 835
179.688 164.062 845
281.25 -70.3125 978
-476.562 -101.562 825
-125 125 698
-351.562 -179.688 790
156.25 210.938 825
-429.688 335.938 1496
-210.938 257.812 642
-179.688 140.625 694
250 7.8125 930
-218.75 -351.562 785
171.875 179.688 837
250 429.688 710
-195.312 -367.188 882
125 234.375 815
-421.875 -156.25 742
304.688 -109.375 1004
-398.438 343.75 1278
-179.688 31.25 703
-179.688 -273.438 839
-421.875 148.438 710
-328.125 -437.5 827
-179.688 -343.75 918
-187.5 -304.688 823
-265.625 -242.188 819
-445.312 -218.75 703
273.438 -46.875 964
-7.8125 335.938 604
-156.25 -367.188 1063
-375 -429.688 839
-46.875 0 755
70.3125 335.938 767
-296.875 -335.938 845
-210.938 93.75 697
414.062 54.6875 854
-367.188 187.5 690
-273.438 -250 809
406.25 31.25 845
-312.5 -93.75 845
492.188 -273.438 600
-257.812 -250 825
-226.562 -289.062 809
23.4375 429.688 727
-23.4375 62.5 720
46.875 406.25 736
-375 -257.812 998
164.062 195.312 831
156.25 54.6875 811
-210.938 -390.625 858
-265.625 -390.625 835
-210.938 125 668
179.688 125 869
-375 -195.312 764
281.25 -195.312 943
171.875 93.75 831
-335.938 -398.438 827
-437.5 281.25 827
-382.812 -54.6875 823
-93.75 78.125 719
-382.812 -195.312 754
468.75 -156.25 688
-195.312 -335.938 906
-265.625 -179.688 752
-265.625 -171.875 752
-226.562 109.375 694
140.625 226.562 817
453.125 -109.375 719
242.188 7.8125 928
421.875 0 805
-367.188 -171.875 778
-453.125 -226.562 704
210.938 70.3125 896
-312.5 -101.562 849
-382.812 -398.438 841
-187.5 -312.5 823
-125 -414.062 3092
-289.062 218.75 666
-398.438 -218.75 733
-460.938 218.75 858
-343.75 -414.062 827
445.312 -78.125 741
187.5 -23.4375 754
-101.562 -273.438 776
-398.438 320.312 813
328.125 -210.938 2381
-117.188 -453.125 3037
-156.25 39.0625 703
460.938 -132.812 703
187.5 148.438 854
281.25 -62.5 975
-406.25 -62.5 827
-445.312 -257.812 716
-179.688 117.188 707
125 257.812 802
-179.688 -203.125 741
-453.125 -265.625 725
-156.25 -203.125 747
414.062 23.4375 829
171.875 23.4375 829
-429.688 257.812 833
164.062 23.4375 730
-445.312 -273.438 730
-437.5 -148.438 755
-414.062 -242.188 716
-117.188 -226.562 764
203.125 148.438 854
-93.75 132.812 693
140.625 242.188 809
210.938 93.75 882
179.688 15.625 835
-460.938 125 727
-70.3125 46.875 711
-382.812 -406.25 839
-367.188 -406.25 833
-265.625 -218.75 747
-93.75 -445.312 3010
-226.562 -445.312 851
476.562 -218.75 654
179.688 132.812 864
429.688 -23.4375 785
406.25 -351.562 2560
-187.5 31.25 704
78.125 320.312 773
-359.375 187.5 688
453.125 -101.562 727
437.5 -46.875 767
-460.938 -210.938 713
406.25 -46.875 785
-195.312 70.3125 690
382.812 257.812 778
195.312 101.562 880
-195.312 -203.125 739
-500 -257.812 727
148.438 7.8125 733
93.75 335.938 766
-140.625 -476.562 3037
-273.438 312.5 796
-296.875 -109.375 851
-320.312 250 734
226.562 62.5 898
-367.188 -437.5 835
-476.562 117.188 734
-406.25 -78.125 809
-328.125 -140.625 880
-85.9375 -468.75 2984
437.5 -54.6875 762
218.75 54.6875 906
46.875 -46.875 771
-148.438 62.5 698
257.812 -7.8125 938
250 -132.812 815
-156.25 -351.562 1050
-328.125 -78.125 837
-437.5 320.312 1509
-273.438 -109.375 851
15.625 421.875 688
62.5 351.562 759
-484.375 -218.75 717
62.5 343.75 761
-273.438 -234.375 805
62.5 398.438 739
195.312 -23.4375 754
-296.875 -421.875 827
414.062 7.8125 821
-335.938 -156.25 802
-195.312 140.625 697
-210.938 -398.438 858
-351.562 -320.312 860
-187.5 148.438 693
375 304.688 757
-453.125 -195.312 723
-445.312 132.812 720
-343.75 -445.312 827
234.375 23.4375 920
-320.312 -117.188 864
-109.375 -289.062 781
-210.938 -289.062 825
-281.25 -242.188 800
125 273.438 796
-304.688 -320.312 856
85.9375 304.688 781
-78.125 320.312 609
117.188 273.438 796
-132.812 31.25 687
-164.062 -335.938 1028
-70.3125 54.6875 708
421.875 7.8125 813
-62.5 -359.375 1034
-375 343.75 1302
468.75 -164.062 684
-93.75 -171.875 867
-375 -257.812 998
257.812 -156.25 891
-156.25 93.75 696
-210.938 -320.312 805
-414.062 -62.5 833
-343.75 -320.312 858
-460.938 132.812 725
132.812 218.75 821
179.688 164.062 845
-148.438 39.0625 694
-250 -203.125 742
179.688 78.125 841
132.812 85.9375 707
-476.562 -359.375 1376
390.625 -31.25 943
-343.75 195.312 683
7.8125 -343.75 1010
-492.188 195.312 875
-289.062 429.688 1392
-203.125 -257.812 845
179.688 39.0625 827
203.125 -242.188 891
476.562 -156.25 684
15.625 -453.125 2883
-179.688 -265.625 847
-242.188 -343.75 792
-250 -328.125 796
-148.438 -273.438 827
-210.938 -273.438 835
171.875 148.438 854
171.875 179.688 837
-398.438 -210.938 734
-171.875 132.812 700
-140.625 -445.312 3120
-304.688 -281.25 896
-210.938 -281.25 829
484.375 -226.562 647
203.125 109.375 875
421.875 -445.312 2365
171.875 78.125 813
-140.625 -218.75 750
-117.188 -234.375 764
226.562 39.0625 913
-195.312 -218.75 739
140.625 85.9375 707
-148.438 70.3125 697
460.938 -140.625 698
-492.188 -140.625 789
265.625 -164.062 923
-242.188 242.188 650
-93.75 15.625 716
-492.188 109.375 741
-445.312 273.438 831
-359.375 -218.75 956
-367.188 281.25 815
-85.9375 31.25 719
187.5 117.188 871
-273.438 203.125 671
-250 -375 843
476.562 -179.688 672
-375 -78.125 798
226.562 -359.375 2744
164.062 187.5 835
148.438 54.6875 713
-179.688 -195.312 741
445.312 -70.3125 746
-156.25 -210.938 747
234.375 46.875 908
-359.375 -359.375 841
-476.562 304.688 1529
195.312 132.812 862
-375 -250 992
-382.812 335.938 1288
445.312 -125 719
195.312 -39.0625 767
429.688 -31.25 781
-257.812 -382.812 837
257.812 -242.188 887
-117.188 101.562 680
-351.562 -195.312 778
-320.312 304.688 803
-484.375 257.812 851
-265.625 351.562 776
-187.5 -296.875 825
0 312.5 612
406.25 46.875 856
-140.625 -437.5 3092
-101.562 -132.812 839
-312.5 312.5 802
-468.75 210.938 862
-179.688 148.438 693
132.812 62.5 711
-31.25 -351.562 1022
-203.125 -390.625 864
-140.625 23.4375 686
265.625 -23.4375 948
-320.312 -78.125 835
93.75 320.312 771
453.125 -93.75 731
250 -7.8125 938
-179.688 -429.688 887
320.312 -140.625 1028
46.875 421.875 728
54.6875 367.188 754
0 398.438 667
0 414.062 690
-359.375 179.688 688
31.25 414.062 733
-382.812 171.875 694
-445.312 -257.812 716
-257.812 -265.625 819
117.188 250 803
257.812 -7.8125 938
273.438 -203.125 858
-93.75 62.5 711
195.312 93.75 882
210.938 -46.875 831
148.438 70.3125 805
70.3125 -445.312 2835
-132.812 109.375 684
-54.6875 70.3125 719
-382.812 -367.188 849
210.938 101.562 878
-179.688 132.812 701
226.562 70.3125 896
-328.125 -70.3125 829
414.062 31.25 837
273.438 -179.688 923
453.125 -101.562 727
273.438 -39.0625 959
-93.75 -203.125 891
484.375 -234.375 644
-500 -281.25 746
-101.562 15.625 714
-93.75 -179.688 875
109.375 312.5 776
-54.6875 85.9375 711
-382.812 -375 845
-250 -289.062 802
-367.188 -218.75 755
-132.812 78.125 691
-179.688 -289.062 831
-500 -210.938 728
-257.812 -210.938 744
-117.188 -296.875 794
250 -156.25 827
-484.375 -257.812 725
437.5 -39.0625 771
-109.375 109.375 680
-328.125 -351.562 837
54.6875 414.062 731
132.812 -210.938 873
-70.3125 328.125 609
-226.562 -328.125 807
453.125 -39.0625 761
484.375 -210.938 653
-203.125 421.875 752
-15.625 367.188 629
429.688 -15.625 790
-500 -257.812 727
140.625 250 805
70.3125 382.812 746
281.25 -62.5 975
46.875 382.812 746
-367.188 -382.812 835
-375 171.875 694
218.75 85.9375 887
257.812 -148.438 891
-171.875 -242.188 821
468.75 -156.25 688
-453.125 -156.25 757
257.812 -15.625 943
476.562 -187.5 671
39.0625 -335.938 995
445.312 -85.9375 739
-140.625 -93.75 823
453.125 -85.9375 734
-195.312 -210.938 739
-187.5 164.062 686
445.312 -62.5 752
39.0625 398.438 739
-179.688 289.062 641
-195.312 -343.75 896
-429.688 156.25 713
-382.812 -390.625 841
-187.5 101.562 691
-421.875 -54.6875 833
312.5 -125 1019
-85.9375 -242.188 923
-62.5 39.0625 717
484.375 -218.75 650
-203.125 -250 847
281.25 -218.75 918
-164.062 -343.75 1034
226.562 62.5 898
203.125 15.625 854
-367.188 -343.75 845
125 281.25 790
-93.75 -468.75 3010
132.812 265.625 798
101.562 281.25 790
-164.062 -234.375 746
-171.875 -250 854
-70.3125 0 757
-62.5 -7.8125 761
-367.188 -328.125 858
-234.375 -421.875 845
460.938 -125 706
-273.438 -328.125 792
-367.188 -242.188 978
289.062 -78.125 984
-242.188 -421.875 841
-226.562 250 648
-367.188 -351.562 845
210.938 0 843
460.938 -93.75 725
187.5 -15.625 754
-210.938 85.9375 694
-484.375 -203.125 728
-195.312 179.688 679
101.562 328.125 767
-164.062 23.4375 691
-93.75 -132.812 839
421.875 7.8125 813
289.062 -234.375 928
195.312 54.6875 858
406.25 62.5 882
-179.688 265.625 640
242.188 31.25 918
-156.25 -320.312 813
-359.375 328.125 802
-7.8125 390.625 659
-382.812 -398.438 841
-328.125 195.312 682
-117.188 -234.375 764
429.688 -23.4375 785
210.938 23.4375 875
-312.5 -101.562 849
-414.062 156.25 707
85.9375 312.5 776
-109.375 -242.188 773
-367.188 -85.9375 796
62.5 382.812 746
62.5 351.562 759
-234.375 -359.375 780
31.25 421.875 728
-226.562 101.562 698
-445.312 -265.625 723
-484.375 -234.375 713
-78.125 7.8125 752
-164.062 -210.938 746
203.125 117.188 871
445.312 -70.3125 746
-375 359.375 1322
-335.938 -54.6875 823
-101.562 -257.812 774
-265.625 -203.125 746
187.5 140.625 860
187.5 70.3125 813
-78.125 70.3125 713
414.062 -70.3125 776
-195.312 78.125 690
117.188 296.875 781
78.125 367.188 752
-242.188 195.312 675
187.5 0 845
234.375 46.875 908
195.312 -15.625 835
-250 -390.625 839
265.625 -23.4375 948
-179.688 -203.125 741
148.438 234.375 813
0 406.25 674
0 343.75 627
-117.188 78.125 687
62.5 398.438 739
406.25 54.6875 858
203.125 -31.25 771
-445.312 -109.375 796
-367.188 -195.312 769
-406.25 -195.312 728
-500 -148.438 785
281.25 -234.375 889
-312.5 -414.062 825
492.188 -250 610
187.5 148.438 854
171.875 31.25 827
-429.688 -117.188 783
-335.938 -164.062 901
-187.5 -320.312 825
234.375 -93.75 780
-359.375 -328.125 858
195.312 -31.25 771
-164.062 281.25 630
109.375 -437.5 2812
437.5 -46.875 767
164.062 164.062 847
-226.562 -296.875 813
195.312 -46.875 767
156.25 39.0625 720
-101.562 78.125 719
218.75 78.125 889
140.625 210.938 823
-62.5 0 757
7.8125 -15.625 759
-78.125 54.6875 710
375 78.125 880
-492.188 -250 720
-23.4375 -351.562 1025
406.25 85.9375 869
218.75 85.9375 887
-375 -421.875 837
-203.125 -375 869
156.25 218.75 819
257.812 0 935
289.062 -210.938 938
171.875 85.9375 831
179.688 132.812 864
-460.938 -210.938 713
-203.125 78.125 691
460.938 -132.812 703
132.812 85.9375 707
-125 -226.562 759
-125 -226.562 759
187.5 46.875 837
-218.75 109.375 686
-343.75 -179.688 790
46.875 414.062 731
140.625 234.375 813
-359.375 359.375 1343
-414.062 -164.062 738
-218.75 -117.188 817
93.75 70.3125 706
-132.812 -437.5 3120
-187.5 -328.125 825
-125 -101.562 825
-390.625 -343.75 867
-382.812 -164.062 761
70.3125 -328.125 984
93.75 320.312 771
-382.812 -382.812 841
109.375 312.5 776
-156.25 289.062 628
-171.875 140.625 693
125 93.75 700
187.5 156.25 851
-210.938 31.25 722
179.688 140.625 860
78.125 140.625 674
390.625 0 833
-179.688 -273.438 839
-187.5 -312.5 823
-406.25 -125 766
242.188 -140.625 819
-257.812 -390.625 837
382.812 -289.062 2522
-296.875 234.375 674
-164.062 -226.562 746
-320.312 -78.125 835
-382.812 -375 845
-203.125 -437.5 867
-484.375 -125 800
148.438 218.75 821
-132.812 109.375 684
179.688 62.5 813
-156.25 -328.125 1022
210.938 101.562 878
148.438 195.312 833
-156.25 70.3125 694
-421.875 296.875 825
-500 -367.188 1404
-328.125 -453.125 827
-179.688 62.5 691
-179.688 -398.438 887
-195.312 -351.562 889
-242.188 -203.125 741
-398.438 -210.938 734
-382.812 -390.625 841
-101.562 -117.188 831
226.562 46.875 908
164.062 203.125 829
164.062 46.875 819
210.938 78.125 891
85.9375 328.125 769
-195.312 171.875 682
-500 242.188 851
-476.562 -250 717
218.75 62.5 898
132.812 265.625 798
-382.812 -273.438 727
-406.25 -85.9375 802
281.25 -54.6875 967
-359.375 203.125 691
-375 -210.938 755
0 328.125 609
250 7.8125 930
312.5 203.125 815
-375 -265.625 1004
-242.188 -367.188 781
171.875 148.438 854
-406.25 -234.375 723
-164.062 125 703
-218.75 -265.625 811
-343.75 187.5 686
-226.562 -179.688 739
-367.188 -429.688 835
-85.9375 109.375 704
-429.688 -171.875 733
-187.5 -367.188 887
-203.125 140.625 666
-39.0625 -7.8125 761
-132.812 -460.938 3037
-179.688 140.625 694
250 15.625 925
-296.875 -382.812 831
125 281.25 790
-320.312 -125 869
-171.875 234.375 649
265.625 -31.25 954
-351.562 -335.938 849
-195.312 101.562 691
-445.312 -148.438 759
-367.188 -242.188 978
-351.562 -203.125 940
-367.188 -203.125 762
-93.75 273.438 630
359.375 -218.75 2381
-484.375 117.188 734
-164.062 46.875 697
70.3125 335.938 767
148.438 195.312 833
78.125 -328.125 981
421.875 0 805
-140.625 -453.125 3120
-62.5 15.625 749
195.312 140.625 860
281.25 -453.125 2503
140.625 250 805
445.312 -78.125 741
-296.875 -281.25 898
226.562 70.3125 896
23.4375 -453.125 2908
-226.562 132.812 664
296.875 -85.9375 989
195.312 -421.875 2680
273.438 -39.0625 959
-437.5 328.125 1503
328.125 -421.875 2522
171.875 187.5 835
242.188 15.625 925
-195.312 -218.75 739
-203.125 46.875 696
453.125 -101.562 727
468.75 -148.438 690
-390.625 -226.562 738
-484.375 -117.188 807
-218.75 -390.625 854
-210.938 39.0625 703
-476.562 -218.75 714
250 0 935
234.375 54.6875 906
445.312 -70.3125 746
-390.625 -210.938 741
93.75 343.75 762
281.25 -210.938 918
-367.188 -437.5 835
-429.688 320.312 1509
492.188 109.375 802
-179.688 -367.188 896
-250 -273.438 803
-429.688 140.625 716
179.688 23.4375 829
492.188 -257.812 606
-304.688 210.938 671
140.625 210.938 823
156.25 203.125 829
-492.188 -265.625 731
-132.812 85.9375 687
-492.188 109.375 741
164.062 31.25 730
218.75 0 843
-460.938 312.5 1529
-492.188 -234.375 716
-250 -226.562 841
-375 375 1452
179.688 164.062 845
-156.25 -210.938 747
-195.312 15.625 722
93.75 296.875 783
85.9375 359.375 755
156.25 179.688 839
-195.312 273.438 638
-500 -210.938 728
390.625 -62.5 962
-210.938 -382.812 860
148.438 179.688 839
-250 -257.812 803
-320.312 -289.062 887
109.375 312.5 776
-171.875 -281.25 833
54.6875 414.062 731
-382.812 -109.375 774
-375 -343.75 849
156.25 218.75 819
101.562 328.125 767
7.8125 414.062 688
78.125 375 747
250 -148.438 821
-320.312 203.125 676
-15.625 351.562 611
156.25 -429.688 2744
179.688 171.875 843
-359.375 -226.562 964
398.438 62.5 885
156.25 62.5 809
-187.5 -343.75 901
-390.625 0 790
125 242.188 811
-492.188 210.938 864
-140.625 62.5 701
414.062 39.0625 843
-125 -242.188 759
-109.375 39.0625 707
-101.562 70.3125 723
382.812 15.625 847
289.062 -70.3125 981
85.9375 335.938 766
421.875 7.8125 813
281.25 -62.5 975
-367.188 -335.938 854
-335.938 195.312 682
-93.75 -164.062 862
265.625 -15.625 943
-359.375 -320.312 862
117.188 281.25 790
-367.188 -445.312 837
-171.875 125 703
132.812 93.75 700
203.125 93.75 882
-312.5 -85.9375 839
-234.375 -328.125 796
-117.188 85.9375 686
-179.688 -320.312 825
468.75 -140.625 696
-132.812 -476.562 3037
179.688 15.625 835
187.5 -15.625 754
273.438 -171.875 923
23.4375 406.25 700
-468.75 -359.375 1376
-359.375 367.188 1359
-109.375 93.75 682
218.75 62.5 898
320.312 -265.625 2503
460.938 -117.188 710
242.188 31.25 918
117.188 296.875 781
179.688 85.9375 841
-15.625 359.375 625
-281.25 -406.25 829
195.312 132.812 862
-257.812 140.625 701
-375 -265.625 1004
281.25 -187.5 935
-93.75 -156.25 858
-257.812 117.188 680
257.812 -140.625 891
156.25 46.875 717
-242.188 -453.125 843
164.062 203.125 829
62.5 273.438 717
148.438 62.5 713
218.75 85.9375 887
-171.875 273.438 635
445.312 -62.5 752
210.938 -46.875 831
-171.875 132.812 700
-148.438 -359.375 1054
-171.875 -203.125 742
-312.5 -109.375 854
203.125 117.188 871
492.188 -109.375 674
421.875 15.625 815
-85.9375 101.562 707
195.312 -7.8125 843
-125 101.562 680
226.562 46.875 908
-148.438 117.188 706
-164.062 31.25 693
421.875 62.5 851
-382.812 351.562 1312
-250 -242.188 833
210.938 78.125 891
195.312 382.812 736
-54.6875 62.5 720
-218.75 -273.438 819
-132.812 54.6875 703
-460.938 125 727
-203.125 -242.188 851
-257.812 -242.188 825
476.562 -179.688 672
-343.75 -187.5 923
-39.0625 78.125 716
-328.125 -367.188 833
195.312 109.375 875
289.062 -78.125 984
492.188 -234.375 615
-117.188 93.75 682
140.625 93.75 762
148.438 78.125 803
-328.125 -62.5 825
-414.062 -234.375 716
-242.188 -148.438 752
484.375 -203.125 658
-203.125 125 686
250 -15.625 943
62.5 406.25 734
-382.812 -203.125 750
-179.688 148.438 693
421.875 -15.625 798
-226.562 140.625 663
257.812 0 935
179.688 140.625 860
-23.4375 70.3125 717
-453.125 -70.3125 847
-210.938 -445.312 860
468.75 -132.812 700
70.3125 343.75 762
-226.562 -304.688 809
234.375 54.6875 906
414.062 54.6875 854
-218.75 148.438 663
-390.625 164.062 700
-328.125 -109.375 825
195.312 23.4375 837
-195.312 39.0625 700
187.5 156.25 851
-460.938 265.625 839
93.75 343.75 762
242.188 39.0625 910
187.5 125 869
195.312 46.875 854
-187.5 -335.938 913
-179.688 156.25 688
312.5 -117.188 1013
-85.9375 125 696
-85.9375 -148.438 851
-156.25 125 703
187.5 62.5 813
-351.562 210.938 696
437.5 -39.0625 771
-335.938 -296.875 878
382.812 7.8125 920
85.9375 312.5 776
453.125 -218.75 671
281.25 -54.6875 967
-125 -15.625 694
-460.938 -140.625 774
-187.5 39.0625 700
304.688 -101.562 1001
125 265.625 798
195.312 140.625 860
-273.438 -101.562 843
-328.125 -140.625 880
-296.875 -273.438 807
476.562 -171.875 675
-125 -226.562 759
-140.625 23.4375 686
-171.875 -257.812 851
265.625 -156.25 923
273.438 -195.312 858
453.125 -85.9375 734
289.062 -226.562 928
-210.938 -320.312 805
-226.562 -320.312 809
242.188 15.625 925
-101.562 -281.25 781
148.438 234.375 813
-156.25 -226.562 746
-257.812 -250 825
-140.625 39.0625 694
62.5 359.375 755
-421.875 148.438 710
109.375 273.438 796
265.625 -15.625 943
484.375 -210.938 653
-156.25 -343.75 1034
-492.188 -171.875 759
-398.438 164.062 700
132.812 226.562 819
195.312 54.6875 858
-54.6875 -7.8125 761
-140.625 85.9375 696
273.438 -31.25 956
93.75 351.562 755
210.938 101.562 878
78.125 375 747
-476.562 257.812 843
-375 -421.875 837
-179.688 132.812 701
-234.375 -335.938 796
-375 -406.25 835
-351.562 -312.5 867
-328.125 -148.438 889
289.062 -70.3125 981
15.625 445.312 719
-179.688 125 704
-109.375 -468.75 3010
-171.875 -265.625 845
-437.5 -70.3125 837
-7.8125 351.562 612
-382.812 -125 767
492.188 -242.188 614
-343.75 234.375 734
-359.375 -226.562 964
179.688 171.875 843
70.3125 390.625 741
-132.812 -210.938 754
-148.438 -359.375 1054
445.312 -62.5 752
367.188 54.6875 891
-500 -187.5 749
-281.25 -140.625 776
-101.562 -250 773
-203.125 -273.438 835
-296.875 382.812 1381
-171.875 -250 854
-156.25 -359.375 1057
85.9375 359.375 755
179.688 78.125 841
-492.188 -203.125 731
54.6875 375 747
289.062 -203.125 946
-187.5 156.25 690
320.312 -132.812 1022
-421.875 289.062 821
-203.125 -265.625 839
-343.75 -351.562 839
-140.625 -460.938 3092
-156.25 -351.562 1050
-476.562 -109.375 815
-187.5 171.875 682
-140.625 -304.688 803
351.562 -187.5 2333
171.875 187.5 835
-218.75 132.812 664
-453.125 140.625 722
54.6875 406.25 734
171.875 93.75 831
-312.5 -406.25 827
101.562 281.25 792
-382.812 -218.75 738
-367.188 -359.375 849
-265.625 -226.562 762
-117.188 -187.5 790
-179.688 -304.688 823
-242.188 -187.5 744
-109.375 -453.125 3092
-187.5 -359.375 880
-171.875 54.6875 693
-226.562 -367.188 780
-31.25 -460.938 2908
101.562 -437.5 2812
-171.875 -218.75 742
-390.625 -187.5 738
-296.875 -390.625 829
296.875 -85.9375 992
-445.312 -257.812 720
-367.188 -250 736
-437.5 -117.188 790
-179.688 -296.875 825
101.562 335.938 766
78.125 351.562 761
-54.6875 0 759
437.5 -31.25 778
-132.812 -468.75 3064
-359.375 -70.3125 805
117.188 250 762
-281.25 -414.062 827
453.125 -93.75 731
-250 109.375 680
-320.312 382.812 1433
-351.562 -62.5 813
-359.375 -210.938 761
187.5 7.8125 742
78.125 320.312 774
210.938 109.375 878
218.75 93.75 885
109.375 296.875 783
250 15.625 928
210.938 7.8125 839
273.438 -46.875 925
-289.062 -414.062 827
218.75 0 843
93.75 296.875 742
0 390.625 655
-312.5 -85.9375 843
-265.625 -359.375 792
-164.062 132.812 701
-242.188 -375 841
-359.375 -78.125 800
421.875 15.625 815
289.062 437.5 706
-203.125 39.0625 701
101.562 312.5 776
125 242.188 811
453.125 -85.9375 734
-117.188 101.562 680
-203.125 148.438 664
132.812 250 807
476.562 -171.875 678
218.75 -78.125 781
203.125 125 869
-398.438 242.188 841
-242.188 -328.125 794
445.312 -54.6875 755
117.188 125 684
-242.188 -429.688 835
257.812 46.875 908
218.75 7.8125 845
85.9375 164.062 667
226.562 70.3125 896
-210.938 -453.125 854
179.688 140.625 862
-445.312 132.812 723
-250 132.812 682
414.062 46.875 847
-195.312 -234.375 796
140.625 78.125 706
-242.188 -281.25 803
265.625 -15.625 946
78.125 179.688 661
250 23.4375 923
78.125 328.125 771
0 351.562 604
-171.875 -195.312 741
-85.9375 93.75 713
-195.312 289.062 659
-367.188 -234.375 744
-250 -445.312 835
242.188 39.0625 915
273.438 -164.062 841
-171.875 140.625 697
-437.5 -46.875 833
