ply
format ascii 1.0
comment Created by Open3D
element vertex 2360
property double x
property double y
property double z
end_header
7.8125 -203.125 1050
-375 -218.75 2908
429.688 -203.125 875
351.562 -203.125 776
398.438 -85.9375 802
-101.562 265.625 928
382.812 -109.375 796
-31.25 -273.438 1145
-460.938 -351.562 1904
203.125 -31.25 862
39.0625 117.188 796
-359.375 187.5 1936
-328.125 -54.6875 2398
171.875 -109.375 928
359.375 -296.875 807
-265.625 320.312 1722
304.688 281.25 1387
7.8125 -234.375 1087
-117.188 226.562 891
-312.5 -265.625 2883
234.375 -109.375 875
320.312 335.938 1328
-31.25 -335.938 1245
-226.562 -289.062 1241
335.938 -320.312 843
218.75 -46.875 871
-62.5 367.188 1054
257.812 -195.312 831
62.5 328.125 1161
-54.6875 343.75 1028
23.4375 -187.5 1031
-343.75 -273.438 2958
-453.125 -320.312 1993
-343.75 -320.312 2859
179.688 -218.75 829
15.625 304.688 1433
-23.4375 -195.312 1050
-164.062 -304.688 1236
320.312 -164.062 789
23.4375 -210.938 1060
101.562 -265.625 849
171.875 234.375 992
265.625 -218.75 769
-398.438 281.25 1804
-7.8125 -273.438 1145
-218.75 203.125 792
171.875 -375 948
-500 -382.812 1853
23.4375 -164.062 1007
445.312 179.688 1090
445.312 148.438 1004
-101.562 257.812 923
453.125 -210.938 823
70.3125 289.062 1169
-31.25 -359.375 1259
257.812 265.625 1169
-492.188 -421.875 1833
148.438 -117.188 940
31.25 -117.188 959
23.4375 -156.25 998
-320.312 31.25 2212
-367.188 265.625 1813
289.062 -437.5 1031
109.375 -171.875 896
-39.0625 -335.938 1245
343.75 304.688 1297
343.75 -179.688 781
-453.125 -117.188 2639
187.5 250 1445
406.25 -179.688 807
242.188 -398.438 1165
210.938 281.25 1169
390.625 -93.75 800
171.875 -85.9375 908
-109.375 156.25 789
398.438 125 967
359.375 234.375 1189
109.375 -140.625 918
289.062 -367.188 1077
414.062 109.375 956
-492.188 -453.125 1853
-320.312 -148.438 2598
-31.25 367.188 1073
179.688 -468.75 2933
-62.5 312.5 987
203.125 -335.938 928
140.625 -265.625 827
-343.75 328.125 1722
171.875 -414.062 3037
-250 -335.938 2908
398.438 -109.375 802
-70.3125 320.312 995
7.8125 312.5 1165
-195.312 -296.875 1236
414.062 -406.25 956
-335.938 -250 2984
406.25 -187.5 809
15.625 -257.812 1119
171.875 -218.75 835
367.188 -109.375 794
390.625 328.125 1312
31.25 -203.125 1047
-492.188 -281.25 1926
351.562 257.812 1236
109.375 -132.812 920
390.625 -265.625 823
-359.375 -218.75 2883
218.75 -179.688 843
164.062 -109.375 930
140.625 -273.438 967
234.375 -46.875 871
398.438 195.312 1094
-156.25 312.5 1705
398.438 187.5 1090
453.125 117.188 975
257.812 -85.9375 823
476.562 140.625 1458
367.188 -289.062 802
-62.5 -328.125 1245
93.75 312.5 1157
-39.0625 398.438 1112
398.438 -257.812 823
250 -390.625 1153
-281.25 195.312 781
70.3125 -148.438 925
398.438 -203.125 817
406.25 140.625 984
382.812 210.938 1149
218.75 -15.625 849
421.875 -343.75 880
187.5 -257.812 802
406.25 -148.438 802
109.375 281.25 1173
-437.5 -289.062 2040
-484.375 -429.688 2184
218.75 -335.938 920
414.062 -359.375 898
273.438 -343.75 880
-187.5 257.812 1794
-132.812 -359.375 2933
-101.562 -320.312 1245
367.188 304.688 1245
460.938 117.188 975
429.688 -335.938 871
-468.75 -390.625 2028
414.062 -179.688 809
343.75 -312.5 829
-328.125 -31.25 2317
-179.688 273.438 1766
171.875 -351.562 946
382.812 -101.562 798
281.25 -39.0625 831
453.125 -132.812 860
-460.938 -195.312 2170
-429.688 -257.812 2053
218.75 218.75 992
-320.312 54.6875 2156
31.25 -351.562 1255
-476.562 -406.25 2053
-335.938 328.125 1722
-54.6875 320.312 998
140.625 -343.75 970
414.062 -234.375 887
273.438 -156.25 815
54.6875 -187.5 951
210.938 -328.125 925
375 -281.25 930
-351.562 312.5 1739
-85.9375 250 920
406.25 281.25 1268
-453.125 -218.75 2129
54.6875 -117.188 956
281.25 -312.5 885
406.25 -78.125 871
93.75 -171.875 903
484.375 85.9375 1381
23.4375 304.688 1153
-335.938 -234.375 2908
-101.562 250 913
234.375 242.188 1452
406.25 -242.188 896
195.312 -421.875 3010
226.562 -39.0625 867
406.25 85.9375 930
125 -273.438 837
-203.125 312.5 1722
15.625 -414.062 2958
-195.312 242.188 1823
210.938 -187.5 835
-46.875 382.812 1084
-117.188 210.938 878
-335.938 -187.5 2767
-335.938 -218.75 2883
281.25 -62.5 817
195.312 -39.0625 869
320.312 -218.75 780
335.938 210.938 1297
-445.312 -265.625 2078
148.438 -265.625 821
437.5 -203.125 856
414.062 23.4375 823
140.625 304.688 1153
-460.938 -132.812 2701
-93.75 281.25 948
375 -171.875 796
460.938 132.812 992
46.875 -125 962
195.312 -453.125 1197
62.5 -117.188 954
304.688 -351.562 862
15.625 335.938 1153
117.188 -164.062 894
187.5 -62.5 889
-125 203.125 867
85.9375 289.062 1165
250 -210.938 769
281.25 -210.938 792
-453.125 -328.125 2812
78.125 -359.375 951
398.438 -210.938 823
-109.375 250 913
23.4375 -148.438 989
359.375 -296.875 807
234.375 -101.562 835
-335.938 -195.312 2789
375 -164.062 792
-289.062 -359.375 2812
179.688 -101.562 923
187.5 -460.938 2933
328.125 -281.25 803
-328.125 -23.4375 2317
85.9375 -179.688 908
437.5 -210.938 854
-320.312 -351.562 2812
445.312 101.562 959
-179.688 -320.312 1245
-312.5 140.625 1993
445.312 -328.125 860
31.25 296.875 1439
250 -320.312 906
406.25 132.812 978
156.25 -226.562 843
-460.938 -343.75 1936
-398.438 257.812 1833
203.125 -328.125 935
179.688 -328.125 954
-445.312 -93.75 2579
-328.125 -7.8125 2317
250 257.812 1173
273.438 -31.25 841
375 -156.25 790
-328.125 -46.875 2381
117.188 281.25 1165
343.75 312.5 1333
-93.75 289.062 954
-351.562 187.5 1947
-117.188 218.75 882
-429.688 -242.188 2116
242.188 132.812 920
-132.812 -312.5 1236
39.0625 -351.562 1255
46.875 -93.75 935
15.625 -179.688 1025
335.938 -320.312 843
171.875 -351.562 946
-117.188 226.562 891
-7.8125 -257.812 1123
-46.875 328.125 1010
85.9375 281.25 1439
62.5 -85.9375 925
406.25 62.5 908
335.938 -93.75 802
187.5 -54.6875 880
382.812 -273.438 920
-335.938 -203.125 2812
468.75 -367.188 894
-335.938 -242.188 2958
179.688 250 1445
218.75 390.625 1297
328.125 281.25 1370
-492.188 -312.5 1883
210.938 -171.875 845
-468.75 -226.562 2103
367.188 203.125 1181
351.562 -31.25 845
187.5 -437.5 2958
304.688 -437.5 1028
-328.125 -148.438 2659
101.562 -148.438 920
-39.0625 296.875 981
335.938 -226.562 785
335.938 -234.375 789
0 -343.75 1250
-476.562 -390.625 2028
101.562 -171.875 898
320.312 -179.688 783
234.375 -257.812 790
265.625 -226.562 769
-468.75 -367.188 1915
210.938 -23.4375 860
187.5 -367.188 943
453.125 -140.625 858
54.6875 -242.188 918
-437.5 -273.438 2065
281.25 -203.125 790
-398.438 -343.75 2767
273.438 -148.438 817
265.625 -304.688 903
382.812 -125 792
242.188 -179.688 860
54.6875 -148.438 984
156.25 414.062 1288
-335.938 -125 2579
-437.5 -265.625 2090
62.5 -312.5 935
-289.062 328.125 1705
109.375 -125 920
203.125 281.25 1165
234.375 -406.25 1185
195.312 281.25 1169
15.625 -257.812 1119
351.562 343.75 1312
15.625 -218.75 1070
226.562 -78.125 847
406.25 93.75 938
-250 -281.25 1232
273.438 -62.5 831
85.9375 312.5 1161
234.375 -156.25 862
62.5 -187.5 946
398.438 -85.9375 802
-39.0625 414.062 1138
-468.75 -148.438 2723
312.5 -93.75 805
335.938 -218.75 780
304.688 -171.875 800
390.625 -218.75 831
281.25 335.938 1333
-203.125 226.562 1853
226.562 -414.062 1197
78.125 437.5 1278
117.188 -343.75 964
187.5 -351.562 938
-31.25 -289.062 1173
-93.75 -320.312 1241
70.3125 320.312 1161
70.3125 -85.9375 925
-382.812 -257.812 2883
226.562 218.75 995
273.438 -70.3125 817
359.375 -195.312 781
-453.125 -187.5 2170
257.812 -281.25 923
218.75 -187.5 837
109.375 -351.562 959
382.812 -148.438 790
-23.4375 -359.375 1250
390.625 218.75 1123
85.9375 203.125 928
31.25 -117.188 959
62.5 -117.188 954
304.688 -164.062 800
148.438 -226.562 847
453.125 171.875 1458
-31.25 -335.938 1245
-429.688 -250 2103
328.125 296.875 1359
281.25 -250 780
359.375 289.062 1259
-218.75 -289.062 1232
101.562 257.812 987
367.188 -289.062 802
31.25 -109.375 951
335.938 -164.062 785
265.625 -187.5 823
-132.812 187.5 798
7.8125 -234.375 1087
281.25 -375 1080
203.125 -242.188 781
-156.25 -304.688 1232
-335.938 -226.562 2908
250 -343.75 901
7.8125 304.688 1433
257.812 -109.375 823
171.875 -375 948
296.875 242.188 1173
187.5 -70.3125 896
54.6875 -132.812 970
-320.312 0 2286
-312.5 156.25 1981
54.6875 -250 910
140.625 265.625 1439
195.312 -93.75 915
335.938 320.312 1333
39.0625 -101.562 943
-109.375 250 913
414.062 164.062 1004
296.875 -351.562 871
0 -156.25 1004
359.375 -101.562 798
304.688 -429.688 1013
304.688 335.938 1333
171.875 187.5 896
390.625 132.812 973
-500 -445.312 1853
382.812 -132.812 792
85.9375 -78.125 915
148.438 296.875 1153
148.438 195.312 894
210.938 -70.3125 891
23.4375 -351.562 1255
-15.625 343.75 1041
7.8125 -343.75 1250
156.25 -375 956
273.438 -375 1101
-281.25 -273.438 1232
351.562 -304.688 817
-476.562 -375 1981
-320.312 7.8125 2256
85.9375 -328.125 948
-500 -398.438 1833
117.188 -367.188 962
-93.75 -328.125 1250
195.312 -335.938 935
39.0625 304.688 1165
289.062 -187.5 829
62.5 -93.75 933
-375 -132.812 2618
-476.562 -398.438 2053
132.812 -273.438 970
210.938 -15.625 851
156.25 -171.875 908
390.625 -93.75 800
320.312 343.75 1317
-23.4375 343.75 1041
31.25 328.125 1153
-101.562 273.438 938
-218.75 -320.312 2984
390.625 179.688 1105
-468.75 -351.562 1904
-492.188 -429.688 1833
335.938 335.938 1317
257.812 -148.438 831
-421.875 -218.75 2143
156.25 265.625 1169
-500 -359.375 1873
78.125 320.312 1161
132.812 -156.25 896
-484.375 -414.062 2143
429.688 -218.75 867
289.062 -359.375 1080
-343.75 187.5 1936
179.688 -250 800
195.312 70.3125 803
62.5 289.062 1433
398.438 265.625 1189
484.375 -218.75 773
-179.688 -203.125 1097
-500 -390.625 1853
148.438 -375 956
156.25 257.812 1439
148.438 -109.375 935
-320.312 93.75 2090
-453.125 -320.312 1993
-335.938 -210.938 2812
0 -148.438 995
-328.125 -39.0625 2381
-320.312 78.125 2116
210.938 -101.562 918
-125 195.312 862
-54.6875 351.562 1038
62.5 -109.375 946
187.5 -335.938 940
187.5 -453.125 2933
140.625 -335.938 970
-398.438 265.625 1823
164.062 -195.312 858
23.4375 -140.625 984
414.062 -85.9375 878
101.562 218.75 948
320.312 -109.375 802
93.75 -273.438 851
93.75 195.312 923
-46.875 406.25 1119
187.5 -156.25 889
203.125 -187.5 837
117.188 -156.25 894
-335.938 -164.062 2701
-445.312 -281.25 2040
-312.5 171.875 1947
39.0625 335.938 1165
-437.5 -335.938 2659
70.3125 -382.812 1273
31.25 -242.188 1094
-453.125 -304.688 2016
78.125 187.5 913
-265.625 320.312 1722
265.625 257.812 1181
179.688 -406.25 1288
-117.188 218.75 882
226.562 -7.8125 843
398.438 -164.062 800
101.562 429.688 1283
31.25 -250 1105
-312.5 148.438 1993
179.688 -468.75 2933
0 -242.188 1097
-335.938 -156.25 2680
257.812 -375 1145
-500 -406.25 1833
39.0625 -195.312 1038
226.562 -54.6875 880
218.75 273.438 1173
62.5 -351.562 946
-62.5 335.938 1016
437.5 93.75 948
-421.875 -234.375 2116
148.438 -156.25 903
46.875 -171.875 1007
54.6875 -242.188 918
210.938 -195.312 829
-210.938 210.938 794
125 -125 906
31.25 -257.812 908
-54.6875 390.625 1087
320.312 15.625 817
421.875 70.3125 920
-125 390.625 1601
15.625 304.688 1433
-46.875 367.188 1060
7.8125 -257.812 1123
296.875 -78.125 805
-54.6875 343.75 1028
109.375 304.688 1161
85.9375 179.688 908
15.625 -218.75 1070
-437.5 -148.438 2241
-437.5 -304.688 2812
46.875 -93.75 935
234.375 265.625 1177
-328.125 328.125 1713
62.5 -242.188 910
187.5 289.062 1410
281.25 -367.188 1090
109.375 -132.812 920
226.562 -101.562 918
234.375 -46.875 871
-453.125 -195.312 2103
351.562 265.625 1278
-476.562 -257.812 2053
179.688 -101.562 923
312.5 -101.562 805
-335.938 -250 2984
171.875 -257.812 803
15.625 -171.875 1013
203.125 -109.375 925
70.3125 -140.625 973
54.6875 -140.625 978
179.688 -148.438 901
-335.938 -218.75 2883
-171.875 -320.312 1250
203.125 -39.0625 867
171.875 -218.75 835
289.062 -445.312 1041
265.625 -23.4375 849
-15.625 320.312 1161
140.625 257.812 1452
23.4375 -125 967
-101.562 359.375 1028
312.5 -234.375 778
-39.0625 406.25 1123
109.375 -70.3125 906
-187.5 -296.875 1236
234.375 156.25 938
-328.125 -70.3125 2450
187.5 -250 790
93.75 218.75 946
-46.875 359.375 1050
109.375 -234.375 878
187.5 281.25 1161
-335.938 -171.875 2701
70.3125 187.5 908
218.75 148.438 920
-460.938 -328.125 1959
234.375 -7.8125 843
203.125 -328.125 935
78.125 -359.375 951
367.188 -179.688 805
-484.375 -179.688 2883
406.25 54.6875 898
78.125 -171.875 915
15.625 335.938 1153
226.562 -414.062 1197
-23.4375 -335.938 1245
62.5 296.875 1161
382.812 -101.562 798
-250 320.312 1722
-93.75 -320.312 1241
289.062 -78.125 807
390.625 -210.938 823
-23.4375 351.562 1050
31.25 -125 967
-46.875 375 1070
-23.4375 335.938 1028
23.4375 -203.125 1047
101.562 -78.125 913
132.812 -343.75 967
406.25 -70.3125 867
23.4375 -265.625 1126
273.438 -62.5 831
-148.438 343.75 1663
-335.938 -203.125 2812
-320.312 101.562 2078
-125 210.938 875
-406.25 335.938 1713
-101.562 406.25 1094
-398.438 250 1853
-39.0625 351.562 1047
-335.938 -187.5 2767
7.8125 -265.625 1130
-312.5 164.062 1959
85.9375 -164.062 910
-390.625 335.938 1713
140.625 -265.625 827
125 273.438 1439
226.562 -15.625 849
429.688 -62.5 856
-273.438 -273.438 1227
-335.938 -195.312 2789
195.312 -320.312 946
203.125 -320.312 938
203.125 -23.4375 858
-78.125 312.5 984
-335.938 -234.375 2908
382.812 -140.625 790
46.875 -351.562 938
-101.562 265.625 928
-15.625 -257.812 1126
-445.312 -148.438 2723
156.25 -257.812 815
-460.938 -203.125 2103
226.562 265.625 1173
125 421.875 1288
-101.562 257.812 923
93.75 -343.75 951
85.9375 -351.562 948
-398.438 257.812 1833
78.125 -234.375 906
-476.562 -164.062 2789
476.562 15.625 833
156.25 -148.438 906
-335.938 -148.438 2659
328.125 -328.125 845
343.75 -109.375 794
-453.125 -164.062 2789
164.062 -203.125 851
-320.312 62.5 2156
-390.625 281.25 1794
0 335.938 1149
203.125 -31.25 862
93.75 -164.062 906
-250 210.938 794
250 -273.438 933
359.375 -85.9375 798
429.688 39.0625 896
390.625 171.875 1004
265.625 -335.938 887
101.562 -312.5 959
-437.5 -257.812 2053
-437.5 -203.125 2170
429.688 -335.938 871
109.375 -351.562 959
437.5 70.3125 925
-46.875 343.75 1031
421.875 -226.562 873
218.75 -15.625 849
-429.688 -234.375 2116
312.5 -335.938 856
335.938 -171.875 781
273.438 -132.812 821
156.25 -164.062 910
187.5 -54.6875 880
406.25 -335.938 875
164.062 -468.75 2933
46.875 -132.812 970
54.6875 -85.9375 928
-484.375 -257.812 2040
250 -15.625 847
-85.9375 312.5 981
-210.938 382.812 1632
-335.938 -132.812 2618
-132.812 375 1616
257.812 -289.062 915
382.812 -265.625 807
171.875 289.062 1161
-421.875 -31.25 2381
156.25 -265.625 815
-46.875 382.812 1084
179.688 281.25 1161
390.625 -257.812 823
234.375 -93.75 833
367.188 39.0625 823
93.75 -156.25 915
-500 -351.562 1883
257.812 -15.625 845
164.062 -429.688 3010
46.875 -125 962
-46.875 414.062 1130
398.438 93.75 935
250 382.812 1297
359.375 -109.375 794
-117.188 406.25 1579
39.0625 320.312 1161
-109.375 421.875 1564
367.188 195.312 1181
85.9375 312.5 1161
-195.312 312.5 1722
390.625 281.25 1197
265.625 -203.125 798
39.0625 -351.562 1255
265.625 226.562 1445
242.188 265.625 1173
-437.5 -273.438 2065
-132.812 187.5 798
171.875 -203.125 845
-46.875 390.625 1094
-23.4375 -359.375 1250
-250 -281.25 1232
-62.5 335.938 1016
492.188 -359.375 849
-492.188 -289.062 1915
210.938 -54.6875 878
296.875 -242.188 774
398.438 -78.125 805
70.3125 265.625 984
195.312 -328.125 940
179.688 -429.688 3010
429.688 -218.75 867
-328.125 -15.625 2317
140.625 -156.25 898
375 -117.188 792
7.8125 304.688 1433
-468.75 -210.938 2129
-117.188 234.375 896
-31.25 421.875 1149
156.25 -273.438 962
-226.562 179.688 783
-312.5 179.688 1936
-406.25 -250 2883
-437.5 -132.812 2256
421.875 187.5 1067
39.0625 -125 964
250 -195.312 841
-7.8125 312.5 1427
-453.125 -312.5 2005
429.688 187.5 1185
164.062 -437.5 3010
195.312 -335.938 935
304.688 -343.75 862
132.812 -335.938 970
-156.25 -304.688 1232
-39.0625 320.312 1010
281.25 -54.6875 829
429.688 195.312 1090
-414.062 -70.3125 2467
-62.5 367.188 1054
85.9375 320.312 1161
-257.812 187.5 783
-54.6875 320.312 998
117.188 273.438 1433
195.312 -445.312 1202
-218.75 -289.062 1232
257.812 -218.75 769
312.5 195.312 998
-476.562 -281.25 2028
78.125 -164.062 920
140.625 273.438 1169
492.188 -398.438 821
-343.75 -437.5 2639
54.6875 -101.562 938
31.25 -210.938 1054
7.8125 -242.188 1097
195.312 -39.0625 869
367.188 -171.875 796
414.062 -101.562 809
265.625 -218.75 769
187.5 -375 943
-109.375 242.188 906
140.625 -117.188 943
-23.4375 414.062 1141
93.75 289.062 1161
-320.312 109.375 2053
-406.25 -242.188 2908
343.75 414.062 1452
-460.938 -125 2639
-320.312 328.125 1713
-335.938 -242.188 2958
46.875 296.875 1439
476.562 -343.75 873
-460.938 -359.375 1915
-335.938 -140.625 2639
234.375 164.062 898
429.688 101.562 954
156.25 296.875 1153
187.5 250 1445
109.375 -148.438 898
187.5 -320.312 956
328.125 -320.312 845
343.75 296.875 1317
7.8125 -226.562 1080
-320.312 85.9375 2103
-62.5 304.688 981
289.062 -359.375 1080
7.8125 -257.812 1123
-484.375 -398.438 2065
320.312 -328.125 854
242.188 164.062 898
-140.625 -328.125 1259
-468.75 -31.25 2398
109.375 -343.75 959
31.25 296.875 1439
-304.688 218.75 1873
-23.4375 343.75 1041
-445.312 -304.688 2883
-54.6875 367.188 1057
234.375 -70.3125 845
343.75 -304.688 823
-39.0625 429.688 1161
265.625 -70.3125 829
273.438 -242.188 771
31.25 -195.312 1038
31.25 -109.375 951
234.375 -320.312 918
-398.438 335.938 1713
132.812 -265.625 829
359.375 234.375 1189
406.25 -242.188 896
-328.125 -257.812 2984
156.25 -109.375 933
148.438 -226.562 847
117.188 312.5 1165
-242.188 -281.25 1227
78.125 -179.688 908
367.188 -93.75 798
54.6875 320.312 1153
398.438 179.688 1084
187.5 -78.125 901
148.438 265.625 1433
-335.938 -179.688 2767
46.875 -93.75 935
-23.4375 -335.938 1245
328.125 218.75 1343
171.875 -343.75 951
-476.562 -367.188 1915
-421.875 -242.188 2116
171.875 -445.312 2933
421.875 -226.562 873
-187.5 312.5 1722
-62.5 320.312 995
187.5 -328.125 946
390.625 125 962
273.438 -312.5 891
257.812 257.812 1173
109.375 -281.25 962
-468.75 -203.125 2883
39.0625 -101.562 943
312.5 -156.25 794
250 -382.812 1161
125 -367.188 964
335.938 -312.5 837
351.562 -296.875 809
367.188 335.938 1297
367.188 -281.25 796
-351.562 398.438 1624
70.3125 320.312 1161
156.25 -375 956
375 -273.438 815
179.688 289.062 1161
468.75 -390.625 878
179.688 -179.688 858
-15.625 -265.625 1134
242.188 -93.75 833
70.3125 -109.375 946
-70.3125 289.062 959
414.062 -93.75 809
-335.938 -117.188 2560
-398.438 289.062 1785
226.562 -195.312 833
-320.312 15.625 2256
171.875 -367.188 948
195.312 -125 896
195.312 -156.25 880
242.188 -195.312 839
179.688 -335.938 951
-484.375 -265.625 2040
210.938 -46.875 873
250 -148.438 837
335.938 -296.875 821
250 -85.9375 827
-335.938 -273.438 2933
453.125 -148.438 856
-101.562 -78.125 948
-437.5 -265.625 2090
242.188 -390.625 1173
-125 195.312 862
195.312 -375 1250
375 -93.75 798
-328.125 23.4375 2241
-226.562 398.438 1609
-132.812 195.312 860
-109.375 257.812 920
164.062 -101.562 923
-484.375 -406.25 2065
414.062 -234.375 887
-398.438 242.188 1863
-320.312 125 2040
210.938 -171.875 845
78.125 -187.5 948
-31.25 429.688 1169
187.5 -179.688 851
-125 -312.5 1232
203.125 -93.75 913
367.188 -109.375 794
-484.375 -390.625 2040
-125 210.938 875
101.562 -257.812 849
398.438 -125 798
-429.688 -109.375 2598
39.0625 296.875 1439
187.5 -343.75 938
-492.188 -437.5 1843
414.062 -117.188 807
195.312 281.25 1169
-101.562 265.625 928
296.875 -351.562 871
-468.75 -343.75 1936
-445.312 -289.062 2040
62.5 289.062 1433
46.875 328.125 1165
-273.438 -273.438 1227
281.25 257.812 1165
312.5 -171.875 790
257.812 -296.875 913
242.188 -367.188 1197
406.25 46.875 894
109.375 -367.188 962
-335.938 -210.938 2812
101.562 -367.188 956
-328.125 -23.4375 2317
-171.875 312.5 1722
62.5 -187.5 946
187.5 -429.688 3010
85.9375 -359.375 954
218.75 -39.0625 867
273.438 203.125 998
-492.188 -414.062 1823
-7.8125 -250 1115
54.6875 -93.75 933
179.688 -453.125 2933
-421.875 -210.938 2156
250 -351.562 901
273.438 -226.562 769
398.438 -250 802
140.625 265.625 1439
187.5 -62.5 889
-15.625 320.312 1161
398.438 281.25 1189
93.75 -156.25 915
343.75 250 1297
39.0625 335.938 1165
234.375 289.062 1404
-234.375 281.25 1776
-335.938 -226.562 2908
257.812 -85.9375 823
257.812 0 837
125 -273.438 837
54.6875 -125 962
367.188 187.5 1185
203.125 -328.125 935
-15.625 351.562 1050
-453.125 -296.875 2040
-195.312 250 1804
437.5 -210.938 854
429.688 -390.625 935
171.875 -179.688 860
15.625 -343.75 1245
414.062 39.0625 889
46.875 -101.562 940
203.125 -23.4375 858
351.562 -203.125 776
343.75 343.75 1312
117.188 -367.188 962
-492.188 -210.938 2859
-500 -453.125 1853
-320.312 -281.25 2958
250 -359.375 1181
273.438 -210.938 796
265.625 -70.3125 829
273.438 -375 1101
398.438 250 1157
-312.5 328.125 1713
0 -242.188 1097
-335.938 328.125 1722
-46.875 328.125 1010
242.188 148.438 933
335.938 328.125 1328
-453.125 -335.938 2767
-382.812 -257.812 2883
-375 -257.812 2883
-335.938 -101.562 2522
-117.188 234.375 896
23.4375 -257.812 1115
-70.3125 312.5 987
234.375 -398.438 1189
132.812 296.875 1161
242.188 -398.438 1165
-39.0625 296.875 981
-445.312 -328.125 2723
-328.125 -273.438 2958
7.8125 335.938 1149
46.875 -117.188 956
171.875 406.25 1292
-242.188 320.312 1722
-468.75 -375 1981
148.438 -265.625 821
390.625 -85.9375 802
-273.438 195.312 781
-109.375 250 913
-453.125 -101.562 2598
132.812 273.438 1169
289.062 367.188 1297
62.5 320.312 1161
101.562 -351.562 956
125 250 984
359.375 -289.062 800
218.75 -328.125 923
179.688 -351.562 943
-382.812 335.938 1722
312.5 -335.938 856
273.438 -54.6875 835
335.938 -85.9375 803
-250 320.312 1722
312.5 -281.25 809
-171.875 -320.312 1250
296.875 -132.812 807
-328.125 -7.8125 2317
117.188 -164.062 894
-335.938 -148.438 2659
46.875 -242.188 918
367.188 289.062 1232
-210.938 -289.062 1232
-335.938 -171.875 2701
375 -156.25 790
-421.875 -226.562 2156
390.625 -257.812 823
-312.5 132.812 2028
265.625 -335.938 887
218.75 -7.8125 845
445.312 109.375 967
-7.8125 343.75 1149
257.812 -304.688 910
-468.75 -140.625 2723
-460.938 -226.562 2103
437.5 140.625 998
250 -85.9375 827
-468.75 -359.375 1915
125 304.688 1161
375 -117.188 792
195.312 -132.812 896
140.625 304.688 1153
-335.938 -132.812 2618
398.438 -101.562 803
-54.6875 -328.125 1236
-335.938 -164.062 2701
367.188 -179.688 805
117.188 -125 913
179.688 -390.625 1278
-31.25 437.5 1173
328.125 -242.188 771
-429.688 -242.188 2116
-148.438 -304.688 1232
7.8125 -226.562 1080
-62.5 375 1067
242.188 -390.625 1173
85.9375 -164.062 910
203.125 -203.125 825
195.312 -117.188 933
85.9375 281.25 1439
-23.4375 -117.188 970
-187.5 -296.875 1236
195.312 -242.188 789
414.062 31.25 823
304.688 -343.75 862
164.062 289.062 1165
242.188 156.25 898
-476.562 -289.062 2028
406.25 -359.375 901
179.688 -460.938 2933
195.312 -437.5 2908
281.25 -78.125 809
-359.375 -265.625 2908
257.812 234.375 1452
203.125 -343.75 928
351.562 -296.875 809
-320.312 93.75 2090
195.312 -335.938 935
101.562 -140.625 925
46.875 -351.562 938
-15.625 -359.375 1232
406.25 125 973
148.438 -257.812 821
218.75 -414.062 1214
-476.562 -156.25 2789
23.4375 -203.125 1047
187.5 -46.875 878
289.062 328.125 1338
78.125 195.312 918
-78.125 320.312 992
273.438 -445.312 1054
101.562 281.25 1433
-289.062 218.75 1863
39.0625 -335.938 928
328.125 -335.938 845
-453.125 -351.562 2659
398.438 117.188 959
-203.125 179.688 787
312.5 -312.5 845
-187.5 265.625 1785
421.875 -78.125 871
-156.25 328.125 1688
-460.938 -328.125 1959
367.188 179.688 1001
445.312 -203.125 847
-39.0625 -273.438 1145
367.188 -148.438 789
-101.562 281.25 946
140.625 -109.375 935
312.5 -85.9375 807
-203.125 250 1813
93.75 320.312 1157
265.625 -140.625 827
-445.312 -343.75 2659
164.062 -382.812 956
-203.125 234.375 1833
273.438 -203.125 796
312.5 -437.5 1028
375 -109.375 794
343.75 -304.688 823
-390.625 335.938 1713
-421.875 -250 2103
406.25 -406.25 959
437.5 -93.75 878
328.125 -320.312 845
-484.375 -414.062 2143
335.938 -312.5 837
195.312 -210.938 823
226.562 -101.562 918
-117.188 226.562 891
-320.312 117.188 2040
-421.875 -203.125 2170
179.688 -210.938 835
382.812 -265.625 807
117.188 281.25 1165
-85.9375 -320.312 1232
-492.188 -195.312 2933
-54.6875 398.438 1101
15.625 312.5 1153
-164.062 312.5 1713
445.312 164.062 1470
218.75 -39.0625 867
-23.4375 -335.938 1245
-93.75 281.25 948
210.938 -54.6875 878
-242.188 -281.25 1227
296.875 -187.5 781
-335.938 -125 2579
304.688 -54.6875 809
281.25 -125 815
-125 218.75 880
429.688 -210.938 873
-414.062 -250 2883
-62.5 343.75 1028
171.875 -250 803
109.375 -132.812 920
179.688 -39.0625 873
257.812 -218.75 769
210.938 -93.75 913
257.812 -187.5 825
296.875 281.25 1387
328.125 304.688 1349
171.875 -468.75 2908
-492.188 -265.625 1926
-468.75 -382.812 1993
179.688 -328.125 954
296.875 -218.75 785
-39.0625 406.25 1123
398.438 156.25 998
-320.312 101.562 2078
-234.375 320.312 1722
406.25 -375 918
-70.3125 -421.875 2883
-304.688 328.125 1713
164.062 -429.688 3010
179.688 -382.812 1268
-117.188 -312.5 1232
-265.625 429.688 1579
-320.312 -398.438 2723
-39.0625 351.562 1047
23.4375 -250 1105
203.125 398.438 1292
46.875 -250 918
437.5 -328.125 862
-70.3125 328.125 1001
179.688 -421.875 3037
296.875 -234.375 773
78.125 -140.625 967
179.688 -156.25 896
414.062 -226.562 891
156.25 -257.812 815
-273.438 -296.875 1250
281.25 -367.188 1090
-382.812 195.312 1936
406.25 -351.562 889
226.562 -406.25 1206
289.062 -171.875 805
78.125 312.5 1161
367.188 -281.25 796
15.625 -210.938 1060
-109.375 257.812 920
-39.0625 414.062 1138
156.25 289.062 1157
-445.312 -140.625 2701
335.938 -210.938 776
125 -343.75 967
226.562 -7.8125 843
-210.938 218.75 1863
-273.438 -289.062 1250
-70.3125 351.562 1028
195.312 -54.6875 880
406.25 0 815
406.25 39.0625 823
148.438 296.875 1153
343.75 -187.5 776
406.25 -437.5 998
31.25 328.125 1153
15.625 -148.438 992
-500 -445.312 1853
109.375 -140.625 918
179.688 296.875 1398
-335.938 -195.312 2789
-7.8125 -250 1115
-93.75 289.062 954
289.062 -359.375 1080
-7.8125 312.5 1427
390.625 -109.375 800
-335.938 -93.75 2522
-125 203.125 867
-460.938 -320.312 1993
242.188 242.188 1173
406.25 -367.188 910
328.125 -164.062 785
-335.938 -250 2984
398.438 -78.125 805
39.0625 304.688 1165
148.438 -148.438 903
23.4375 304.688 1153
-460.938 -351.562 1904
125 273.438 1439
398.438 -203.125 817
367.188 -171.875 796
187.5 281.25 1161
445.312 -195.312 851
406.25 148.438 995
-117.188 218.75 882
179.688 -250 800
-187.5 312.5 1722
46.875 -117.188 956
406.25 -398.438 948
125 -265.625 837
250 -78.125 831
210.938 -46.875 873
-437.5 -78.125 2522
-398.438 203.125 1926
23.4375 -117.188 962
156.25 -109.375 933
-328.125 -257.812 2984
85.9375 -335.938 948
-320.312 39.0625 2198
46.875 -85.9375 928
-15.625 312.5 1427
132.812 -265.625 829
148.438 -335.938 970
171.875 -101.562 925
-437.5 -250 2090
109.375 -179.688 898
15.625 -140.625 984
414.062 -140.625 807
39.0625 -93.75 935
-273.438 -273.438 1227
171.875 -31.25 867
0 -265.625 1130
187.5 -421.875 3037
476.562 -398.438 869
296.875 -148.438 803
265.625 -320.312 894
273.438 -54.6875 835
117.188 273.438 1433
273.438 -132.812 821
171.875 265.625 1161
351.562 273.438 1273
250 -93.75 827
-328.125 0 2286
-437.5 -257.812 2053
93.75 281.25 1439
265.625 -375 1115
398.438 -117.188 802
218.75 250 1445
7.8125 -250 1112
164.062 296.875 1165
164.062 -218.75 843
164.062 -375 956
390.625 117.188 954
-445.312 -281.25 2040
195.312 -140.625 896
15.625 -156.25 998
320.312 -437.5 1022
-484.375 -375 1981
-476.562 -375 1981
117.188 -273.438 839
406.25 -382.812 930
109.375 281.25 1173
437.5 148.438 1004
-179.688 -296.875 1232
195.312 -148.438 889
328.125 320.312 1338
-500 -289.062 1915
85.9375 187.5 913
203.125 -242.188 781
132.812 250 984
164.062 -179.688 898
39.0625 296.875 1439
195.312 -343.75 933
-375 335.938 1713
453.125 179.688 1452
132.812 -125 906
-226.562 320.312 1722
-39.0625 421.875 1149
312.5 -335.938 856
140.625 -226.562 854
125 -125 906
210.938 -15.625 851
70.3125 -171.875 925
171.875 -414.062 3037
-62.5 335.938 1016
351.562 242.188 1185
-46.875 351.562 1044
101.562 -343.75 956
398.438 78.125 920
304.688 -250 778
398.438 -70.3125 864
78.125 -78.125 915
375 -109.375 794
281.25 -46.875 829
-453.125 -304.688 2016
375 -117.188 792
-23.4375 -273.438 1149
54.6875 -351.562 948
390.625 -218.75 831
445.312 78.125 935
257.812 -78.125 825
-406.25 343.75 1713
328.125 -187.5 776
-328.125 -273.438 2958
0 -234.375 1090
-335.938 -117.188 2560
93.75 -78.125 915
453.125 125 984
265.625 -210.938 803
-390.625 -250 2859
343.75 -203.125 776
273.438 -210.938 796
-210.938 -289.062 1232
375 -101.562 798
-109.375 250 913
-375 -257.812 2883
-171.875 312.5 1722
-23.4375 -281.25 1165
-320.312 -273.438 2958
-492.188 -406.25 1833
-46.875 382.812 1084
171.875 -296.875 978
-320.312 187.5 1926
335.938 -304.688 829
179.688 -320.312 962
-328.125 15.625 2256
101.562 257.812 987
-468.75 -132.812 2701
343.75 289.062 1317
-398.438 218.75 1904
93.75 -335.938 951
359.375 -195.312 781
398.438 148.438 992
429.688 125 981
359.375 281.25 1255
320.312 -328.125 854
210.938 -46.875 873
109.375 429.688 1283
31.25 -250 1105
296.875 -132.812 807
-265.625 -273.438 1227
234.375 -398.438 1189
250 -85.9375 827
171.875 -93.75 915
-500 -281.25 1926
265.625 -85.9375 815
7.8125 335.938 1149
375 -148.438 790
109.375 -257.812 843
156.25 -328.125 970
-78.125 328.125 998
-101.562 281.25 946
-320.312 132.812 2028
289.062 -429.688 1025
406.25 -390.625 938
-132.812 195.312 860
460.938 125 984
234.375 -226.562 771
-140.625 359.375 1639
406.25 -414.062 967
187.5 -453.125 2933
-15.625 335.938 1153
289.062 -195.312 790
-351.562 -265.625 2958
476.562 7.8125 833
85.9375 437.5 1278
429.688 -328.125 864
187.5 -39.0625 871
117.188 -125 913
-46.875 390.625 1094
-468.75 -195.312 2883
398.438 85.9375 928
-148.438 -304.688 1232
179.688 -257.812 802
-437.5 -265.625 2090
-39.0625 -281.25 1161
406.25 -421.875 981
-484.375 -382.812 2005
85.9375 -359.375 954
359.375 -101.562 798
390.625 273.438 1189
-15.625 -273.438 1145
-54.6875 351.562 1038
-156.25 335.938 1671
-62.5 304.688 981
359.375 -187.5 817
-437.5 -125 2659
85.9375 210.938 938
468.75 -398.438 873
-500 -382.812 1853
343.75 -304.688 823
23.4375 -234.375 1087
-500 -406.25 1833
-437.5 -312.5 2767
-85.9375 320.312 989
421.875 54.6875 903
-226.562 187.5 787
-328.125 31.25 2212
-234.375 406.25 1601
203.125 -15.625 849
-382.812 39.0625 2212
406.25 -429.688 989
-39.0625 414.062 1138
85.9375 179.688 908
203.125 -179.688 843
234.375 -179.688 854
359.375 218.75 1185
406.25 -359.375 901
226.562 148.438 928
-429.688 -226.562 2143
250 -218.75 769
-148.438 351.562 1655
187.5 -78.125 901
335.938 -312.5 837
-23.4375 -257.812 1130
-468.75 -156.25 2789
70.3125 296.875 1169
296.875 -179.688 805
414.062 46.875 896
265.625 -312.5 898
382.812 -93.75 798
93.75 -312.5 954
-398.438 226.562 1894
140.625 -93.75 918
-15.625 -335.938 1241
437.5 93.75 948
-375 195.312 1936
-242.188 414.062 1586
218.75 -414.062 1214
-453.125 -156.25 2767
-70.3125 320.312 995
156.25 -179.688 903
-78.125 414.062 1108
453.125 164.062 1464
421.875 62.5 910
-484.375 -421.875 2156
93.75 289.062 1161
312.5 -281.25 809
320.312 -156.25 792
23.4375 -117.188 962
-46.875 398.438 1105
-7.8125 -359.375 1268
281.25 -359.375 1097
406.25 23.4375 823
70.3125 281.25 1439
367.188 312.5 1259
-117.188 414.062 1572
62.5 320.312 1161
-500 -421.875 1833
-476.562 -390.625 2028
-23.4375 343.75 1041
-406.25 -343.75 2723
0 -257.812 1123
140.625 296.875 1153
-296.875 328.125 1713
390.625 179.688 1105
15.625 -210.938 1060
-101.562 414.062 1564
367.188 -281.25 796
-460.938 -187.5 2883
-382.812 335.938 1722
-335.938 -109.375 2541
7.8125 -218.75 1070
-328.125 23.4375 2241
-328.125 46.875 2184
250 -117.188 841
39.0625 -242.188 1090
195.312 -31.25 864
-468.75 -335.938 1970
218.75 -54.6875 878
351.562 -296.875 809
281.25 -234.375 769
-320.312 109.375 2053
234.375 265.625 1177
281.25 -78.125 809
-335.938 -85.9375 2485
-179.688 312.5 1722
15.625 -140.625 984
-85.9375 -320.312 1232
-31.25 -343.75 1259
-39.0625 -351.562 1264
-109.375 250 913
-179.688 -296.875 1232
-335.938 -78.125 2467
359.375 -148.438 789
62.5 -343.75 940
109.375 -164.062 896
-296.875 -265.625 1227
203.125 -187.5 837
-476.562 -148.438 2723
406.25 31.25 823
-23.4375 -265.625 1138
-125 210.938 875
62.5 132.812 803
85.9375 -296.875 948
281.25 -437.5 1038
375 -156.25 790
367.188 187.5 1185
62.5 445.312 1278
54.6875 -351.562 948
-39.0625 328.125 1019
62.5 -85.9375 925
125 -367.188 964
375 -101.562 798
304.688 -218.75 783
445.312 -171.875 860
46.875 -187.5 951
492.188 78.125 1392
367.188 -164.062 792
-132.812 203.125 867
234.375 -7.8125 843
179.688 -78.125 903
-445.312 -218.75 2143
359.375 -93.75 798
23.4375 -250 1105
312.5 -179.688 785
414.062 85.9375 930
132.812 421.875 1288
-437.5 -195.312 2184
218.75 -7.8125 845
187.5 -250 790
-460.938 -328.125 1959
-109.375 265.625 925
273.438 -367.188 1105
23.4375 -195.312 1041
226.562 -46.875 871
382.812 -109.375 796
-46.875 -328.125 1232
-117.188 -312.5 1232
359.375 -281.25 796
15.625 312.5 1153
398.438 156.25 998
195.312 -93.75 915
148.438 -328.125 970
289.062 -250 780
-179.688 171.875 785
328.125 351.562 1307
359.375 -179.688 807
-46.875 320.312 1004
203.125 -101.562 918
-476.562 -210.938 2984
15.625 -164.062 1007
250 -179.688 860
85.9375 312.5 1161
-289.062 335.938 1696
-101.562 273.438 938
328.125 -226.562 785
7.8125 148.438 805
-187.5 273.438 1776
-132.812 187.5 798
406.25 203.125 1097
78.125 343.75 1376
15.625 304.688 1433
492.188 -398.438 821
7.8125 -171.875 1016
39.0625 -125 964
39.0625 -117.188 956
15.625 343.75 1153
218.75 265.625 1173
31.25 -101.562 946
-492.188 -429.688 1833
171.875 -234.375 811
125 -335.938 967
-453.125 -289.062 2040
265.625 -328.125 891
93.75 -351.562 954
468.75 140.625 1477
-117.188 242.188 906
328.125 -320.312 845
187.5 281.25 1161
367.188 -117.188 792
-54.6875 375 1070
-328.125 54.6875 2184
382.812 179.688 1007
-500 -375 1863
132.812 -156.25 896
39.0625 296.875 1439
351.562 -289.062 802
-78.125 343.75 1022
-62.5 343.75 1028
93.75 -171.875 903
-62.5 382.812 1077
-15.625 343.75 1041
-335.938 -70.3125 2450
203.125 -179.688 843
421.875 -62.5 856
-39.0625 281.25 967
54.6875 -187.5 951
164.062 -85.9375 908
15.625 -125 970
-421.875 -242.188 2116
226.562 -70.3125 891
-109.375 429.688 1550
187.5 -445.312 2908
-117.188 234.375 896
195.312 257.812 1445
312.5 -164.062 794
-484.375 -171.875 2812
296.875 328.125 1338
-367.188 335.938 1713
406.25 117.188 962
210.938 -421.875 1219
-328.125 62.5 2170
125 328.125 1381
7.8125 304.688 1433
125 304.688 1161
195.312 -257.812 789
171.875 289.062 1161
-46.875 164.062 800
117.188 -289.062 967
-273.438 -289.062 1250
54.6875 -117.188 956
304.688 328.125 1338
187.5 -93.75 915
62.5 -234.375 913
-492.188 171.875 2005
179.688 -54.6875 885
-304.688 171.875 1947
-460.938 -171.875 2789
304.688 -226.562 789
429.688 132.812 984
70.3125 -179.688 954
23.4375 335.938 1153
351.562 -132.812 789
382.812 171.875 1007
382.812 -101.562 798
-39.0625 437.5 1169
179.688 -187.5 851
46.875 -156.25 992
226.562 -406.25 1206
273.438 -54.6875 835
-351.562 335.938 1713
78.125 289.062 1165
54.6875 -343.75 938
234.375 -101.562 835
-312.5 210.938 1883
164.062 -148.438 913
148.438 -93.75 915
-445.312 -265.625 2078
164.062 289.062 1165
390.625 -257.812 823
117.188 -343.75 964
421.875 117.188 967
-375 -242.188 2883
-476.562 -359.375 1915
421.875 164.062 1054
210.938 289.062 1398
-500 -304.688 1873
15.625 -343.75 1245
109.375 273.438 1433
101.562 -140.625 925
351.562 -195.312 776
195.312 398.438 1292
250 -375 1165
-367.188 -257.812 2933
-250 414.062 1594
171.875 -195.312 849
257.812 -187.5 825
-421.875 -203.125 2170
23.4375 -109.375 954
93.75 -328.125 954
445.312 164.062 1470
-492.188 -187.5 2908
-265.625 -273.438 1227
265.625 -148.438 823
234.375 -273.438 943
156.25 -195.312 867
304.688 250 1421
406.25 132.812 978
31.25 -195.312 1038
-125 398.438 1594
-132.812 382.812 1609
-257.812 171.875 785
250 210.938 998
46.875 -148.438 987
-406.25 328.125 1731
125 -156.25 894
343.75 -93.75 800
-500 -429.688 1833
85.9375 -109.375 940
382.812 -218.75 785
148.438 -109.375 935
179.688 398.438 1297
-500 -414.062 1823
-265.625 -429.688 2701
93.75 -148.438 925
250 -164.062 827
-343.75 -265.625 2958
398.438 70.3125 913
414.062 179.688 1070
78.125 203.125 925
101.562 -132.812 925
273.438 289.062 1387
-335.938 -93.75 2522
85.9375 289.062 1165
39.0625 -250 908
-31.25 414.062 1138
390.625 -78.125 805
-31.25 335.938 1028
125 -132.812 901
218.75 -250 778
335.938 -93.75 802
-320.312 148.438 2005
234.375 257.812 1181
187.5 -46.875 878
273.438 -328.125 887
-109.375 265.625 925
304.688 -437.5 1028
7.8125 -218.75 1070
-476.562 -382.812 2005
351.562 257.812 1236
250 -351.562 901
390.625 -250 802
93.75 273.438 1439
265.625 -195.312 829
460.938 171.875 1458
-7.8125 320.312 1153
-398.438 234.375 1873
-39.0625 429.688 1161
70.3125 328.125 1392
-187.5 -312.5 1250
148.438 273.438 1169
93.75 -343.75 951
414.062 -218.75 823
-70.3125 312.5 987
218.75 289.062 1398
453.125 -343.75 875
304.688 -289.062 821
242.188 -382.812 1185
179.688 -445.312 2933
-445.312 -195.312 2170
-242.188 312.5 1731
-203.125 -289.062 1232
-335.938 -132.812 2618
234.375 164.062 898
187.5 -398.438 1288
257.812 -203.125 805
15.625 -140.625 984
-125 210.938 875
-320.312 -257.812 2883
-468.75 -343.75 1936
-140.625 164.062 789
242.188 273.438 1173
257.812 -210.938 805
101.562 -156.25 903
195.312 273.438 1169
101.562 -148.438 920
93.75 -140.625 928
-7.8125 -242.188 1105
164.062 -250 809
-460.938 -117.188 2639
164.062 -414.062 3037
210.938 -125 887
398.438 -242.188 798
140.625 -148.438 898
-62.5 359.375 1044
421.875 -335.938 871
-445.312 -210.938 2143
382.812 304.688 1241
-367.188 195.312 1936
78.125 -164.062 920
187.5 -242.188 790
367.188 171.875 1004
242.188 250 1173
398.438 148.438 992
-218.75 320.312 1713
171.875 -468.75 2908
-414.062 -242.188 2908
85.9375 218.75 946
414.062 78.125 923
54.6875 -85.9375 928
-468.75 -242.188 2078
281.25 -320.312 882
335.938 -195.312 776
-445.312 -320.312 2789
328.125 -195.312 776
62.5 -117.188 954
203.125 -171.875 845
250 -218.75 769
171.875 -429.688 3010
-15.625 -335.938 1241
296.875 -343.75 871
234.375 -93.75 833
93.75 210.938 938
-476.562 -171.875 2789
429.688 -171.875 815
46.875 304.688 1161
39.0625 335.938 1165
375 -101.562 798
265.625 -62.5 837
242.188 -148.438 856
-359.375 335.938 1713
390.625 109.375 948
-39.0625 421.875 1149
15.625 -132.812 975
171.875 265.625 1161
171.875 -320.312 967
390.625 132.812 973
-398.438 242.188 1863
304.688 -93.75 809
-171.875 -296.875 1232
54.6875 -351.562 948
390.625 203.125 1112
390.625 -171.875 798
39.0625 -125 964
218.75 -101.562 918
-93.75 203.125 878
140.625 -257.812 827
164.062 -445.312 2933
320.312 -273.438 794
195.312 -242.188 789
406.25 -218.75 829
242.188 -320.312 910
-406.25 320.312 1748
257.812 -31.25 858
-7.8125 343.75 1149
62.5 -78.125 920
-500 -390.625 1853
257.812 296.875 1387
-210.938 203.125 794
93.75 320.312 1157
-234.375 -281.25 1227
265.625 -203.125 798
-500 -445.312 1853
-453.125 -296.875 2040
-132.812 203.125 867
117.188 304.688 1165
23.4375 304.688 1153
15.625 -125 970
-320.312 -273.438 2958
93.75 281.25 1439
-375 234.375 1873
93.75 -359.375 956
-406.25 -273.438 2812
421.875 -226.562 873
-203.125 242.188 1833
15.625 -250 1108
-445.312 -273.438 2065
-445.312 -335.938 2701
195.312 -437.5 2908
218.75 171.875 898
195.312 -328.125 940
304.688 -343.75 862
-335.938 -156.25 2680
125 -328.125 970
406.25 -234.375 829
257.812 -101.562 821
367.188 -273.438 790
328.125 -437.5 1019
164.062 -101.562 923
187.5 234.375 987
-125 203.125 867
296.875 -234.375 773
445.312 117.188 975
265.625 -78.125 815
-15.625 304.688 1185
70.3125 -164.062 913
-460.938 -367.188 2598
15.625 -203.125 1060
-210.938 -421.875 2789
242.188 -195.312 815
-46.875 390.625 1087
-46.875 351.562 1025
109.375 -117.188 915
250 -203.125 807
39.0625 -242.188 910
156.25 -468.75 2908
359.375 179.688 1013
85.9375 -78.125 925
-117.188 234.375 894
171.875 -382.812 1288
-476.562 -367.188 1993
179.688 406.25 1292
-398.438 -250 2883
132.812 -242.188 827
257.812 -375 1101
187.5 -335.938 935
421.875 -218.75 841
304.688 -234.375 802
171.875 179.688 933
242.188 -203.125 813
-54.6875 406.25 1101
-78.125 -320.312 1245
101.562 -132.812 906
-109.375 257.812 918
-23.4375 -289.062 1185
171.875 -250 800
140.625 265.625 1193
-62.5 328.125 1001
445.312 -164.062 827
-109.375 -312.5 1245
273.438 -187.5 790
179.688 -54.6875 891
281.25 -359.375 1060
-460.938 -289.062 2040
-226.562 320.312 1731
-39.0625 359.375 1041
359.375 -109.375 802
-109.375 359.375 1019
437.5 195.312 1445
-484.375 -234.375 2078
242.188 -54.6875 847
179.688 -429.688 1223
492.188 -85.9375 847
335.938 320.312 1288
109.375 -125 908
-125 226.562 887
312.5 -421.875 1019
23.4375 -156.25 1010
-101.562 320.312 981
85.9375 -171.875 906
414.062 -85.9375 889
-242.188 -296.875 1255
359.375 210.938 1145
-437.5 -242.188 3010
-39.0625 382.812 1087
382.812 -210.938 837
359.375 289.062 1210
367.188 -125 802
265.625 -210.938 798
-398.438 210.938 1926
23.4375 -343.75 1268
406.25 -343.75 898
-15.625 312.5 1181
250 -281.25 920
335.938 281.25 1259
375 -125 805
203.125 -15.625 858
304.688 -179.688 789
406.25 70.3125 923
414.062 -109.375 817
367.188 -148.438 803
101.562 312.5 1165
171.875 -359.375 946
-484.375 -398.438 2078
-445.312 -351.562 2618
171.875 -335.938 948
-484.375 -390.625 2005
218.75 -7.8125 851
54.6875 -117.188 962
-46.875 406.25 1108
54.6875 -179.688 956
328.125 -312.5 841
273.438 -445.312 1063
132.812 -234.375 827
117.188 -265.625 841
398.438 187.5 1080
-46.875 -328.125 1250
23.4375 -109.375 962
-460.938 -343.75 2639
335.938 -109.375 800
312.5 -328.125 856
-101.562 281.25 940
7.8125 335.938 1157
492.188 328.125 1322
226.562 218.75 1004
-101.562 289.062 948
234.375 -46.875 854
468.75 -218.75 778
125 -265.625 970
-7.8125 351.562 1153
-62.5 343.75 1022
203.125 -187.5 841
-429.688 -218.75 2143
-39.0625 320.312 1177
187.5 -85.9375 918
-500 -195.312 2883
296.875 -164.062 796
406.25 -85.9375 891
296.875 -437.5 1047
132.812 -367.188 970
-39.0625 -265.625 1149
242.188 -382.812 1145
312.5 343.75 1333
31.25 -101.562 954
117.188 -335.938 978
210.938 -46.875 882
406.25 -101.562 817
203.125 -46.875 885
187.5 -390.625 1241
-359.375 195.312 1936
343.75 -296.875 819
320.312 -320.312 854
445.312 171.875 1477
-453.125 -148.438 2212
382.812 -257.812 898
195.312 -445.312 1197
179.688 -70.3125 906
414.062 -226.562 858
-453.125 -304.688 2767
-78.125 328.125 992
187.5 -31.25 873
-7.8125 -148.438 1007
210.938 -187.5 841
265.625 -375 1084
-210.938 226.562 1863
-500 -421.875 1853
0 -234.375 1105
468.75 -210.938 778
85.9375 -156.25 906
421.875 -210.938 851
132.812 -265.625 970
-78.125 304.688 973
-335.938 -23.4375 2333
-500 -398.438 1853
195.312 -23.4375 862
23.4375 -257.812 891
54.6875 -140.625 928
164.062 -367.188 956
85.9375 -257.812 856
-335.938 -54.6875 2415
351.562 250 1157
484.375 109.375 1370
281.25 250 1181
164.062 -343.75 948
109.375 -273.438 981
62.5 195.312 915
-335.938 -46.875 2398
218.75 250 1197
382.812 -93.75 815
171.875 -351.562 946
351.562 -101.562 803
375 -109.375 809
179.688 -62.5 898
351.562 -148.438 800
265.625 -312.5 889
234.375 -390.625 1157
273.438 -234.375 780
273.438 -195.312 794
-70.3125 359.375 1034
195.312 -31.25 871
445.312 -148.438 835
289.062 -148.438 805
257.812 -140.625 825
367.188 -156.25 805
-437.5 -250 2984
250 -218.75 778
-468.75 -257.812 2053
-289.062 -265.625 1232
31.25 -164.062 1013
375 -132.812 805
-398.438 218.75 1915
15.625 -132.812 984
15.625 -132.812 984
-15.625 -250 1130
-140.625 -304.688 1241
78.125 -257.812 856
406.25 54.6875 908
31.25 -203.125 946
304.688 -335.938 871
187.5 -445.312 1206
382.812 140.625 984
85.9375 -265.625 858
390.625 -250 891
23.4375 250 954
390.625 -125 815
-7.8125 -265.625 1145
46.875 -85.9375 935
406.25 -234.375 869
390.625 101.562 948
250 -109.375 827
296.875 335.938 1338
78.125 -351.562 962
398.438 62.5 913
-359.375 335.938 1713
335.938 335.938 1307
234.375 -93.75 829
62.5 -351.562 956
46.875 -125 970
179.688 -328.125 946
218.75 148.438 925
226.562 -39.0625 873
-273.438 -210.938 1145
39.0625 -117.188 967
257.812 -78.125 815
195.312 289.062 1165
437.5 -328.125 875
164.062 -101.562 935
-31.25 351.562 1149
-281.25 328.125 1713
226.562 242.188 1206
398.438 -242.188 875
93.75 -343.75 970
-78.125 335.938 1001
-335.938 -101.562 2541
-7.8125 -257.812 1138
-54.6875 414.062 1108
-109.375 242.188 906
70.3125 -242.188 889
140.625 -265.625 970
429.688 -70.3125 873
-335.938 -39.0625 2381
-320.312 -257.812 1241
335.938 -70.3125 815
289.062 -437.5 1047
265.625 -31.25 835
-7.8125 -242.188 1119
320.312 -242.188 805
-39.0625 445.312 1169
-437.5 -109.375 2271
-218.75 210.938 796
296.875 -429.688 1031
-46.875 421.875 1126
210.938 -218.75 778
140.625 -390.625 1297
250 -85.9375 821
-335.938 -31.25 2365
179.688 -453.125 1202
257.812 -70.3125 817
0 289.062 981
101.562 -359.375 967
101.562 -281.25 975
304.688 343.75 1333
375 -265.625 910
-468.75 -187.5 2143
-125 218.75 878
148.438 -109.375 943
148.438 -257.812 813
179.688 -414.062 1232
-140.625 187.5 796
93.75 187.5 913
335.938 -304.688 825
289.062 -351.562 1041
-335.938 -85.9375 2503
-31.25 445.312 1177
-328.125 78.125 2129
234.375 -85.9375 829
117.188 429.688 1283
359.375 -281.25 807
406.25 187.5 1080
-156.25 -320.312 1264
210.938 -54.6875 887
46.875 -164.062 959
-328.125 70.3125 2143
-234.375 -281.25 1241
-7.8125 -335.938 1259
-210.938 320.312 1713
-31.25 320.312 1177
429.688 85.9375 946
15.625 -250 1123
281.25 -203.125 792
179.688 -70.3125 906
-203.125 -289.062 1241
-273.438 328.125 1722
398.438 -70.3125 875
234.375 148.438 933
492.188 85.9375 1404
445.312 7.8125 835
101.562 -164.062 903
296.875 -343.75 869
179.688 -46.875 885
335.938 -179.688 825
-78.125 -320.312 1245
273.438 -367.188 1067
-492.188 -398.438 1853
437.5 31.25 837
335.938 46.875 829
101.562 -117.188 915
375 -140.625 805
359.375 -179.688 813
156.25 -429.688 3010
179.688 -429.688 1223
476.562 -218.75 773
171.875 -320.312 956
23.4375 -195.312 948
203.125 -195.312 837
0 -312.5 925
0 -312.5 925
23.4375 -343.75 1268
70.3125 289.062 1193
218.75 -156.25 867
-328.125 62.5 2170
15.625 -179.688 1034
421.875 -218.75 841
93.75 -257.812 849
437.5 148.438 1004
273.438 -62.5 815
15.625 304.688 1181
-351.562 335.938 1713
-343.75 -265.625 2958
351.562 -289.062 815
164.062 -343.75 948
-148.438 -304.688 1245
210.938 -39.0625 875
-148.438 -320.312 1264
-257.812 -273.438 1232
39.0625 -187.5 948
-406.25 312.5 1757
93.75 -359.375 964
289.062 -234.375 783
156.25 -218.75 835
382.812 -117.188 813
226.562 156.25 940
-398.438 203.125 1926
179.688 -54.6875 891
304.688 273.438 1398
226.562 -398.438 1161
-109.375 273.438 933
-15.625 343.75 1153
78.125 -164.062 908
164.062 -359.375 951
-414.062 -54.6875 2432
156.25 -437.5 3010
0 -226.562 1094
78.125 320.312 1161
250 -234.375 778
468.75 156.25 1464
343.75 -296.875 819
226.562 390.625 1297
-476.562 -359.375 1947
101.562 -304.688 973
492.188 -359.375 864
484.375 -351.562 867
132.812 -93.75 928
156.25 414.062 1292
492.188 -226.562 769
-335.938 -265.625 2958
-367.188 -257.812 2958
-31.25 437.5 1165
-125 226.562 887
-429.688 -93.75 2301
54.6875 -125 967
492.188 -7.8125 835
343.75 -93.75 803
-132.812 210.938 873
-39.0625 421.875 1134
351.562 -164.062 803
460.938 -390.625 873
312.5 -328.125 856
109.375 -296.875 981
382.812 218.75 1119
101.562 281.25 1193
-132.812 195.312 860
257.812 -312.5 896
-437.5 -187.5 2184
195.312 -320.312 938
109.375 -343.75 975
70.3125 -132.812 933
398.438 -93.75 819
-437.5 -234.375 2103
39.0625 -140.625 989
187.5 -234.375 789
-453.125 -289.062 2883
-23.4375 156.25 802
382.812 -257.812 898
62.5 -171.875 915
85.9375 320.312 1165
-31.25 -265.625 1149
-335.938 -164.062 2680
328.125 -312.5 841
-476.562 -242.188 2078
23.4375 -109.375 962
250 -171.875 825
390.625 187.5 1080
156.25 265.625 1193
-460.938 -304.688 2859
343.75 -203.125 789
-15.625 -250 1130
-367.188 195.312 1936
-62.5 343.75 1022
203.125 203.125 901
-390.625 195.312 1947
171.875 296.875 1165
-70.3125 328.125 998
-328.125 -85.9375 1019
-500 -273.438 1926
-429.688 -273.438 2789
304.688 210.938 992
367.188 -273.438 923
31.25 -101.562 954
-335.938 -62.5 2432
-117.188 250 908
-140.625 -304.688 1241
-351.562 195.312 1936
39.0625 -117.188 967
15.625 -148.438 1001
-343.75 -242.188 2984
-429.688 -210.938 2156
390.625 -250 891
210.938 -273.438 951
164.062 -367.188 956
406.25 210.938 1197
78.125 289.062 1189
179.688 -62.5 898
390.625 -242.188 891
468.75 0 833
-367.188 -156.25 2723
203.125 -23.4375 862
-335.938 -70.3125 2467
-484.375 -375 1993
218.75 -15.625 858
