ply
format ascii 1.0
comment Created by Open3D
element vertex 2341
property double x
property double y
property double z
end_header
-320.312 -156.25 967
-218.75 -46.875 987
-125 375 1169
468.75 -195.312 903
-164.062 242.188 1054
312.5 -257.812 933
273.438 -312.5 998
-296.875 250 1050
-78.125 -281.25 1013
421.875 -265.625 1001
-7.8125 -7.8125 967
-265.625 273.438 1060
351.562 203.125 1404
421.875 -125 930
281.25 -304.688 998
-367.188 195.312 992
468.75 -210.938 896
-187.5 375 1202
-195.312 -7.8125 956
62.5 187.5 1731
-382.812 195.312 995
-218.75 289.062 1302
-62.5 -390.625 975
-312.5 367.188 1197
-109.375 -218.75 1050
125 375 1421
-179.688 320.312 1268
351.562 -195.312 898
-304.688 367.188 1193
179.688 101.562 1680
23.4375 -328.125 1010
-187.5 148.438 1007
-398.438 367.188 1210
-250 367.188 1197
289.062 -343.75 1370
-273.438 312.5 1264
367.188 -296.875 1126
-312.5 328.125 1273
-125 -390.625 984
-367.188 -187.5 1177
-265.625 -156.25 973
-382.812 -85.9375 984
203.125 148.438 1722
156.25 367.188 1349
445.312 -328.125 1273
179.688 312.5 1365
85.9375 -23.4375 959
-500 375 1119
-171.875 351.562 1232
468.75 -179.688 910
-375 367.188 1206
-164.062 234.375 1050
-125 382.812 1181
-62.5 429.688 1232
382.812 234.375 1268
31.25 -390.625 987
-195.312 351.562 1236
421.875 367.188 1189
468.75 289.062 1241
15.625 -398.438 984
375 -203.125 903
15.625 -414.062 981
195.312 148.438 1713
-203.125 101.562 989
-375 -132.812 1001
-187.5 125 998
257.812 -226.562 940
-242.188 367.188 1202
328.125 -195.312 903
-296.875 304.688 1297
195.312 351.562 1354
-179.688 179.688 1022
484.375 289.062 1232
-234.375 -70.3125 975
-242.188 -46.875 964
-320.312 335.938 1273
62.5 -296.875 1112
85.9375 351.562 1516
226.562 -234.375 987
-62.5 -312.5 1001
-335.938 367.188 1202
265.625 328.125 1349
-132.812 7.8125 970
-70.3125 429.688 1236
328.125 320.312 1427
-148.438 281.25 1101
-335.938 7.8125 967
-304.688 -101.562 948
203.125 140.625 1705
-218.75 375 1202
-273.438 367.188 1206
-281.25 367.188 1202
460.938 -398.438 1206
437.5 -281.25 1292
-375 -54.6875 973
476.562 -156.25 920
468.75 109.375 1019
-148.438 15.625 973
429.688 226.562 1123
-375 15.625 967
-187.5 320.312 1268
398.438 226.562 1223
375 -101.562 940
-70.3125 0 967
-320.312 -31.25 940
-242.188 343.75 1227
-23.4375 -257.812 1031
31.25 -250 1044
-281.25 -179.688 984
-234.375 343.75 1232
468.75 281.25 1241
23.4375 -367.188 1001
-195.312 320.312 1273
-257.812 -31.25 954
296.875 343.75 1359
-250 343.75 1232
-234.375 -31.25 978
195.312 179.688 1739
-335.938 328.125 1264
453.125 -78.125 951
460.938 289.062 1245
265.625 273.438 1445
-398.438 312.5 1292
-132.812 343.75 1130
-382.812 23.4375 995
289.062 296.875 1392
-39.0625 -390.625 975
-476.562 343.75 1232
484.375 31.25 984
-390.625 328.125 1273
-304.688 328.125 1264
-320.312 367.188 1202
-320.312 328.125 1273
-265.625 367.188 1206
-390.625 367.188 1206
-187.5 101.562 989
-164.062 343.75 1232
-93.75 390.625 1165
-101.562 390.625 1165
460.938 210.938 1097
-171.875 367.188 1202
367.188 390.625 1354
-296.875 273.438 1060
-93.75 421.875 1185
-421.875 328.125 1268
-328.125 328.125 1264
-101.562 -234.375 1034
125 234.375 1705
445.312 -289.062 1288
0 -273.438 1031
-210.938 343.75 1236
296.875 -54.6875 959
-156.25 328.125 1268
-335.938 273.438 1063
-328.125 -156.25 967
-187.5 367.188 1202
-203.125 351.562 1236
-179.688 328.125 1268
-179.688 367.188 1202
468.75 101.562 1013
-117.188 -328.125 1001
-218.75 351.562 1241
476.562 39.0625 987
-132.812 273.438 1094
-125 382.812 1181
-226.562 320.312 1268
-398.438 -15.625 1070
132.812 234.375 2040
335.938 203.125 1483
132.812 226.562 1739
117.188 242.188 1671
-328.125 367.188 1202
-179.688 171.875 1019
359.375 226.562 1387
-398.438 -7.8125 1057
-335.938 -7.8125 956
-351.562 203.125 995
-367.188 -109.375 995
93.75 359.375 1483
-492.188 359.375 1112
-234.375 -93.75 975
-390.625 195.312 995
-304.688 -164.062 973
-78.125 -273.438 1016
460.938 -70.3125 951
31.25 -375 992
-78.125 414.062 1177
-171.875 328.125 1268
-328.125 -132.812 951
-62.5 -296.875 1010
-164.062 328.125 1268
-226.562 343.75 1241
-171.875 195.312 1031
-78.125 -437.5 1157
-289.062 367.188 1202
171.875 195.312 1748
414.062 382.812 1202
226.562 273.438 1464
453.125 304.688 1149
-210.938 -62.5 940
-445.312 304.688 1302
-250 375 1197
-492.188 343.75 1101
265.625 289.062 1427
7.8125 -312.5 1016
-351.562 367.188 1202
-257.812 343.75 1236
-250 -54.6875 956
-265.625 -109.375 964
-265.625 304.688 1297
-382.812 -132.812 1001
-343.75 273.438 1060
-312.5 304.688 1297
-226.562 375 1206
-398.438 -62.5 1080
-320.312 -125 948
-289.062 -39.0625 946
257.812 -234.375 954
-343.75 -125 946
-140.625 312.5 1119
-242.188 -62.5 967
-320.312 312.5 1292
-179.688 187.5 1025
195.312 156.25 1731
-234.375 375 1202
460.938 54.6875 1010
-414.062 343.75 1232
-23.4375 -281.25 1025
429.688 250 1123
-46.875 343.75 1206
-195.312 7.8125 995
-382.812 7.8125 987
-218.75 -93.75 925
15.625 -382.812 992
406.25 -273.438 1028
-351.562 -148.438 962
-171.875 343.75 1227
-382.812 -93.75 1022
-445.312 343.75 1232
-101.562 398.438 1173
-281.25 343.75 1232
421.875 335.938 1165
445.312 203.125 1087
-85.9375 7.8125 973
23.4375 -375 995
-203.125 -23.4375 954
23.4375 320.312 1550
-203.125 320.312 1268
320.312 328.125 1381
-437.5 -93.75 1080
-382.812 -125 1004
-15.625 421.875 1241
-484.375 328.125 1227
-187.5 328.125 1268
-445.312 -70.3125 1210
15.625 250 1705
-62.5 -257.812 1025
-210.938 375 1202
-289.062 -187.5 984
85.9375 320.312 1557
-39.0625 -320.312 1004
-273.438 -117.188 978
-281.25 -93.75 954
-257.812 -39.0625 948
320.312 343.75 1398
-382.812 -46.875 962
203.125 -265.625 1013
203.125 -265.625 1013
39.0625 -15.625 959
-312.5 273.438 1060
-445.312 -140.625 1439
-398.438 328.125 1273
-242.188 -54.6875 967
-31.25 445.312 1236
-382.812 328.125 1273
-250 328.125 1264
-304.688 273.438 1060
257.812 -242.188 948
-117.188 406.25 1177
-195.312 117.188 992
-31.25 437.5 1232
62.5 -382.812 1077
-289.062 -7.8125 956
-257.812 -70.3125 959
-85.9375 414.062 1177
-437.5 -125 1073
-445.312 117.188 984
-171.875 359.375 1202
445.312 171.875 1067
-23.4375 312.5 1594
-398.438 195.312 1004
-93.75 414.062 1181
-226.562 -39.0625 984
-359.375 31.25 975
343.75 -203.125 901
476.562 23.4375 933
289.062 148.438 1722
-343.75 23.4375 975
15.625 -375 998
289.062 304.688 1370
-179.688 304.688 1302
-54.6875 -218.75 1028
-54.6875 359.375 1202
328.125 -179.688 908
-437.5 343.75 1236
343.75 328.125 1445
-265.625 343.75 1241
-242.188 -117.188 984
-226.562 289.062 1302
320.312 335.938 1415
-367.188 375 1202
195.312 140.625 1713
-351.562 312.5 1288
-265.625 -101.562 959
-7.8125 234.375 1757
109.375 -359.375 1067
31.25 -15.625 962
460.938 39.0625 1001
-375 343.75 1232
140.625 -351.562 1063
-23.4375 421.875 1236
-31.25 -328.125 1001
-70.3125 -296.875 1007
-382.812 250 1050
-195.312 351.562 1236
-320.312 273.438 1063
-281.25 -171.875 987
-210.938 351.562 1236
179.688 296.875 1398
445.312 203.125 1087
-500 359.375 1112
-164.062 -351.562 1219
-367.188 328.125 1264
-257.812 101.562 987
-171.875 218.75 1041
-148.438 343.75 1227
281.25 -296.875 1001
-328.125 250 1054
-226.562 351.562 1197
445.312 218.75 1097
-195.312 367.188 1197
31.25 -382.812 989
328.125 -203.125 901
-125 -375 1165
460.938 265.625 1241
-132.812 351.562 1130
23.4375 -312.5 1019
-421.875 343.75 1232
-453.125 343.75 1232
-296.875 343.75 1227
-218.75 343.75 1236
343.75 -195.312 901
85.9375 312.5 1572
-164.062 281.25 1063
164.062 203.125 1757
140.625 226.562 1739
-289.062 273.438 1063
390.625 -210.938 901
-429.688 343.75 1236
-328.125 273.438 1063
320.312 351.562 1381
39.0625 -375 992
484.375 265.625 1232
265.625 281.25 1433
-343.75 328.125 1264
460.938 62.5 1010
429.688 -257.812 981
117.188 242.188 1671
187.5 375 1333
179.688 304.688 1387
210.938 203.125 1766
-273.438 343.75 1232
-203.125 375 1197
250 -46.875 956
-367.188 195.312 992
195.312 101.562 1680
-343.75 250 1050
-218.75 320.312 1268
-250 343.75 1232
203.125 101.562 1680
195.312 -39.0625 956
-23.4375 304.688 1609
-132.812 15.625 970
-78.125 -375 975
-328.125 312.5 1297
-304.688 304.688 1297
484.375 296.875 1223
-320.312 250 1054
289.062 226.562 1671
-78.125 -281.25 1013
-460.938 -156.25 1516
218.75 -250 1028
-78.125 0 967
257.812 273.438 1445
-140.625 15.625 973
-234.375 -31.25 978
-265.625 -164.062 978
-351.562 273.438 1060
-320.312 -148.438 959
-281.25 304.688 1292
-390.625 -54.6875 1084
476.562 31.25 984
-304.688 312.5 1278
-359.375 312.5 1283
289.062 140.625 1722
-304.688 343.75 1236
406.25 406.25 1223
164.062 -31.25 959
-109.375 429.688 1193
-460.938 343.75 1278
-242.188 343.75 1227
-281.25 -54.6875 951
-382.812 375 1189
-234.375 289.062 1312
195.312 148.438 1713
453.125 -250 940
-195.312 375 1197
484.375 23.4375 978
-328.125 -54.6875 940
-398.438 -70.3125 1080
-351.562 -125 951
-265.625 312.5 1264
-289.062 289.062 1073
203.125 117.188 1696
-257.812 -195.312 1001
-312.5 250 1050
39.0625 -406.25 984
15.625 -367.188 1001
-375 -195.312 1177
15.625 -328.125 1007
-125 375 1169
-210.938 281.25 1070
-78.125 7.8125 973
453.125 -242.188 928
-500 367.188 1115
-257.812 367.188 1197
-343.75 367.188 1202
-187.5 320.312 1268
453.125 -78.125 951
132.812 234.375 2040
460.938 -125 930
0 -265.625 1034
-210.938 289.062 1292
-421.875 304.688 1297
164.062 210.938 1748
-273.438 273.438 1067
-195.312 320.312 1273
-273.438 -164.062 978
-375 273.438 1067
-234.375 -85.9375 975
445.312 289.062 1141
265.625 328.125 1349
109.375 250 1671
203.125 125 1705
257.812 367.188 1359
-242.188 -85.9375 970
-148.438 328.125 1126
140.625 -31.25 956
93.75 328.125 1523
-210.938 101.562 989
-257.812 -117.188 978
-15.625 -7.8125 967
460.938 156.25 1041
375 414.062 1317
-265.625 -117.188 975
398.438 429.688 1245
156.25 -304.688 1119
-7.8125 -226.562 1028
281.25 -273.438 975
195.312 117.188 1696
-382.812 343.75 1236
-296.875 -23.4375 946
0 -312.5 1016
179.688 187.5 1739
-398.438 375 1206
-109.375 437.5 1193
-406.25 343.75 1236
-70.3125 -281.25 1013
187.5 187.5 1748
-140.625 7.8125 967
445.312 148.438 1057
-390.625 15.625 1013
-179.688 351.562 1232
-468.75 343.75 1245
7.8125 -312.5 1016
-328.125 109.375 987
468.75 -125 930
-351.562 375 1202
-289.062 -179.688 975
-187.5 351.562 1219
-312.5 312.5 1292
-289.062 343.75 1227
171.875 203.125 1748
-234.375 343.75 1232
-382.812 367.188 1206
312.5 -265.625 987
-203.125 304.688 1292
-195.312 328.125 1268
-476.562 78.125 938
39.0625 -320.312 1019
265.625 257.812 1445
-500 351.562 1105
203.125 85.9375 1663
-257.812 343.75 1236
140.625 218.75 1739
203.125 140.625 1705
-367.188 343.75 1232
-289.062 375 1202
460.938 148.438 1034
-406.25 328.125 1273
-125 390.625 1169
0 242.188 1731
-390.625 304.688 1302
-406.25 195.312 1013
-296.875 289.062 1063
203.125 78.125 1004
195.312 132.812 1705
-250 -62.5 962
-367.188 312.5 1292
54.6875 -421.875 1141
148.438 -23.4375 978
195.312 125 1705
476.562 70.3125 998
-179.688 343.75 1232
171.875 195.312 1748
31.25 -257.812 1041
117.188 328.125 1427
179.688 312.5 1365
-257.812 -140.625 998
-210.938 -54.6875 940
-109.375 -281.25 1010
31.25 -250 1044
460.938 132.812 1031
328.125 328.125 1427
-101.562 -226.562 1034
-234.375 351.562 1232
250 -242.188 948
-15.625 -273.438 1028
-289.062 -109.375 954
476.562 -257.812 1264
218.75 -281.25 1010
-328.125 23.4375 987
445.312 195.312 1080
460.938 -250 940
-70.3125 -289.062 1010
-242.188 328.125 1259
-148.438 281.25 1101
-140.625 -148.438 908
-164.062 15.625 973
-242.188 375 1202
-218.75 101.562 989
-335.938 304.688 1302
-226.562 -101.562 987
-398.438 -156.25 951
203.125 93.75 1671
-132.812 351.562 1130
-203.125 -23.4375 954
203.125 109.375 1680
-328.125 -31.25 943
62.5 -406.25 1145
-320.312 -132.812 948
-265.625 -46.875 948
-335.938 -31.25 946
476.562 281.25 1241
-187.5 367.188 1202
23.4375 304.688 1609
453.125 265.625 1123
-335.938 343.75 1241
-390.625 343.75 1241
-382.812 273.438 1067
-398.438 343.75 1236
148.438 -31.25 959
-171.875 203.125 1034
-242.188 289.062 1322
132.812 226.562 1739
429.688 203.125 1119
-171.875 343.75 1227
328.125 289.062 1489
203.125 132.812 1705
453.125 257.812 1115
-335.938 -140.625 951
-437.5 -70.3125 1077
-179.688 359.375 1206
-164.062 -164.062 933
-210.938 320.312 1264
-468.75 70.3125 940
476.562 265.625 1232
-375 195.312 995
421.875 265.625 1145
-164.062 343.75 1232
-414.062 312.5 1302
-179.688 187.5 1025
-296.875 375 1197
445.312 62.5 1054
-117.188 414.062 1185
218.75 -195.312 901
-445.312 -62.5 1197
226.562 -304.688 1185
-367.188 273.438 1063
-62.5 -367.188 984
-54.6875 437.5 1232
109.375 -140.625 918
226.562 -265.625 1010
421.875 -54.6875 943
-78.125 -406.25 973
-304.688 375 1202
-226.562 -39.0625 984
-304.688 -54.6875 940
-320.312 375 1202
406.25 62.5 1169
-312.5 343.75 1241
476.562 -39.0625 954
242.188 375 1317
-304.688 -179.688 967
-179.688 328.125 1268
-171.875 281.25 1063
468.75 54.6875 995
-296.875 -164.062 973
-390.625 -70.3125 1084
406.25 -164.062 915
-328.125 343.75 1236
-85.9375 0 967
-156.25 15.625 973
304.688 -257.812 933
-429.688 -101.562 1080
-203.125 242.188 1050
429.688 210.938 1115
257.812 0 933
-375 -140.625 951
-312.5 367.188 1197
-132.812 367.188 1197
-195.312 109.375 989
-39.0625 445.312 1232
-296.875 273.438 1060
-359.375 273.438 1057
-335.938 109.375 987
-390.625 273.438 1063
-320.312 320.312 1278
-15.625 -250 1038
93.75 -15.625 978
281.25 328.125 1328
-203.125 367.188 1202
421.875 328.125 1161
-359.375 343.75 1232
-351.562 343.75 1241
-359.375 210.938 998
-281.25 343.75 1232
-101.562 429.688 1193
-226.562 281.25 1067
-218.75 351.562 1241
-265.625 343.75 1241
-250 351.562 1227
-226.562 343.75 1241
390.625 234.375 1255
414.062 367.188 1189
-281.25 -171.875 987
-15.625 429.688 1245
-304.688 -15.625 946
-351.562 304.688 1302
468.75 -148.438 923
203.125 70.3125 1004
-218.75 367.188 1197
-414.062 195.312 1028
-273.438 -187.5 987
-375 23.4375 992
-375 367.188 1206
85.9375 312.5 1572
-195.312 289.062 1307
-125 312.5 1119
-343.75 312.5 1297
-218.75 -85.9375 989
-281.25 -148.438 964
-460.938 304.688 1297
-187.5 304.688 1302
335.938 304.688 1452
-406.25 -156.25 951
-320.312 273.438 1063
-296.875 -39.0625 940
406.25 414.062 1223
-132.812 7.8125 970
-265.625 375 1206
406.25 -203.125 903
-257.812 375 1197
195.312 109.375 1688
484.375 -179.688 910
-382.812 -70.3125 1063
31.25 390.625 1421
-304.688 -78.125 943
-320.312 -70.3125 940
-140.625 367.188 1197
-78.125 -382.812 975
468.75 -179.688 910
421.875 -203.125 901
-343.75 273.438 1060
-398.438 273.438 1067
-85.9375 445.312 1206
-312.5 273.438 1060
-421.875 273.438 1067
195.312 85.9375 1671
-351.562 -125 951
-375 312.5 1297
-343.75 -148.438 962
-382.812 343.75 1236
203.125 85.9375 1663
476.562 -85.9375 951
-335.938 -164.062 959
-203.125 320.312 1268
-85.9375 429.688 1193
-382.812 -101.562 1019
-421.875 343.75 1232
-101.562 -218.75 1054
85.9375 320.312 1557
-210.938 367.188 1197
-468.75 117.188 984
-273.438 343.75 1232
-23.4375 -7.8125 967
-195.312 304.688 1297
-179.688 54.6875 935
351.562 195.312 1398
-242.188 351.562 1206
-406.25 304.688 1297
-210.938 -70.3125 935
-171.875 -39.0625 946
39.0625 -414.062 978
-328.125 273.438 1063
-382.812 -117.188 1010
-70.3125 62.5 933
421.875 257.812 1141
-117.188 -320.312 1214
-445.312 343.75 1232
-7.8125 234.375 1757
-210.938 359.375 1197
-164.062 234.375 1050
-85.9375 -343.75 989
-367.188 304.688 1297
-335.938 -46.875 943
-265.625 -140.625 970
-234.375 281.25 1063
203.125 101.562 1680
-453.125 367.188 1193
-179.688 179.688 1022
-250 -23.4375 970
-359.375 -39.0625 954
445.312 335.938 1126
-375 375 1193
140.625 226.562 1739
-382.812 70.3125 933
-250 375 1197
-164.062 265.625 1063
-351.562 273.438 1060
-335.938 -54.6875 940
218.75 -31.25 984
359.375 375 1381
-375 343.75 1232
-460.938 273.438 1067
-445.312 375 1193
-257.812 289.062 1322
23.4375 -304.688 1025
-492.188 382.812 1123
140.625 218.75 1739
242.188 -265.625 946
-453.125 382.812 1193
312.5 250 1564
-195.312 367.188 1197
-500 406.25 1126
-62.5 -351.562 987
-351.562 179.688 1010
-476.562 367.188 1197
445.312 140.625 1063
171.875 218.75 1748
195.312 70.3125 1007
-367.188 210.938 995
-23.4375 -343.75 1001
429.688 -257.812 981
-187.5 156.25 1010
-406.25 273.438 1067
195.312 93.75 1671
445.312 156.25 1067
-335.938 273.438 1063
-304.688 343.75 1236
-359.375 375 1202
-226.562 101.562 989
-382.812 312.5 1297
398.438 -414.062 2933
218.75 281.25 1464
-148.438 7.8125 970
460.938 31.25 987
-343.75 7.8125 964
117.188 210.938 1748
-273.438 -46.875 948
187.5 109.375 1696
-445.312 273.438 1067
-31.25 -7.8125 964
195.312 140.625 1713
421.875 335.938 1165
289.062 335.938 1328
468.75 125 1022
-210.938 242.188 1050
-390.625 312.5 1302
-468.75 -156.25 1516
187.5 -39.0625 956
-367.188 343.75 1232
-359.375 -148.438 951
-289.062 343.75 1227
-187.5 140.625 1007
31.25 -15.625 962
-468.75 281.25 1063
179.688 289.062 1421
-250 -46.875 954
-460.938 117.188 984
-398.438 343.75 1236
-171.875 375 1202
23.4375 -15.625 962
203.125 78.125 1004
-273.438 375 1206
304.688 234.375 1647
179.688 187.5 1739
-265.625 -15.625 964
-195.312 -140.625 913
-359.375 -210.938 1181
31.25 -242.188 1044
-335.938 -156.25 959
-187.5 328.125 1268
-500 273.438 1060
-218.75 320.312 1268
-62.5 343.75 1206
468.75 -164.062 913
-78.125 -226.562 1034
-250 343.75 1232
-265.625 -39.0625 948
-250 289.062 1322
460.938 -70.3125 951
-359.375 328.125 1264
-312.5 -164.062 967
78.125 -23.4375 956
-7.8125 0 970
445.312 265.625 1123
-187.5 -23.4375 954
304.688 320.312 1354
281.25 312.5 1359
-289.062 -148.438 962
468.75 -117.188 933
-320.312 -23.4375 943
-195.312 125 998
195.312 117.188 1696
-226.562 351.562 1197
-15.625 0 970
-171.875 265.625 1063
-203.125 351.562 1236
-93.75 406.25 1177
-179.688 343.75 1232
195.312 125 1705
-281.25 375 1193
-117.188 414.062 1181
296.875 -54.6875 962
-335.938 375 1206
273.438 273.438 1433
468.75 -187.5 908
-484.375 335.938 1232
156.25 210.938 1757
-390.625 -78.125 1028
132.812 -31.25 959
-312.5 -171.875 970
195.312 101.562 1680
-492.188 351.562 1108
406.25 -273.438 1022
-367.188 -31.25 956
187.5 171.875 1739
85.9375 335.938 1496
468.75 -195.312 906
-304.688 -101.562 954
476.562 54.6875 992
273.438 335.938 1328
109.375 250 1671
-351.562 312.5 1302
382.812 437.5 1288
-46.875 -164.062 908
-125 -375 981
-414.062 -156.25 973
-398.438 -62.5 1084
-273.438 62.5 938
-335.938 -93.75 943
-304.688 -132.812 951
-414.062 375 1202
-429.688 414.062 1343
460.938 187.5 1057
210.938 273.438 1464
-296.875 -7.8125 954
15.625 -406.25 984
-281.25 -179.688 987
234.375 -289.062 1010
-312.5 375 1202
-390.625 375 1206
-226.562 375 1206
210.938 31.25 935
-343.75 109.375 989
-328.125 -171.875 962
179.688 195.312 1757
-382.812 273.438 1070
-445.312 -62.5 1206
-375 195.312 995
-218.75 -78.125 989
-351.562 -164.062 962
-218.75 242.188 1054
468.75 -109.375 938
-195.312 320.312 1273
0 0 973
-210.938 320.312 1264
-437.5 -85.9375 1080
-406.25 312.5 1302
-359.375 343.75 1241
-101.562 367.188 1149
-46.875 -328.125 1001
-234.375 289.062 1312
23.4375 312.5 1601
-210.938 -54.6875 943
-382.812 195.312 995
-78.125 0 967
109.375 -15.625 981
453.125 195.312 1060
-257.812 343.75 1236
-367.188 -156.25 954
-218.75 289.062 1322
-171.875 226.562 1047
-414.062 421.875 1381
-335.938 312.5 1259
273.438 265.625 1445
273.438 -242.188 943
-437.5 273.438 1067
-328.125 375 1206
-23.4375 0 981
-257.812 304.688 1259
195.312 250 1470
-39.0625 -281.25 1022
-429.688 343.75 1236
-210.938 -46.875 951
117.188 367.188 1439
-312.5 343.75 1241
-343.75 343.75 1241
468.75 -125 933
-156.25 281.25 1047
-445.312 -148.438 1057
-226.562 -39.0625 987
-140.625 7.8125 973
132.812 234.375 2028
-492.188 273.438 1067
-390.625 343.75 1241
7.8125 -171.875 908
429.688 296.875 1145
93.75 -23.4375 959
-406.25 398.438 1427
468.75 -101.562 943
-437.5 343.75 1236
195.312 78.125 1007
-335.938 343.75 1241
85.9375 328.125 1536
-367.188 375 1197
-351.562 -132.812 951
-23.4375 304.688 1609
-101.562 445.312 1206
-171.875 210.938 1038
-390.625 15.625 1019
-125 -367.188 987
-226.562 320.312 1273
-453.125 273.438 1067
-140.625 328.125 1134
-375 273.438 1070
203.125 93.75 1671
-39.0625 -375 984
-414.062 273.438 1070
242.188 -46.875 959
273.438 281.25 1427
468.75 85.9375 1007
-242.188 289.062 1328
-343.75 273.438 1054
-375 -15.625 956
382.812 -210.938 903
-468.75 273.438 1063
-390.625 -46.875 973
-398.438 304.688 1302
-218.75 -46.875 992
-351.562 -257.812 3064
-179.688 195.312 1031
398.438 -429.688 2958
-312.5 -156.25 970
-320.312 312.5 1297
328.125 343.75 1404
343.75 -203.125 901
-320.312 343.75 1236
-359.375 -140.625 962
-132.812 -156.25 913
250 -234.375 956
273.438 328.125 1328
421.875 242.188 1134
-265.625 265.625 1060
-31.25 335.938 1214
-296.875 -140.625 962
101.562 250 1671
281.25 -265.625 938
-414.062 343.75 1241
-195.312 7.8125 998
-234.375 320.312 1264
-351.562 343.75 1241
-257.812 -125 1004
-226.562 367.188 1197
-328.125 343.75 1236
195.312 164.062 1731
375 -203.125 903
234.375 -257.812 948
-31.25 -375 987
-203.125 -15.625 962
-234.375 351.562 1210
-15.625 -343.75 1004
7.8125 -406.25 984
265.625 -281.25 981
-296.875 312.5 1302
-398.438 -7.8125 1060
-398.438 312.5 1297
-164.062 250 1060
359.375 -195.312 903
-273.438 -117.188 987
-281.25 -171.875 987
-234.375 375 1202
-218.75 375 1202
-78.125 -382.812 975
54.6875 -406.25 1145
54.6875 -414.062 1145
-312.5 -78.125 946
-23.4375 -148.438 913
281.25 -242.188 940
-296.875 320.312 1278
-39.0625 445.312 1236
-265.625 -195.312 1004
-85.9375 46.875 935
-218.75 359.375 1202
-273.438 -203.125 1001
-257.812 351.562 1236
195.312 85.9375 1671
-31.25 328.125 1557
-109.375 437.5 1206
-406.25 -85.9375 1038
-242.188 320.312 1264
453.125 109.375 1028
-390.625 -7.8125 964
-226.562 -70.3125 984
15.625 -359.375 1004
46.875 218.75 1766
-484.375 273.438 1067
195.312 -39.0625 959
-148.438 304.688 1115
203.125 -39.0625 959
320.312 234.375 1564
-218.75 367.188 1202
437.5 234.375 1101
15.625 312.5 1601
-54.6875 375 1206
414.062 359.375 1189
312.5 -250 940
257.812 -109.375 935
31.25 -414.062 987
195.312 109.375 1688
-156.25 320.312 1259
187.5 320.312 1359
-210.938 351.562 1232
265.625 359.375 1354
-31.25 445.312 1241
-359.375 -15.625 956
-343.75 375 1202
437.5 -335.938 1288
-351.562 31.25 981
367.188 -203.125 906
203.125 117.188 1696
-132.812 351.562 1115
-460.938 367.188 1197
203.125 109.375 1680
-148.438 320.312 1126
468.75 -93.75 946
-148.438 296.875 1115
148.438 218.75 1757
140.625 -31.25 959
-281.25 -101.562 964
468.75 -140.625 925
-218.75 320.312 1268
-85.9375 0 967
414.062 289.062 1169
-429.688 273.438 1067
-367.188 -140.625 954
312.5 -265.625 989
-273.438 289.062 1333
-242.188 281.25 1063
-289.062 375 1197
398.438 -445.312 2835
-78.125 -460.938 1177
414.062 367.188 1189
171.875 195.312 1748
234.375 -31.25 987
-265.625 351.562 1236
-85.9375 -398.438 978
-359.375 -164.062 954
351.562 -203.125 901
187.5 179.688 1739
-242.188 351.562 1210
-187.5 15.625 981
-304.688 375 1206
-125 15.625 973
-31.25 0 981
-273.438 101.562 987
-359.375 273.438 1060
-304.688 273.438 1063
-367.188 -23.4375 954
-390.625 273.438 1070
7.8125 -273.438 1034
359.375 179.688 1370
-296.875 281.25 1063
-273.438 281.25 1067
-382.812 343.75 1236
-54.6875 -218.75 1034
-304.688 -148.438 964
398.438 429.688 1245
31.25 -234.375 1044
148.438 210.938 1757
273.438 -39.0625 989
-351.562 109.375 987
445.312 164.062 1063
-70.3125 7.8125 973
-242.188 367.188 1202
-101.562 -226.562 1038
46.875 -375 989
-164.062 265.625 1063
203.125 148.438 1713
-203.125 7.8125 1001
468.75 -156.25 920
421.875 250 1138
203.125 70.3125 1004
-281.25 343.75 1232
414.062 296.875 1169
257.812 328.125 1333
195.312 54.6875 930
210.938 70.3125 1004
281.25 312.5 1359
281.25 281.25 1415
-296.875 375 1206
273.438 320.312 1365
468.75 -203.125 901
218.75 203.125 1766
-328.125 -132.812 951
-257.812 320.312 1259
7.8125 -328.125 1013
-156.25 304.688 1268
-406.25 -31.25 1094
31.25 -375 989
-414.062 -148.438 954
460.938 140.625 1031
195.312 93.75 1671
-468.75 -156.25 1496
-132.812 -304.688 1236
-265.625 328.125 1264
476.562 23.4375 935
-289.062 148.438 1007
-46.875 -429.688 1161
-242.188 -70.3125 975
-164.062 304.688 1297
-62.5 -93.75 933
343.75 -62.5 956
-351.562 -31.25 954
-351.562 -125 951
-375 -109.375 1010
-179.688 179.688 1025
-54.6875 -414.062 978
-265.625 289.062 1338
265.625 281.25 1433
414.062 304.688 1165
-218.75 -85.9375 930
-156.25 296.875 1115
-304.688 -164.062 978
195.312 234.375 1688
-328.125 -156.25 967
453.125 78.125 1022
195.312 171.875 1739
-171.875 164.062 1016
-367.188 179.688 1019
-218.75 -54.6875 989
-156.25 164.062 1016
31.25 -398.438 989
-335.938 -179.688 962
-257.812 -78.125 962
140.625 218.75 1766
-281.25 -179.688 987
-468.75 179.688 1019
226.562 -31.25 984
-351.562 273.438 1067
-257.812 367.188 1206
-367.188 31.25 984
-476.562 273.438 1067
-156.25 312.5 1264
-304.688 -140.625 956
-375 31.25 989
-398.438 0 1047
-398.438 273.438 1070
-164.062 281.25 1067
171.875 304.688 1398
-421.875 -31.25 1097
-15.625 39.0625 935
62.5 -7.8125 975
273.438 -304.688 1004
-414.062 304.688 1307
-367.188 250 1054
62.5 -382.812 1138
-31.25 -320.312 1010
468.75 -171.875 913
-273.438 343.75 1236
460.938 -62.5 989
-85.9375 437.5 1202
-406.25 273.438 1070
-484.375 117.188 989
429.688 195.312 1108
-85.9375 7.8125 978
468.75 -218.75 898
-54.6875 437.5 1232
468.75 117.188 1022
-156.25 265.625 1063
-375 343.75 1232
-62.5 -226.562 1038
-375 -187.5 1181
-445.312 -93.75 1297
-312.5 -101.562 951
-15.625 -226.562 1038
78.125 234.375 1766
7.8125 -242.188 1044
-328.125 320.312 1259
187.5 171.875 1739
226.562 343.75 1328
-289.062 320.312 1264
-421.875 195.312 1028
-140.625 328.125 1134
-390.625 195.312 1028
-265.625 195.312 1028
-148.438 -148.438 910
-484.375 359.375 1214
-257.812 359.375 1206
31.25 -367.188 998
-312.5 320.312 1283
289.062 -39.0625 989
-101.562 -156.25 910
468.75 78.125 1004
179.688 296.875 1404
210.938 218.75 1785
-179.688 265.625 1063
-54.6875 -164.062 908
148.438 218.75 1757
-164.062 296.875 1302
-93.75 7.8125 978
406.25 -132.812 930
-265.625 367.188 1206
414.062 -265.625 1010
-398.438 -164.062 954
398.438 -421.875 2933
-187.5 164.062 1016
195.312 132.812 1705
-367.188 273.438 1060
195.312 70.3125 1007
-476.562 187.5 1019
-250 351.562 1232
281.25 187.5 1757
-367.188 343.75 1236
-375 351.562 1232
85.9375 343.75 1496
-343.75 343.75 1241
-460.938 273.438 1067
-343.75 -156.25 962
-421.875 367.188 1202
179.688 195.312 1757
-320.312 281.25 1070
468.75 109.375 1019
0 -171.875 908
-414.062 -132.812 1019
-250 367.188 1202
-265.625 304.688 1297
164.062 304.688 1398
-70.3125 -296.875 1010
453.125 -242.188 928
218.75 343.75 1333
-46.875 437.5 1232
-39.0625 -406.25 978
351.562 359.375 1404
445.312 195.312 1077
109.375 210.938 1757
54.6875 218.75 1766
-171.875 234.375 1054
-171.875 265.625 1067
-70.3125 -406.25 978
398.438 421.875 1241
-171.875 304.688 1302
-375 39.0625 975
-242.188 -78.125 975
-203.125 -23.4375 951
132.812 -31.25 959
-289.062 -187.5 987
-179.688 195.312 1031
-257.812 -132.812 998
-62.5 320.312 1219
-226.562 242.188 1050
-273.438 320.312 1273
218.75 210.938 1785
-320.312 375 1197
187.5 -39.0625 959
-273.438 -15.625 964
-164.062 312.5 1264
-273.438 351.562 1227
-164.062 15.625 975
0 -242.188 1044
437.5 242.188 1112
-437.5 367.188 1202
203.125 125 1705
-164.062 320.312 1259
179.688 -195.312 908
-328.125 351.562 1236
7.8125 -398.438 987
-421.875 273.438 1070
-390.625 367.188 1210
-367.188 312.5 1302
-382.812 367.188 1210
296.875 226.562 1671
-125 390.625 1094
-414.062 351.562 1236
-234.375 320.312 1264
70.3125 -7.8125 970
-406.25 250 1057
62.5 -375 1077
-250 320.312 1264
164.062 242.188 1671
195.312 -273.438 1115
-382.812 375 1202
-359.375 -148.438 951
468.75 -148.438 923
-93.75 0 967
-289.062 351.562 1227
23.4375 304.688 1609
-226.562 320.312 1273
367.188 414.062 1322
359.375 -203.125 901
148.438 210.938 1757
414.062 -203.125 903
-179.688 242.188 1054
-23.4375 -7.8125 967
-273.438 -46.875 954
-281.25 351.562 1232
-203.125 -140.625 915
-187.5 265.625 1063
351.562 -46.875 992
-289.062 289.062 1063
-398.438 367.188 1210
-406.25 70.3125 940
-54.6875 367.188 1197
-343.75 289.062 1067
-296.875 351.562 1232
-382.812 -109.375 1013
-109.375 -265.625 1025
0 242.188 1739
335.938 -195.312 903
-312.5 343.75 1241
171.875 242.188 1523
-367.188 351.562 1236
-453.125 273.438 1067
-140.625 -156.25 913
320.312 273.438 1557
156.25 -23.4375 981
-296.875 -46.875 948
15.625 -15.625 964
-359.375 343.75 1241
54.6875 -7.8125 975
281.25 273.438 1421
-179.688 296.875 1307
-242.188 320.312 1264
-328.125 343.75 1236
-359.375 312.5 1302
-484.375 195.312 1028
242.188 -46.875 959
-265.625 -54.6875 959
-70.3125 -281.25 1013
-78.125 -406.25 978
296.875 296.875 1398
-70.3125 367.188 1214
234.375 -296.875 1010
78.125 -23.4375 959
-281.25 375 1193
-398.438 195.312 1004
484.375 265.625 1232
-398.438 -15.625 1073
-351.562 375 1202
453.125 85.9375 1025
-234.375 -46.875 975
-421.875 351.562 1241
-132.812 -390.625 1173
-31.25 -7.8125 967
-273.438 367.188 1206
-406.25 -156.25 954
-453.125 367.188 1193
148.438 -23.4375 981
-328.125 -132.812 951
218.75 -265.625 1013
-101.562 -242.188 1034
-226.562 367.188 1197
-281.25 328.125 1259
289.062 -54.6875 959
-125 296.875 1108
273.438 351.562 1343
-429.688 367.188 1202
-257.812 281.25 1063
-398.438 -156.25 954
-273.438 -54.6875 956
-265.625 351.562 1236
-117.188 -312.5 1004
-148.438 343.75 1232
-398.438 351.562 1236
-390.625 15.625 1019
-70.3125 -304.688 1010
-359.375 -132.812 956
250 351.562 1328
-125 -359.375 984
-414.062 273.438 1070
-234.375 242.188 1050
-335.938 343.75 1241
-312.5 367.188 1197
-250 359.375 1206
-148.438 7.8125 973
-140.625 335.938 1134
-171.875 218.75 1041
-367.188 -23.4375 954
-335.938 -70.3125 943
-242.188 367.188 1202
468.75 -85.9375 951
-234.375 367.188 1202
242.188 -257.812 948
468.75 101.562 1016
-54.6875 375 1206
-195.312 132.812 1001
-250 289.062 1338
-445.312 273.438 1067
-39.0625 -320.312 1007
-468.75 367.188 1202
453.125 187.5 1060
429.688 273.438 1134
-414.062 367.188 1210
-31.25 320.312 1572
273.438 320.312 1365
210.938 203.125 1776
-218.75 -54.6875 989
-179.688 304.688 1297
343.75 15.625 933
390.625 -281.25 1063
-335.938 -156.25 964
-367.188 187.5 1019
-109.375 -273.438 1022
460.938 132.812 1031
-250 -85.9375 967
78.125 -320.312 1101
226.562 375 1333
414.062 359.375 1189
-351.562 171.875 1016
156.25 -382.812 1080
-117.188 -421.875 1165
-312.5 375 1202
-312.5 -171.875 970
234.375 -265.625 948
335.938 -203.125 901
-281.25 289.062 1067
414.062 351.562 1181
382.812 -195.312 906
148.438 -304.688 1115
429.688 289.062 1141
-265.625 281.25 1067
-296.875 15.625 1001
-351.562 -148.438 954
-437.5 -109.375 1349
-109.375 -257.812 1031
-187.5 242.188 1054
-335.938 -171.875 962
-492.188 375 1123
-289.062 343.75 1227
-484.375 375 1202
421.875 312.5 1161
343.75 335.938 1439
-23.4375 -250 1038
-335.938 351.562 1241
-226.562 328.125 1273
-101.562 -218.75 1060
-93.75 312.5 1112
-242.188 -31.25 978
39.0625 -15.625 962
-265.625 289.062 1338
-210.938 367.188 1202
7.8125 -406.25 984
-187.5 93.75 987
-15.625 406.25 1245
-328.125 375 1206
-437.5 273.438 1067
-406.25 351.562 1236
437.5 -390.625 1273
-343.75 367.188 1206
-312.5 -164.062 964
445.312 -78.125 954
421.875 328.125 1161
-382.812 312.5 1307
-281.25 62.5 938
85.9375 -23.4375 959
-257.812 367.188 1206
-375 375 1202
-265.625 375 1206
-343.75 351.562 1236
468.75 70.3125 998
-226.562 -46.875 984
-62.5 -390.625 978
-492.188 335.938 1097
-242.188 328.125 1259
445.312 203.125 1084
-109.375 -250 1161
-156.25 15.625 975
-148.438 304.688 1115
-398.438 343.75 1236
-367.188 375 1197
-359.375 375 1197
-132.812 -406.25 1177
460.938 156.25 1044
-187.5 148.438 1010
-117.188 335.938 1134
429.688 281.25 1138
-445.312 -93.75 1297
-7.8125 -273.438 1034
445.312 -250 951
-476.562 -359.375 2767
-242.188 242.188 1050
-187.5 54.6875 935
-250 -46.875 956
414.062 281.25 1165
-125 -398.438 984
-351.562 23.4375 964
-7.8125 234.375 1757
-70.3125 -390.625 978
31.25 -242.188 1050
-343.75 -31.25 951
-382.812 195.312 995
-218.75 320.312 1268
-210.938 -39.0625 951
-226.562 343.75 1241
7.8125 -328.125 1013
-39.0625 -335.938 1001
-335.938 375 1206
-257.812 351.562 1236
-375 -156.25 954
-351.562 343.75 1241
-117.188 414.062 1181
-117.188 421.875 1189
-156.25 7.8125 970
-343.75 320.312 1259
-367.188 -39.0625 962
-335.938 -125 951
-375 -54.6875 973
-390.625 343.75 1241
-375 273.438 1070
-54.6875 -328.125 1001
46.875 -7.8125 978
-62.5 -312.5 1004
-304.688 -39.0625 943
460.938 -234.375 910
406.25 390.625 1210
-367.188 70.3125 935
210.938 210.938 1785
-382.812 351.562 1232
226.562 -250 956
406.25 -203.125 903
367.188 398.438 1338
-281.25 367.188 1202
-265.625 -195.312 1004
23.4375 -367.188 1001
-85.9375 -375 978
281.25 -281.25 987
-187.5 304.688 1297
31.25 -7.8125 978
-132.812 15.625 978
343.75 -195.312 903
468.75 -132.812 930
-289.062 367.188 1197
-320.312 -156.25 975
-398.438 0 1047
-281.25 273.438 1067
-492.188 -351.562 2767
-265.625 359.375 1206
117.188 -15.625 978
-375 -39.0625 964
148.438 218.75 1757
-468.75 -156.25 1496
-203.125 -31.25 951
-390.625 195.312 1028
-54.6875 -367.188 987
125 -15.625 978
-171.875 281.25 1328
-117.188 62.5 935
-281.25 304.688 1297
-500 -351.562 2859
-171.875 15.625 978
-414.062 109.375 987
468.75 -203.125 901
359.375 195.312 1370
148.438 -320.312 1108
148.438 -312.5 1112
195.312 101.562 1680
-132.812 375 1097
-265.625 320.312 1259
-101.562 -343.75 989
148.438 210.938 1757
-257.812 289.062 1338
-125 -367.188 987
-156.25 273.438 1047
-164.062 265.625 1063
-187.5 15.625 981
-39.0625 -7.8125 964
-164.062 140.625 1010
-179.688 203.125 1034
-296.875 367.188 1202
-93.75 429.688 1193
-62.5 -351.562 989
-226.562 -62.5 984
289.062 -234.375 943
-210.938 -46.875 951
-296.875 289.062 1063
-164.062 304.688 1297
-250 281.25 1063
23.4375 -15.625 964
-218.75 367.188 1202
-156.25 15.625 975
132.812 226.562 1766
-203.125 242.188 1054
-335.938 -31.25 948
-382.812 273.438 1070
-242.188 -46.875 973
-257.812 -54.6875 962
7.8125 -398.438 987
-367.188 367.188 1197
125 -31.25 956
31.25 -15.625 964
-476.562 -156.25 1489
23.4375 -234.375 1044
-132.812 -398.438 1177
-343.75 312.5 1302
-281.25 -171.875 987
453.125 203.125 1060
23.4375 312.5 1601
-273.438 -156.25 975
-218.75 -54.6875 989
-101.562 31.25 948
437.5 -328.125 1292
-156.25 -367.188 1210
-281.25 -187.5 987
-500 359.375 1112
-156.25 257.812 1060
351.562 -62.5 954
429.688 -257.812 981
-390.625 -23.4375 959
-93.75 -242.188 1034
-164.062 257.812 1060
468.75 62.5 998
31.25 -382.812 989
-296.875 359.375 1241
265.625 -312.5 1004
195.312 164.062 1731
414.062 367.188 1189
7.8125 312.5 1601
-351.562 -93.75 954
250 -125 930
492.188 -250 1255
-203.125 0 1013
23.4375 -375 998
-273.438 289.062 1333
312.5 -273.438 987
281.25 343.75 1333
-23.4375 0 981
476.562 31.25 984
-226.562 -54.6875 984
-382.812 -140.625 954
-320.312 351.562 1236
429.688 187.5 1105
-335.938 367.188 1206
-257.812 320.312 1259
195.312 117.188 1696
148.438 -296.875 1119
-70.3125 -437.5 1161
-31.25 328.125 1557
242.188 -109.375 935
-93.75 -210.938 1028
-70.3125 -367.188 984
-312.5 54.6875 940
-171.875 234.375 1054
281.25 296.875 1398
-375 367.188 1206
-437.5 320.312 1273
-62.5 -218.75 1034
-203.125 54.6875 935
171.875 304.688 1398
-117.188 351.562 1141
-359.375 351.562 1236
-148.438 304.688 1115
406.25 328.125 1193
-54.6875 -93.75 933
-367.188 179.688 1019
-367.188 -148.438 954
-218.75 -70.3125 946
-328.125 -148.438 967
-359.375 367.188 1202
468.75 -179.688 910
171.875 -23.4375 981
101.562 250 1671
-281.25 -195.312 987
-281.25 320.312 1268
-93.75 0 967
-242.188 320.312 1264
-39.0625 -414.062 978
-328.125 367.188 1206
-273.438 351.562 1227
-218.75 -78.125 989
492.188 -250 1255
-320.312 367.188 1206
-109.375 335.938 1134
-375 312.5 1307
234.375 -46.875 959
398.438 -70.3125 948
46.875 -140.625 918
-54.6875 7.8125 970
437.5 -250 956
-281.25 281.25 1067
-304.688 -187.5 975
-476.562 179.688 1019
-445.312 -62.5 1206
-171.875 320.312 1268
437.5 179.688 1084
-85.9375 0 967
281.25 304.688 1376
492.188 187.5 1047
-398.438 367.188 1210
-242.188 -62.5 973
39.0625 -320.312 1019
421.875 -203.125 903
-265.625 367.188 1206
-23.4375 -226.562 1044
-234.375 320.312 1264
289.062 -250 938
-351.562 -148.438 954
-484.375 312.5 1236
-460.938 320.312 1297
-31.25 -328.125 1004
-265.625 -148.438 975
-54.6875 367.188 1197
-46.875 -335.938 998
484.375 101.562 1016
390.625 -70.3125 954
-234.375 101.562 992
445.312 117.188 1047
-343.75 23.4375 978
-39.0625 437.5 1232
-171.875 304.688 1302
-351.562 351.562 1232
-242.188 -31.25 978
-281.25 -117.188 978
242.188 -31.25 984
359.375 -195.312 903
-210.938 -39.0625 951
-382.812 359.375 1232
414.062 273.438 1165
-54.6875 351.562 1206
-304.688 -85.9375 951
-125 398.438 1173
46.875 -179.688 908
-210.938 281.25 1070
-492.188 359.375 1112
-195.312 140.625 1007
-31.25 320.312 1572
7.8125 -312.5 1016
281.25 -39.0625 989
-281.25 296.875 1297
179.688 -39.0625 959
-289.062 -148.438 970
460.938 281.25 1241
0 429.688 1259
-281.25 -132.812 967
-54.6875 359.375 1206
-304.688 367.188 1197
-289.062 -156.25 975
343.75 187.5 1445
226.562 -257.812 1016
-78.125 187.5 1722
62.5 -179.688 906
-210.938 296.875 1307
-218.75 -62.5 989
78.125 343.75 1503
242.188 -304.688 1016
203.125 281.25 1458
-398.438 70.3125 938
-85.9375 -375 978
-382.812 -156.25 951
-367.188 -171.875 954
-46.875 437.5 1232
-421.875 320.312 1273
-320.312 -164.062 964
39.0625 437.5 1359
-304.688 320.312 1278
109.375 -187.5 906
445.312 -234.375 910
-265.625 -109.375 973
-343.75 15.625 967
54.6875 -406.25 1145
468.75 -164.062 915
-328.125 -93.75 946
-46.875 -375 984
-312.5 367.188 1197
-140.625 335.938 1134
-273.438 367.188 1206
-281.25 15.625 1001
-375 -195.312 1177
-312.5 359.375 1197
-179.688 320.312 1268
390.625 62.5 1214
-406.25 195.312 1001
-101.562 414.062 1181
-421.875 70.3125 940
-62.5 93.75 1007
-85.9375 -406.25 981
492.188 210.938 1255
-335.938 -132.812 951
-78.125 -382.812 975
250 -265.625 948
453.125 93.75 1028
-445.312 320.312 1312
-359.375 320.312 1264
101.562 210.938 1766
-359.375 359.375 1227
398.438 414.062 1236
164.062 -23.4375 981
-78.125 -289.062 1013
-85.9375 -210.938 1022
140.625 -23.4375 959
-31.25 0 981
-195.312 304.688 1297
-312.5 -140.625 951
148.438 -289.062 1123
-257.812 -23.4375 964
-179.688 132.812 1001
187.5 320.312 1359
-367.188 320.312 1302
62.5 -398.438 1149
476.562 -125 933
-289.062 359.375 1197
-328.125 359.375 1206
-31.25 312.5 1594
7.8125 335.938 1550
23.4375 320.312 1579
-375 -140.625 954
-476.562 359.375 1223
-289.062 281.25 1063
-125 359.375 1115
257.812 367.188 1328
-226.562 359.375 1197
-359.375 179.688 1019
-312.5 -132.812 951
-109.375 -156.25 913
-210.938 -31.25 951
-187.5 265.625 1063
257.812 273.438 1439
-179.688 304.688 1297
-62.5 437.5 1241
-343.75 -156.25 962
-101.562 0 964
406.25 382.812 1206
-195.312 132.812 1001
-257.812 101.562 987
-70.3125 -351.562 989
-304.688 351.562 1241
-85.9375 414.062 1177
-273.438 7.8125 1010
-234.375 343.75 1227
359.375 382.812 1370
-421.875 -140.625 1031
-289.062 351.562 1227
-250 242.188 1050
-7.8125 -171.875 908
-406.25 -39.0625 1087
242.188 -234.375 962
-250 367.188 1202
117.188 -187.5 906
-351.562 281.25 1067
164.062 289.062 1421
453.125 46.875 1013
429.688 -304.688 1343
31.25 406.25 1410
-304.688 -7.8125 951
-210.938 0 1016
-179.688 203.125 1034
-398.438 320.312 1288
-429.688 320.312 1273
273.438 23.4375 935
-39.0625 445.312 1236
-15.625 226.562 1766
0 -414.062 978
476.562 23.4375 935
-242.188 -70.3125 975
-140.625 15.625 978
-218.75 296.875 1307
468.75 85.9375 1007
148.438 -328.125 1105
70.3125 -23.4375 959
15.625 -273.438 1034
421.875 312.5 1161
-164.062 7.8125 970
-343.75 -179.688 964
-460.938 -257.812 2958
398.438 421.875 1241
-367.188 359.375 1206
-312.5 -70.3125 946
359.375 -46.875 984
156.25 210.938 1757
-500 351.562 1108
-343.75 367.188 1206
-15.625 -171.875 908
-398.438 -39.0625 975
-414.062 70.3125 938
-179.688 359.375 1206
-265.625 -39.0625 951
445.312 132.812 1060
429.688 -375 1264
-312.5 62.5 938
101.562 -187.5 906
-304.688 -164.062 978
421.875 218.75 1134
-304.688 62.5 935
54.6875 -414.062 1145
-273.438 -39.0625 951
-281.25 -46.875 951
187.5 164.062 1739
-390.625 351.562 1236
7.8125 -390.625 989
-289.062 289.062 1063
156.25 -281.25 1134
-281.25 -148.438 970
15.625 -406.25 984
-289.062 367.188 1197
-164.062 -148.438 913
-148.438 -156.25 913
-289.062 -117.188 978
-281.25 367.188 1202
-187.5 156.25 1013
-250 343.75 1236
-179.688 195.312 1031
-296.875 351.562 1232
273.438 -234.375 943
-148.438 304.688 1115
234.375 273.438 1464
-328.125 351.562 1236
-257.812 367.188 1206
-265.625 320.312 1259
-125 304.688 1115
-46.875 -289.062 1016
335.938 -62.5 956
-414.062 320.312 1278
-132.812 375 1097
-203.125 7.8125 1001
-367.188 -179.688 1177
187.5 -23.4375 975
-70.3125 367.188 1214
-335.938 -39.0625 948
-460.938 289.062 1063
-281.25 320.312 1268
-203.125 101.562 992
179.688 179.688 1739
-296.875 367.188 1202
289.062 -54.6875 959
-62.5 445.312 1250
-445.312 -54.6875 1185
398.438 -445.312 2835
437.5 218.75 1101
-117.188 -406.25 984
460.938 140.625 1031
-312.5 351.562 1241
343.75 46.875 995
-328.125 -132.812 951
-257.812 242.188 1047
187.5 -39.0625 959
460.938 125 1028
-117.188 421.875 1189
-187.5 304.688 1297
7.8125 0 973
-351.562 367.188 1206
429.688 179.688 1108
-242.188 328.125 1259
242.188 -203.125 908
62.5 -390.625 1141
-382.812 320.312 1283
-304.688 -156.25 970
-484.375 -406.25 2812
-335.938 320.312 1259
-343.75 281.25 1067
414.062 351.562 1181
-414.062 179.688 1019
-289.062 -195.312 987
460.938 117.188 1022
-39.0625 -320.312 1007
-164.062 296.875 1302
421.875 234.375 1134
-296.875 -187.5 987
-257.812 281.25 1063
-343.75 359.375 1232
-320.312 367.188 1206
-414.062 406.25 1398
-109.375 -343.75 992
-320.312 320.312 1268
335.938 -312.5 1206
-289.062 320.312 1264
-414.062 -31.25 1090
-468.75 -226.562 2767
-445.312 234.375 1044
195.312 164.062 1731
445.312 312.5 1130
203.125 -23.4375 975
-453.125 -226.562 2984
-101.562 7.8125 978
281.25 -265.625 938
-39.0625 429.688 1227
-242.188 359.375 1206
-320.312 289.062 1070
-304.688 281.25 1067
156.25 203.125 1748
-320.312 -171.875 964
-328.125 23.4375 989
-250 101.562 987
468.75 289.062 1241
-273.438 359.375 1206
-367.188 -164.062 954
-226.562 -46.875 984
0 -265.625 1038
-414.062 -23.4375 1101
-93.75 -367.188 981
-187.5 171.875 1022
265.625 359.375 1354
-468.75 320.312 1278
-203.125 -15.625 962
-312.5 -15.625 948
-351.562 -156.25 956
-148.438 312.5 1119
39.0625 -179.688 908
-484.375 -156.25 1496
-46.875 445.312 1236
7.8125 -15.625 962
31.25 218.75 1766
-476.562 -367.188 2789
-242.188 -78.125 975
421.875 429.688 1232
-359.375 31.25 981
-304.688 -78.125 946
-328.125 320.312 1259
-468.75 -312.5 2908
273.438 320.312 1365
-406.25 320.312 1283
-195.312 54.6875 938
109.375 320.312 1433
-257.812 -62.5 962
-164.062 273.438 1067
-367.188 351.562 1236
-242.188 343.75 1227
-390.625 367.188 1210
-195.312 265.625 1067
117.188 335.938 1398
-234.375 -78.125 981
-31.25 -382.812 984
-460.938 -23.4375 1115
-273.438 281.25 1067
-156.25 -148.438 913
-429.688 -31.25 1130
-406.25 -85.9375 1038
273.438 257.812 1445
-210.938 265.625 1067
210.938 -281.25 1019
-335.938 367.188 1206
-437.5 210.938 1038
7.8125 -398.438 987
398.438 -78.125 951
-304.688 289.062 1067
234.375 -312.5 1016
0 -328.125 1013
-265.625 328.125 1264
-171.875 367.188 1197
414.062 -265.625 1010
-250 320.312 1264
-101.562 46.875 935
-429.688 -62.5 1077
-171.875 -148.438 913
-234.375 -39.0625 978
-320.312 -101.562 948
-195.312 93.75 987
-257.812 304.688 1259
460.938 -125 933
-179.688 210.938 1038
-257.812 328.125 1259
-320.312 -187.5 964
460.938 -93.75 946
343.75 343.75 1427
-375 -187.5 1181
-343.75 289.062 1067
-179.688 140.625 1007
7.8125 304.688 1616
-187.5 320.312 1268
23.4375 -250 1044
226.562 -242.188 995
-179.688 296.875 1307
304.688 242.188 1639
132.812 -31.25 959
-414.062 195.312 1001
-335.938 351.562 1241
-125 -390.625 981
-62.5 367.188 1202
-15.625 -257.812 1038
492.188 296.875 1210
-484.375 -328.125 2859
-226.562 242.188 1050
-210.938 -140.625 915
-484.375 -312.5 2933
343.75 -203.125 901
-265.625 -312.5 3010
-101.562 -398.438 978
367.188 406.25 1328
0 -242.188 1044
-312.5 109.375 989
453.125 210.938 1087
398.438 -23.4375 951
398.438 -429.688 2958
-46.875 429.688 1227
296.875 -54.6875 962
109.375 210.938 1757
171.875 296.875 1398
171.875 -39.0625 956
-437.5 195.312 1025
-484.375 406.25 1193
164.062 -195.312 903
367.188 -195.312 906
-62.5 -390.625 978
-39.0625 -171.875 910
-453.125 -85.9375 1278
218.75 -242.188 1001
-367.188 367.188 1197
335.938 -195.312 903
-382.812 367.188 1210
-46.875 -320.312 1004
-289.062 -148.438 970
-460.938 414.062 1241
-203.125 265.625 1067
148.438 210.938 1757
117.188 234.375 2078
-375 359.375 1206
-296.875 320.312 1278
-468.75 359.375 1236
234.375 -203.125 908
312.5 320.312 1410
-296.875 -179.688 981
226.562 -203.125 908
-31.25 -242.188 1038
250 375 1322
-343.75 -164.062 962
250 -46.875 959
-7.8125 -242.188 1044
-328.125 367.188 1206
-460.938 273.438 1067
125 234.375 1705
-31.25 312.5 1594
101.562 359.375 1477
-54.6875 343.75 1210
-296.875 62.5 935
62.5 -375 1077
-23.4375 414.062 1245
187.5 296.875 1421
-281.25 -15.625 959
437.5 210.938 1097
-195.312 304.688 1297
-250 -46.875 956
-484.375 -304.688 2958
-156.25 273.438 1047
101.562 -359.375 1070
460.938 -62.5 989
-257.812 320.312 1259
-484.375 359.375 1214
-289.062 15.625 1001
-70.3125 -164.062 906
-320.312 351.562 1236
382.812 -203.125 903
-109.375 7.8125 975
460.938 -101.562 943
-281.25 351.562 1232
257.812 -242.188 948
453.125 -242.188 928
-125 398.438 1173
-273.438 343.75 1236
445.312 -210.938 901
-218.75 265.625 1067
203.125 -273.438 1016
-78.125 7.8125 975
-218.75 242.188 1054
-273.438 320.312 1273
-484.375 304.688 1245
-351.562 351.562 1232
-312.5 -164.062 964
-289.062 -164.062 987
-250 351.562 1232
-312.5 -179.688 975
-195.312 320.312 1273
-375 109.375 987
-312.5 289.062 1067
-62.5 -164.062 906
-39.0625 -7.8125 964
23.4375 304.688 1609
398.438 414.062 1236
15.625 -7.8125 970
-421.875 195.312 1028
125 226.562 1766
-460.938 -265.625 2958
367.188 210.938 1338
406.25 382.812 1206
-54.6875 -351.562 992
31.25 -179.688 908
-210.938 -39.0625 951
257.812 328.125 1333
460.938 -148.438 923
-125 390.625 1094
421.875 226.562 1134
-281.25 -140.625 967
453.125 -54.6875 987
460.938 -234.375 910
460.938 -109.375 938
-429.688 273.438 1067
-203.125 109.375 995
-437.5 328.125 1268
-335.938 -156.25 964
-414.062 328.125 1278
-54.6875 -437.5 1161
-437.5 -39.0625 1141
-335.938 -132.812 951
460.938 -140.625 925
-101.562 312.5 1126
-390.625 359.375 1227
398.438 -421.875 2933
398.438 -304.688 3120
-187.5 265.625 1063
-453.125 320.312 1273
-375 -54.6875 973
93.75 -187.5 906
-445.312 328.125 1273
-468.75 -265.625 2933
117.188 -351.562 1067
-343.75 320.312 1259
-421.875 -148.438 981
-281.25 289.062 1067
460.938 -226.562 901
-54.6875 -390.625 978
-445.312 -93.75 1297
-148.438 312.5 1119
218.75 281.25 1470
-156.25 7.8125 970
234.375 -46.875 959
-148.438 -304.688 1398
-226.562 328.125 1273
-500 382.812 1126
-343.75 -171.875 964
-179.688 304.688 1297
-179.688 367.188 1197
-46.875 -406.25 978
-109.375 0 964
-312.5 320.312 1283
-242.188 -31.25 978
-320.312 273.438 1067
-210.938 320.312 1264
93.75 250 1671
7.8125 -320.312 1016
54.6875 -406.25 1145
-265.625 304.688 1297
-468.75 -250 2835
179.688 179.688 1739
406.25 375 1206
179.688 -39.0625 959
-93.75 445.312 1206
-312.5 281.25 1067
7.8125 -390.625 989
343.75 -195.312 903
-398.438 -7.8125 1060
-234.375 328.125 1264
-164.062 15.625 975
-54.6875 0 970
460.938 85.9375 1013
-70.3125 -390.625 978
-367.188 109.375 987
-375 -164.062 954
-23.4375 -296.875 1019
23.4375 421.875 1387
-70.3125 -304.688 1010
-242.188 -85.9375 975
-304.688 367.188 1197
218.75 273.438 1470
468.75 265.625 1241
93.75 -343.75 1087
476.562 250 1241
-429.688 328.125 1273
-46.875 -7.8125 964
54.6875 -398.438 1141
484.375 414.062 1283
-328.125 273.438 1067
-312.5 101.562 935
156.25 -195.312 906
390.625 -7.8125 933
-257.812 343.75 1236
132.812 351.562 1404
23.4375 -398.438 989
-484.375 203.125 1028
-429.688 70.3125 940
-304.688 -23.4375 946
-242.188 367.188 1202
-210.938 -31.25 951
31.25 -375 989
-304.688 101.562 987
257.812 -234.375 956
-296.875 289.062 1063
-359.375 367.188 1202
-203.125 -148.438 920
-140.625 289.062 1105
-101.562 382.812 1165
-312.5 -7.8125 951
250 -31.25 981
257.812 273.438 1439
-398.438 -31.25 967
-15.625 406.25 1245
-125 -343.75 1181
23.4375 -273.438 1038
492.188 320.312 1210
210.938 281.25 1464
-70.3125 351.562 1210
0 -343.75 1004
156.25 242.188 1671
-398.438 0 1047
