ply
format ascii 1.0
comment Created by Open3D
element vertex 2377
property double x
property double y
property double z
end_header
-7.8125 -304.688 920
390.625 -46.875 864
31.25 242.188 1010
164.062 257.812 1193
15.625 -265.625 938
7.8125 242.188 1004
-390.625 164.062 2005
234.375 179.688 1031
117.188 242.188 1483
218.75 242.188 1185
-476.562 -453.125 2522
-46.875 304.688 1445
-375 304.688 1748
39.0625 -296.875 898
210.938 234.375 1206
46.875 281.25 1185
-39.0625 242.188 1001
257.812 -132.812 847
-70.3125 250 998
-46.875 250 1004
-304.688 296.875 1748
414.062 -265.625 831
54.6875 226.562 1013
54.6875 -140.625 967
437.5 171.875 1503
-7.8125 304.688 1181
-39.0625 273.438 1202
234.375 -148.438 851
39.0625 257.812 1206
164.062 -156.25 913
210.938 187.5 1031
171.875 195.312 1025
78.125 -218.75 918
265.625 164.062 1038
281.25 187.5 1236
-7.8125 265.625 1210
265.625 226.562 1206
140.625 234.375 1470
351.562 -328.125 910
0 -304.688 918
-15.625 273.438 1202
85.9375 273.438 1189
93.75 242.188 1214
-23.4375 250 1004
-31.25 304.688 1415
195.312 210.938 1529
382.812 -296.875 867
15.625 234.375 1010
257.812 164.062 1034
195.312 242.188 1202
273.438 195.312 1241
85.9375 218.75 1016
-398.438 -210.938 2984
203.125 210.938 1509
78.125 218.75 1016
476.562 -85.9375 887
54.6875 257.812 1210
125 203.125 1016
375 -304.688 875
296.875 210.938 1214
93.75 218.75 1013
-31.25 281.25 1197
-484.375 -375 2522
85.9375 -210.938 951
-398.438 203.125 1915
132.812 257.812 1458
359.375 -320.312 898
-468.75 -210.938 2129
93.75 -203.125 948
273.438 187.5 1241
7.8125 234.375 1010
46.875 226.562 1013
398.438 -382.812 935
257.812 226.562 1206
-492.188 -203.125 2116
-265.625 156.25 821
-54.6875 250 1001
109.375 273.438 1189
257.812 171.875 1041
70.3125 226.562 1013
296.875 187.5 1236
23.4375 -171.875 964
54.6875 250 1214
0 273.438 1206
101.562 265.625 1193
-117.188 171.875 920
250 -406.25 1047
85.9375 242.188 1214
125 210.938 1019
31.25 289.062 1185
226.562 210.938 1496
250 187.5 1031
-132.812 117.188 827
250 -101.562 854
39.0625 234.375 1010
-125 156.25 908
164.062 187.5 1016
-437.5 304.688 1757
117.188 265.625 1185
-421.875 -296.875 2859
-23.4375 242.188 1004
273.438 164.062 1041
-390.625 335.938 1713
414.062 7.8125 948
39.0625 226.562 1013
390.625 -289.062 858
-328.125 164.062 1993
445.312 164.062 1496
-46.875 242.188 998
132.812 195.312 1013
156.25 -296.875 998
296.875 179.688 1236
187.5 -367.188 1227
148.438 -367.188 978
179.688 195.312 1025
54.6875 -171.875 940
-398.438 187.5 1959
187.5 242.188 1202
-484.375 -328.125 2680
93.75 -304.688 1031
0 296.875 1181
265.625 -351.562 901
101.562 218.75 1016
234.375 226.562 1214
156.25 250 1197
195.312 250 1197
250 203.125 1227
23.4375 296.875 1185
242.188 234.375 1206
250 -132.812 847
398.438 -132.812 887
117.188 242.188 1483
226.562 234.375 1202
171.875 250 1197
70.3125 218.75 1013
39.0625 281.25 1185
-31.25 -312.5 943
15.625 289.062 1181
375 -140.625 928
-39.0625 312.5 1427
203.125 -421.875 1130
179.688 -289.062 981
-468.75 -421.875 2560
-367.188 304.688 1748
421.875 -31.25 873
-320.312 164.062 1981
187.5 187.5 1028
398.438 -398.438 930
265.625 -406.25 1044
242.188 -140.625 847
257.812 195.312 1241
343.75 -335.938 923
171.875 -289.062 989
-500 -460.938 2016
46.875 257.812 1210
7.8125 265.625 1202
-117.188 179.688 928
218.75 -156.25 856
132.812 257.812 1458
85.9375 281.25 1193
54.6875 -164.062 946
-359.375 304.688 1748
46.875 218.75 1010
234.375 179.688 1031
195.312 -78.125 882
-265.625 398.438 1594
359.375 -164.062 869
312.5 203.125 1214
-390.625 304.688 1757
-46.875 304.688 1445
-7.8125 304.688 1181
156.25 203.125 1019
437.5 -23.4375 875
-328.125 -273.438 1278
-257.812 156.25 821
-39.0625 296.875 1197
-203.125 289.062 1757
46.875 281.25 1185
382.812 179.688 1223
-179.688 328.125 1688
-54.6875 343.75 1105
406.25 -273.438 841
140.625 -375 989
132.812 -304.688 1013
351.562 265.625 1227
78.125 273.438 1185
468.75 281.25 1359
-164.062 265.625 978
-85.9375 250 995
218.75 179.688 1031
62.5 257.812 1210
242.188 171.875 1031
23.4375 -304.688 908
250 226.562 1210
101.562 -187.5 948
-437.5 -179.688 2198
-54.6875 257.812 1007
-31.25 281.25 1197
375 -31.25 862
70.3125 273.438 1185
31.25 -296.875 906
117.188 210.938 1019
164.062 195.312 1022
234.375 171.875 1031
398.438 -281.25 847
-359.375 -226.562 3010
7.8125 234.375 1010
-382.812 -257.812 2958
-445.312 -367.188 2680
359.375 -203.125 878
234.375 359.375 1322
109.375 234.375 1516
-78.125 289.062 1038
-15.625 -304.688 928
335.938 -343.75 930
70.3125 -164.062 940
234.375 203.125 1227
367.188 187.5 1138
250 195.312 1241
250 195.312 1241
265.625 -203.125 823
265.625 195.312 1241
-54.6875 335.938 1398
-203.125 171.875 901
179.688 -148.438 915
257.812 -203.125 829
156.25 195.312 1022
39.0625 257.812 1206
195.312 210.938 1529
-187.5 335.938 1680
-351.562 -265.625 2958
179.688 -406.25 1202
125 -171.875 938
-125 148.438 903
31.25 289.062 1185
242.188 226.562 1214
-15.625 234.375 1001
320.312 -359.375 959
242.188 335.938 1349
171.875 -359.375 970
31.25 265.625 1202
140.625 265.625 1197
54.6875 -171.875 940
367.188 -187.5 925
382.812 -296.875 867
-78.125 250 998
7.8125 -304.688 915
218.75 93.75 954
0 -289.062 918
273.438 335.938 1343
429.688 117.188 1529
257.812 -117.188 851
-31.25 304.688 1415
273.438 187.5 1241
62.5 -132.812 973
-421.875 -195.312 2958
242.188 164.062 1025
414.062 -15.625 873
257.812 -265.625 841
-31.25 273.438 1202
-250 156.25 1993
-296.875 296.875 1748
-132.812 132.812 891
0 265.625 1202
109.375 210.938 1016
39.0625 226.562 1013
-54.6875 250 1001
218.75 -281.25 845
0 296.875 1181
-437.5 -328.125 2744
93.75 296.875 1427
375 -257.812 860
242.188 203.125 1227
85.9375 210.938 1013
164.062 -406.25 1259
187.5 195.312 1031
93.75 210.938 1013
437.5 93.75 1516
117.188 265.625 1185
-117.188 187.5 933
218.75 203.125 1523
-273.438 296.875 1748
-187.5 210.938 930
234.375 234.375 1202
-195.312 289.062 1757
218.75 242.188 1185
218.75 171.875 1025
15.625 226.562 1007
132.812 226.562 1509
-429.688 -304.688 2789
375 -304.688 875
250 -242.188 829
-23.4375 273.438 1206
15.625 242.188 1010
-320.312 -242.188 1210
-289.062 304.688 1731
46.875 -140.625 973
164.062 250 1197
-265.625 296.875 1748
93.75 273.438 1193
101.562 218.75 1016
-23.4375 250 1004
250 -406.25 1047
23.4375 257.812 1197
234.375 -148.438 851
85.9375 250 1214
359.375 -320.312 898
-312.5 164.062 1981
-289.062 156.25 817
210.938 179.688 1031
164.062 -296.875 992
-46.875 367.188 1130
-320.312 -117.188 1031
-289.062 421.875 1564
-23.4375 242.188 1004
-429.688 210.938 1915
187.5 -187.5 871
179.688 187.5 1019
187.5 242.188 1202
-484.375 234.375 1883
78.125 250 1214
-85.9375 257.812 1001
-31.25 421.875 1214
46.875 -179.688 940
-500 -195.312 2883
70.3125 -132.812 973
101.562 210.938 1016
203.125 242.188 1202
93.75 250 1214
-242.188 382.812 1616
195.312 250 1197
31.25 257.812 1206
250 -132.812 847
335.938 210.938 1177
70.3125 226.562 1013
367.188 -312.5 885
296.875 -375 989
39.0625 -148.438 975
-445.312 -210.938 2958
-320.312 -195.312 1138
367.188 -148.438 858
62.5 257.812 1210
-117.188 171.875 920
265.625 171.875 1038
-109.375 210.938 956
31.25 -156.25 973
-164.062 289.062 1001
78.125 210.938 1010
281.25 -289.062 851
101.562 203.125 1010
-101.562 226.562 967
203.125 -70.3125 882
-484.375 -335.938 2659
-414.062 -273.438 2883
-125 359.375 1090
-171.875 320.312 1705
54.6875 226.562 1013
54.6875 289.062 1181
70.3125 250 1214
226.562 234.375 1202
31.25 -242.188 943
203.125 218.75 1503
62.5 281.25 1181
265.625 -242.188 829
468.75 125 1458
-109.375 203.125 946
187.5 -453.125 1165
7.8125 -273.438 940
-320.312 -203.125 1149
226.562 210.938 1496
-39.0625 250 1004
-140.625 117.188 825
-31.25 -312.5 943
-23.4375 -343.75 978
437.5 -39.0625 871
304.688 -328.125 954
414.062 -265.625 831
-7.8125 296.875 1181
203.125 -101.562 873
54.6875 -289.062 891
-125 164.062 913
-429.688 -320.312 2767
-351.562 304.688 1739
-375 171.875 1981
140.625 -164.062 928
226.562 203.125 1509
171.875 -421.875 1223
218.75 85.9375 948
-15.625 -312.5 940
242.188 -140.625 847
398.438 -429.688 910
-320.312 -93.75 1001
367.188 -179.688 875
281.25 -390.625 1013
187.5 179.688 1022
453.125 164.062 1483
382.812 -93.75 903
328.125 -351.562 946
148.438 257.812 1197
-343.75 304.688 1739
312.5 -367.188 973
-320.312 -70.3125 984
-109.375 195.312 943
296.875 281.25 1370
101.562 273.438 1193
171.875 257.812 1193
218.75 -62.5 885
-31.25 273.438 1202
-484.375 -203.125 2116
101.562 242.188 1470
-39.0625 304.688 1445
312.5 -257.812 845
-320.312 -140.625 1060
265.625 -109.375 851
-46.875 257.812 1004
-46.875 242.188 998
218.75 -101.562 851
-398.438 -257.812 2933
-15.625 250 1007
375 250 1273
250 195.312 1241
0 273.438 1206
23.4375 -250 946
23.4375 289.062 1185
242.188 226.562 1214
-7.8125 242.188 1007
375 148.438 1094
242.188 -148.438 847
109.375 265.625 1189
-15.625 273.438 1202
382.812 -148.438 908
31.25 -210.938 948
85.9375 281.25 1193
85.9375 148.438 920
289.062 148.438 1028
195.312 -132.812 858
218.75 179.688 1031
289.062 -132.812 843
109.375 203.125 1013
-273.438 156.25 1993
78.125 273.438 1185
281.25 -132.812 843
-320.312 -164.062 1090
242.188 -250 835
156.25 -156.25 923
93.75 -226.562 903
-132.812 125 885
140.625 -367.188 989
-62.5 312.5 1060
171.875 -367.188 970
-54.6875 -312.5 943
-320.312 164.062 1981
-62.5 125 901
289.062 -382.812 1001
164.062 -382.812 1278
-492.188 -343.75 1926
-289.062 414.062 1579
62.5 250 1214
-31.25 312.5 1415
234.375 -421.875 1080
-15.625 -335.938 973
93.75 273.438 1193
234.375 203.125 1227
242.188 -414.062 1063
-39.0625 390.625 1343
-320.312 -273.438 1273
85.9375 -296.875 1028
257.812 -351.562 906
140.625 203.125 1016
-15.625 -304.688 928
-195.312 343.75 1671
132.812 257.812 1458
265.625 156.25 1031
414.062 -367.188 923
62.5 -289.062 880
46.875 234.375 1016
304.688 -367.188 975
242.188 179.688 1031
257.812 -117.188 851
265.625 164.062 1038
164.062 -289.062 998
-304.688 164.062 1981
-375 304.688 1748
257.812 -140.625 845
0 304.688 1181
-195.312 289.062 1757
-390.625 171.875 1970
437.5 85.9375 1509
296.875 -281.25 858
31.25 234.375 1010
210.938 -265.625 821
320.312 328.125 1317
195.312 -421.875 1161
210.938 210.938 1509
15.625 242.188 1010
0 -289.062 918
-320.312 -101.562 1013
-46.875 382.812 1149
390.625 109.375 1031
210.938 179.688 1031
-320.312 -218.75 1173
-117.188 187.5 933
203.125 93.75 951
117.188 -171.875 946
-281.25 429.688 1557
148.438 203.125 1019
93.75 250 1214
117.188 273.438 1185
171.875 250 1197
117.188 -304.688 1025
296.875 148.438 1031
46.875 218.75 1010
85.9375 140.625 933
-257.812 296.875 1748
85.9375 218.75 1016
250 234.375 1210
203.125 187.5 1031
-250 296.875 1748
-234.375 375 1632
367.188 203.125 1138
70.3125 218.75 1013
210.938 234.375 1206
-421.875 -289.062 2859
187.5 195.312 1031
-7.8125 296.875 1181
218.75 234.375 1206
31.25 296.875 1185
31.25 289.062 1185
289.062 164.062 1041
429.688 -359.375 920
210.938 -210.938 867
-320.312 -132.812 1050
382.812 -250 854
46.875 -164.062 967
132.812 -375 989
437.5 132.812 1503
31.25 257.812 1206
210.938 -132.812 856
54.6875 218.75 1010
179.688 242.188 1197
382.812 -164.062 903
-453.125 -320.312 2680
-171.875 289.062 1001
-31.25 429.688 1214
156.25 -273.438 821
421.875 101.562 1557
171.875 -148.438 915
164.062 250 1197
0 265.625 1202
257.812 203.125 1241
156.25 195.312 1022
-23.4375 281.25 1202
54.6875 226.562 1013
132.812 195.312 1013
39.0625 265.625 1206
7.8125 273.438 1189
304.688 210.938 1214
-359.375 304.688 1748
187.5 -367.188 1227
-195.312 195.312 918
312.5 -359.375 959
210.938 187.5 1031
226.562 -62.5 873
-39.0625 304.688 1445
-445.312 -351.562 2659
54.6875 281.25 1181
140.625 265.625 1197
93.75 242.188 1214
-335.938 304.688 1739
-320.312 -265.625 1255
210.938 -93.75 871
203.125 210.938 1509
-406.25 -226.562 2908
-429.688 -312.5 2767
-132.812 140.625 894
101.562 -179.688 951
-375 -257.812 2958
226.562 -429.688 1097
195.312 -226.562 851
78.125 250 1214
328.125 -343.75 933
226.562 203.125 1509
62.5 281.25 1181
70.3125 -218.75 923
265.625 -250 833
-179.688 289.062 1001
-46.875 312.5 1427
320.312 -351.562 946
-351.562 -226.562 3010
132.812 210.938 1019
210.938 -156.25 858
-187.5 289.062 1748
-320.312 -234.375 1202
-437.5 -335.938 2744
78.125 226.562 1013
39.0625 -296.875 898
187.5 -156.25 880
203.125 -406.25 1145
242.188 226.562 1214
218.75 171.875 1025
210.938 -273.438 823
179.688 -289.062 981
101.562 210.938 1016
15.625 -257.812 946
320.312 210.938 1214
-46.875 257.812 1004
46.875 226.562 1013
39.0625 -148.438 975
203.125 218.75 1503
-54.6875 351.562 1105
132.812 203.125 1019
7.8125 296.875 1181
125 265.625 1202
320.312 140.625 1034
-39.0625 242.188 1001
187.5 187.5 1028
-7.8125 289.062 1181
125 203.125 1016
218.75 210.938 1509
-7.8125 -296.875 920
234.375 -203.125 837
-406.25 312.5 1748
-445.312 -140.625 2256
179.688 250 1197
421.875 140.625 1503
46.875 289.062 1181
-31.25 -343.75 970
-15.625 242.188 1007
-15.625 250 1007
78.125 210.938 1010
171.875 -390.625 1264
-117.188 179.688 928
-320.312 -226.562 1185
-437.5 -187.5 2184
148.438 -273.438 823
359.375 265.625 1227
-7.8125 234.375 1004
93.75 218.75 1013
187.5 -203.125 871
109.375 218.75 1016
203.125 242.188 1202
460.938 -367.188 923
164.062 203.125 1022
296.875 -375 989
23.4375 289.062 1185
101.562 242.188 1470
179.688 -445.312 1169
39.0625 289.062 1181
-320.312 -156.25 1084
218.75 -437.5 1112
62.5 289.062 1181
445.312 -85.9375 891
421.875 171.875 1503
171.875 -289.062 989
195.312 -234.375 847
85.9375 -210.938 951
15.625 242.188 1010
-492.188 -335.938 1936
-70.3125 250 998
-320.312 -210.938 1161
187.5 -359.375 954
-31.25 312.5 1415
-460.938 -429.688 2560
46.875 -289.062 896
109.375 -210.938 898
0 -304.688 918
195.312 250 1197
7.8125 -273.438 940
-445.312 -375 2680
-23.4375 -304.688 930
-125 164.062 913
93.75 -195.312 948
-406.25 304.688 1757
-320.312 -171.875 1097
132.812 -242.188 862
7.8125 273.438 1189
-429.688 -218.75 2908
140.625 195.312 1016
-320.312 -109.375 1022
-54.6875 312.5 1421
476.562 -273.438 827
15.625 265.625 1197
15.625 296.875 1181
78.125 -140.625 951
179.688 -101.562 878
23.4375 421.875 1297
62.5 250 1214
46.875 257.812 1210
179.688 -203.125 906
296.875 -132.812 843
187.5 375 1317
195.312 242.188 1202
250 -367.188 1057
140.625 -296.875 1013
-242.188 296.875 1757
-320.312 -250 1223
85.9375 406.25 1302
273.438 -132.812 843
0 -312.5 918
375 140.625 1047
-179.688 234.375 951
-70.3125 328.125 1073
164.062 382.812 1312
-296.875 164.062 1981
109.375 -312.5 1025
109.375 140.625 956
-78.125 296.875 1038
195.312 179.688 1025
125 210.938 1019
-140.625 117.188 825
-320.312 -257.812 1241
-382.812 171.875 1981
-93.75 257.812 998
70.3125 140.625 933
-429.688 -296.875 2767
351.562 -15.625 864
242.188 179.688 1031
-500 -335.938 1936
70.3125 -226.562 923
132.812 -164.062 935
203.125 210.938 1509
125 -203.125 894
-125 148.438 903
-281.25 156.25 817
304.688 -312.5 973
-117.188 179.688 928
195.312 -78.125 882
164.062 -359.375 973
234.375 210.938 1227
78.125 -296.875 1028
109.375 265.625 1189
-46.875 250 1004
132.812 -39.0625 880
-109.375 203.125 946
46.875 234.375 1016
226.562 242.188 1202
273.438 156.25 1031
257.812 203.125 1241
187.5 -85.9375 882
-46.875 375 1134
257.812 -390.625 1031
-109.375 218.75 959
242.188 171.875 1031
187.5 31.25 851
367.188 257.812 1273
85.9375 156.25 923
70.3125 -23.4375 875
-140.625 328.125 1050
265.625 195.312 1241
273.438 -203.125 817
-125 156.25 908
218.75 234.375 1206
-234.375 156.25 885
140.625 132.812 959
390.625 15.625 946
54.6875 250 1214
-468.75 -203.125 2143
281.25 -234.375 829
-367.188 171.875 1981
117.188 273.438 1185
46.875 281.25 1185
54.6875 -234.375 928
437.5 -23.4375 875
85.9375 273.438 1189
257.812 -132.812 847
117.188 -304.688 1025
109.375 398.438 1307
-70.3125 296.875 1038
257.812 -125 849
195.312 187.5 1031
-414.062 -265.625 2883
187.5 187.5 1028
304.688 -367.188 975
-132.812 125 885
-437.5 -125 2286
445.312 171.875 1496
-54.6875 359.375 1112
328.125 -343.75 933
382.812 -125 913
343.75 -148.438 860
39.0625 -367.188 1016
398.438 70.3125 998
273.438 -398.438 1025
226.562 109.375 964
257.812 -148.438 843
-343.75 -265.625 1264
226.562 -242.188 837
250 -265.625 843
257.812 -351.562 906
304.688 210.938 1214
-23.4375 273.438 1206
0 304.688 1181
140.625 234.375 1470
-304.688 164.062 1981
320.312 -257.812 845
0 -281.25 946
320.312 -351.562 946
23.4375 226.562 1007
-320.312 -23.4375 930
218.75 -101.562 851
-101.562 414.062 1173
187.5 250 1193
-390.625 179.688 1959
-320.312 -46.875 951
85.9375 250 1214
93.75 273.438 1193
117.188 -171.875 946
-328.125 304.688 1748
-46.875 398.438 1181
-54.6875 343.75 1105
70.3125 -218.75 923
54.6875 62.5 837
226.562 -156.25 854
31.25 296.875 1185
15.625 -265.625 938
312.5 -359.375 959
7.8125 296.875 1181
-445.312 -367.188 2680
281.25 195.312 1236
-398.438 -218.75 2984
-460.938 -187.5 2170
-343.75 304.688 1739
210.938 -70.3125 880
156.25 -367.188 978
93.75 -195.312 948
250 234.375 1210
-421.875 -273.438 2835
-15.625 234.375 1001
85.9375 218.75 1016
414.062 -15.625 873
179.688 -125 869
-390.625 195.312 1936
226.562 -148.438 851
-320.312 -125 1044
234.375 234.375 1202
382.812 242.188 1273
359.375 148.438 1094
-398.438 250 1843
-320.312 -140.625 1060
31.25 226.562 1010
-179.688 289.062 1001
406.25 -117.188 885
54.6875 -132.812 978
468.75 140.625 1433
179.688 195.312 1025
445.312 -15.625 1776
125 265.625 1202
421.875 7.8125 948
-7.8125 429.688 1292
398.438 101.562 1025
390.625 -117.188 906
23.4375 -296.875 908
171.875 195.312 1025
39.0625 234.375 1010
-23.4375 250 1004
195.312 -242.188 847
46.875 -179.688 940
7.8125 242.188 1004
-23.4375 -304.688 930
265.625 7.8125 858
46.875 226.562 1013
93.75 250 1214
117.188 210.938 1019
70.3125 257.812 1214
-343.75 -226.562 1185
46.875 -164.062 967
-210.938 156.25 887
78.125 156.25 923
171.875 -203.125 901
15.625 234.375 1010
85.9375 -281.25 871
-109.375 398.438 1145
203.125 250 1197
78.125 148.438 923
-39.0625 406.25 1193
-437.5 -179.688 2198
218.75 101.562 951
-117.188 195.312 938
437.5 -117.188 885
250 -195.312 833
-359.375 171.875 1970
-367.188 -257.812 2958
234.375 -406.25 1057
351.562 -195.312 875
195.312 210.938 1529
210.938 -445.312 1134
-468.75 -429.688 2560
203.125 -273.438 823
-7.8125 -296.875 920
-320.312 -242.188 1210
335.938 195.312 1165
296.875 210.938 1214
-328.125 -203.125 1153
-320.312 -117.188 1031
54.6875 -179.688 938
148.438 -281.25 823
-500 -195.312 2883
-320.312 -62.5 967
-78.125 265.625 1010
78.125 250 1214
351.562 -320.312 898
78.125 218.75 1016
-39.0625 273.438 1202
39.0625 -234.375 943
-289.062 406.25 1594
-398.438 265.625 1823
148.438 265.625 1197
101.562 273.438 1193
140.625 257.812 1197
54.6875 -140.625 967
351.562 257.812 1223
492.188 70.3125 1464
-15.625 242.188 1007
234.375 171.875 1031
78.125 281.25 1189
-234.375 296.875 1757
-320.312 -78.125 987
-132.812 140.625 894
-31.25 273.438 1202
-125 171.875 918
39.0625 289.062 1181
289.062 -234.375 837
281.25 187.5 1236
367.188 -304.688 878
93.75 281.25 1193
164.062 203.125 1022
289.062 187.5 1236
367.188 -164.062 869
46.875 -289.062 896
7.8125 289.062 1181
421.875 179.688 1503
-320.312 -148.438 1070
-320.312 -54.6875 962
-250 296.875 1748
179.688 250 1197
-203.125 351.562 1663
7.8125 265.625 1202
359.375 -148.438 858
-85.9375 265.625 1004
445.312 156.25 1489
203.125 210.938 1509
70.3125 -265.625 873
140.625 390.625 1312
250 164.062 1031
250 171.875 1034
414.062 15.625 951
171.875 250 1197
-312.5 164.062 1981
101.562 -171.875 956
320.312 203.125 1210
250 -125 851
148.438 -156.25 925
15.625 265.625 1197
218.75 -156.25 856
101.562 -179.688 951
-7.8125 234.375 1004
-273.438 406.25 1586
265.625 -398.438 1031
234.375 -140.625 851
398.438 -273.438 843
109.375 218.75 1016
-312.5 109.375 815
375 -296.875 869
-62.5 328.125 1073
39.0625 265.625 1206
164.062 195.312 1022
78.125 226.562 1013
195.312 242.188 1202
382.812 156.25 1101
-70.3125 296.875 1038
375 101.562 1019
140.625 195.312 1016
273.438 -195.312 819
31.25 257.812 1206
312.5 203.125 1214
289.062 -54.6875 882
-476.562 -203.125 2143
-156.25 289.062 1004
429.688 171.875 1503
-320.312 -179.688 1112
234.375 210.938 1227
-226.562 156.25 885
257.812 171.875 1041
-78.125 250 998
343.75 -328.125 913
351.562 -328.125 910
195.312 -351.562 946
-39.0625 257.812 1004
-164.062 273.438 989
203.125 -101.562 873
265.625 195.312 1241
343.75 132.812 1038
351.562 265.625 1227
421.875 -359.375 923
-109.375 218.75 959
46.875 257.812 1210
39.0625 -171.875 962
46.875 -218.75 962
101.562 250 1470
-406.25 -250 2933
406.25 101.562 1609
0 -273.438 946
406.25 -265.625 833
187.5 -171.875 878
-429.688 -195.312 2958
39.0625 257.812 1206
375 -132.812 928
132.812 -367.188 989
-312.5 101.562 819
-414.062 -250 2883
375 132.812 1047
62.5 -171.875 938
257.812 -187.5 835
-23.4375 273.438 1206
218.75 -195.312 856
101.562 -195.312 946
62.5 289.062 1181
0 296.875 1181
70.3125 281.25 1181
-7.8125 250 1007
359.375 -156.25 864
171.875 -414.062 1223
-31.25 -226.562 1112
70.3125 -281.25 878
-226.562 296.875 1757
-312.5 304.688 1739
-23.4375 -312.5 940
31.25 234.375 1010
359.375 -312.5 889
7.8125 -351.562 987
195.312 -226.562 851
-54.6875 375 1134
257.812 351.562 1333
-242.188 296.875 1757
78.125 -210.938 956
265.625 -101.562 856
156.25 -296.875 998
210.938 218.75 1503
242.188 203.125 1227
-289.062 164.062 1981
-101.562 226.562 967
226.562 -148.438 851
-468.75 -273.438 2078
265.625 226.562 1206
-54.6875 312.5 1421
195.312 195.312 1031
390.625 109.375 1031
-320.312 -70.3125 984
-7.8125 265.625 1210
132.812 -296.875 1016
0 242.188 1004
7.8125 234.375 1010
289.062 -312.5 860
-54.6875 335.938 1398
187.5 195.312 1031
-140.625 117.188 825
-335.938 -265.625 1264
437.5 -382.812 906
210.938 367.188 1328
85.9375 273.438 1189
250 179.688 1031
-31.25 304.688 1415
195.312 179.688 1025
296.875 148.438 1031
140.625 210.938 1016
304.688 148.438 1034
-109.375 210.938 956
109.375 210.938 1016
-453.125 -390.625 2639
-78.125 304.688 1050
101.562 234.375 1470
-320.312 -273.438 1273
148.438 210.938 1019
148.438 -273.438 823
117.188 265.625 1185
-335.938 304.688 1739
242.188 -382.812 1060
132.812 -164.062 935
304.688 187.5 1241
125 -367.188 995
15.625 289.062 1181
257.812 226.562 1206
-117.188 195.312 938
23.4375 -242.188 948
218.75 179.688 1031
-117.188 179.688 928
179.688 -93.75 880
78.125 -351.562 1022
414.062 7.8125 948
312.5 179.688 1227
250 218.75 1219
101.562 -187.5 948
132.812 257.812 1458
390.625 -281.25 849
78.125 -281.25 871
437.5 -31.25 878
-46.875 390.625 1157
54.6875 -164.062 946
54.6875 234.375 1013
226.562 -117.188 847
0 -195.312 1001
109.375 -171.875 951
179.688 -359.375 956
210.938 242.188 1185
-70.3125 250 998
-421.875 -218.75 2908
-320.312 -218.75 1173
39.0625 -140.625 984
70.3125 250 1214
210.938 -156.25 858
-453.125 -164.062 2212
-23.4375 312.5 1181
-320.312 -85.9375 995
218.75 367.188 1317
242.188 171.875 1031
164.062 -265.625 819
-398.438 312.5 1748
-70.3125 265.625 1001
179.688 -367.188 1255
85.9375 210.938 1013
23.4375 -164.062 970
234.375 234.375 1202
70.3125 257.812 1214
-445.312 -203.125 2184
-453.125 -156.25 2226
210.938 203.125 1523
210.938 -62.5 887
140.625 -296.875 1013
171.875 250 1197
218.75 210.938 1509
101.562 -304.688 1034
265.625 164.062 1038
234.375 -382.812 1084
328.125 -234.375 875
0 -281.25 946
-460.938 -250 2090
257.812 203.125 1241
23.4375 242.188 1010
179.688 31.25 847
296.875 -156.25 837
398.438 -125 889
210.938 -109.375 851
296.875 187.5 1236
148.438 265.625 1197
148.438 -156.25 925
187.5 -359.375 954
492.188 -406.25 910
242.188 179.688 1031
62.5 -218.75 962
218.75 85.9375 948
351.562 -320.312 898
-414.062 -265.625 2883
156.25 257.812 1193
7.8125 -265.625 948
296.875 210.938 1214
226.562 -156.25 854
-289.062 164.062 1981
375 -257.812 860
265.625 -132.812 845
203.125 234.375 1206
226.562 93.75 954
85.9375 -203.125 951
148.438 -195.312 898
78.125 273.438 1185
179.688 -265.625 819
390.625 -132.812 903
0 429.688 1292
-398.438 257.812 1833
15.625 296.875 1181
234.375 203.125 1227
-101.562 101.562 829
-148.438 312.5 1034
-23.4375 429.688 1302
-367.188 -265.625 2933
250 -125 851
101.562 273.438 1193
273.438 -390.625 1016
148.438 203.125 1019
250 226.562 1210
-54.6875 351.562 1105
335.938 273.438 1236
156.25 -265.625 821
93.75 281.25 1193
320.312 -164.062 843
132.812 242.188 1470
85.9375 -296.875 1028
-85.9375 281.25 1022
375 -296.875 869
492.188 265.625 1349
203.125 -93.75 875
250 -351.562 910
-39.0625 242.188 1001
234.375 -351.562 920
210.938 -351.562 930
382.812 -289.062 856
0 273.438 1206
367.188 -140.625 856
93.75 -218.75 903
179.688 -453.125 1169
250 -398.438 1041
171.875 -382.812 1259
382.812 78.125 998
226.562 179.688 1028
421.875 -195.312 833
101.562 140.625 954
492.188 -54.6875 880
-54.6875 359.375 1112
414.062 101.562 1557
15.625 273.438 1193
54.6875 -132.812 978
242.188 15.625 854
242.188 -140.625 847
117.188 46.875 841
-31.25 250 1004
62.5 226.562 1004
39.0625 -289.062 898
125 265.625 1202
156.25 -289.062 1004
-125 171.875 918
335.938 -335.938 925
7.8125 304.688 1181
-453.125 -406.25 2598
273.438 -140.625 839
39.0625 257.812 1206
226.562 242.188 1202
93.75 -281.25 860
-320.312 -31.25 935
-351.562 171.875 1959
-117.188 187.5 933
453.125 117.188 1458
382.812 156.25 1101
273.438 156.25 1031
-15.625 -148.438 1010
281.25 -382.812 1001
-171.875 257.812 975
156.25 15.625 839
179.688 257.812 1197
-265.625 296.875 1748
109.375 242.188 1483
195.312 -289.062 843
-406.25 -218.75 2958
-39.0625 281.25 1197
-140.625 125 885
-421.875 -210.938 2933
-484.375 -445.312 2450
-296.875 164.062 1981
187.5 -445.312 1157
-125 367.188 1101
-7.8125 273.438 1206
359.375 -156.25 864
156.25 -437.5 1250
-7.8125 242.188 1007
-117.188 382.812 1126
367.188 62.5 981
-320.312 -101.562 1013
31.25 421.875 1297
0 296.875 1181
257.812 195.312 1241
85.9375 226.562 1016
492.188 62.5 1483
421.875 -15.625 873
-39.0625 250 1004
-46.875 312.5 1427
-382.812 171.875 1981
-39.0625 312.5 1427
-460.938 -414.062 2579
-320.312 -15.625 920
-218.75 296.875 1748
-39.0625 257.812 1004
234.375 -148.438 851
62.5 281.25 1181
164.062 -148.438 923
125 -281.25 837
78.125 -210.938 956
93.75 242.188 1214
210.938 187.5 1031
335.938 203.125 1169
-218.75 156.25 887
382.812 54.6875 978
-15.625 304.688 1181
445.312 -265.625 825
-54.6875 320.312 1421
39.0625 -171.875 962
460.938 -125 887
437.5 93.75 1516
351.562 187.5 1138
46.875 93.75 906
-31.25 304.688 1415
-453.125 -398.438 2618
203.125 -351.562 940
23.4375 226.562 1007
-312.5 304.688 1739
-320.312 -171.875 1097
-62.5 312.5 1060
-367.188 304.688 1748
46.875 265.625 1210
148.438 -359.375 978
382.812 -281.25 851
-70.3125 304.688 1060
328.125 304.688 1283
164.062 -289.062 998
257.812 -343.75 906
406.25 -125 882
445.312 -23.4375 873
39.0625 -179.688 946
46.875 289.062 1181
203.125 -210.938 867
-320.312 -93.75 1001
390.625 31.25 959
250 -382.812 1044
-304.688 304.688 1739
359.375 -312.5 889
62.5 -179.688 938
-46.875 289.062 1197
-31.25 -304.688 938
23.4375 234.375 1010
242.188 -93.75 851
54.6875 234.375 1013
210.938 218.75 1503
203.125 -93.75 875
62.5 -281.25 880
-7.8125 -304.688 920
210.938 -296.875 862
328.125 -250 880
390.625 39.0625 964
210.938 -273.438 823
453.125 -23.4375 873
195.312 117.188 967
-23.4375 -335.938 970
-132.812 148.438 901
-7.8125 -312.5 920
312.5 -312.5 954
-414.062 -257.812 2908
296.875 164.062 1038
375 -242.188 873
-476.562 -445.312 2522
-7.8125 250 1007
226.562 109.375 964
234.375 -140.625 851
-85.9375 273.438 1010
85.9375 -218.75 915
234.375 179.688 1031
203.125 187.5 1031
406.25 -265.625 833
117.188 203.125 1013
257.812 -109.375 851
304.688 179.688 1241
-54.6875 -359.375 1307
101.562 -117.188 956
-31.25 429.688 1214
70.3125 250 1214
250 164.062 1031
7.8125 265.625 1202
289.062 -281.25 860
-101.562 421.875 1181
-468.75 -421.875 2560
54.6875 226.562 1013
234.375 203.125 1227
296.875 0 862
54.6875 257.812 1210
164.062 -203.125 896
140.625 210.938 1016
31.25 289.062 1185
39.0625 296.875 1185
-46.875 382.812 1149
312.5 -257.812 845
70.3125 125 933
-39.0625 406.25 1193
171.875 -367.188 970
187.5 -164.062 882
-210.938 164.062 891
132.812 140.625 962
242.188 -195.312 843
46.875 -234.375 935
289.062 312.5 1359
203.125 210.938 1509
-78.125 273.438 1010
101.562 242.188 1470
210.938 23.4375 854
125 273.438 1185
242.188 203.125 1227
-492.188 -375 1904
-445.312 -359.375 2680
289.062 -187.5 837
171.875 203.125 1025
195.312 187.5 1031
-320.312 -39.0625 943
242.188 -406.25 1050
-343.75 171.875 1959
226.562 234.375 1202
140.625 234.375 1470
265.625 203.125 1236
101.562 -210.938 898
250 226.562 1210
-359.375 -257.812 2958
187.5 -351.562 954
31.25 226.562 1010
-54.6875 304.688 1445
62.5 414.062 1302
312.5 0 864
117.188 265.625 1185
382.812 -140.625 915
164.062 -445.312 1214
-132.812 351.562 1080
335.938 210.938 1177
-54.6875 351.562 1105
445.312 148.438 1489
109.375 210.938 1016
39.0625 -289.062 898
-320.312 -257.812 1241
62.5 62.5 837
-468.75 -445.312 2522
-23.4375 312.5 1181
359.375 -195.312 875
195.312 195.312 1031
171.875 250 1197
132.812 242.188 1470
343.75 304.688 1268
203.125 -234.375 843
-70.3125 265.625 1001
-335.938 -265.625 1264
-15.625 281.25 1202
218.75 -62.5 885
257.812 234.375 1210
117.188 218.75 1019
281.25 -101.562 856
125 -367.188 995
-7.8125 273.438 1206
-429.688 -289.062 2767
85.9375 125 935
289.062 -375 992
195.312 -70.3125 896
359.375 -148.438 858
-421.875 -265.625 2859
46.875 -289.062 896
242.188 -265.625 825
-468.75 -195.312 2156
257.812 -140.625 845
203.125 -70.3125 882
414.062 93.75 1609
-320.312 -265.625 1255
54.6875 289.062 1181
140.625 203.125 1016
-320.312 0 906
132.812 265.625 1202
406.25 -367.188 938
15.625 -187.5 959
-195.312 203.125 923
78.125 148.438 923
-70.3125 335.938 1077
226.562 -421.875 1084
375 -164.062 915
46.875 -218.75 962
-132.812 132.812 891
93.75 -203.125 948
-437.5 -335.938 2744
281.25 187.5 1236
226.562 171.875 1028
429.688 179.688 1503
265.625 -195.312 823
257.812 171.875 1041
-62.5 250 1001
132.812 203.125 1019
-429.688 -304.688 2789
-62.5 335.938 1077
-187.5 335.938 1680
187.5 250 1193
-15.625 273.438 1202
218.75 -242.188 837
304.688 148.438 1034
312.5 -304.688 959
492.188 -375 928
-359.375 171.875 1970
-398.438 250 1843
-414.062 -117.188 2271
15.625 -304.688 915
46.875 414.062 1302
15.625 -250 954
218.75 179.688 1031
54.6875 281.25 1181
39.0625 -296.875 898
62.5 -218.75 962
468.75 -367.188 925
15.625 78.125 837
-109.375 226.562 967
93.75 -304.688 1031
-492.188 -195.312 2116
-390.625 171.875 1970
359.375 -164.062 869
343.75 226.562 1181
-320.312 -164.062 1090
242.188 -132.812 849
-46.875 312.5 1427
-296.875 304.688 1731
93.75 156.25 923
-390.625 312.5 1748
62.5 281.25 1181
-382.812 -250 2958
296.875 281.25 1370
101.562 273.438 1193
39.0625 -140.625 984
-382.812 -250 2958
-445.312 -195.312 2184
-78.125 257.812 1001
234.375 242.188 1202
304.688 218.75 1214
-320.312 -46.875 951
78.125 242.188 1219
78.125 406.25 1307
140.625 -195.312 896
-179.688 242.188 962
-117.188 187.5 933
-296.875 -289.062 1283
132.812 -304.688 1013
15.625 273.438 1193
148.438 210.938 1019
62.5 -132.812 973
375 132.812 1047
375 -156.25 918
-125 164.062 913
171.875 -109.375 878
273.438 171.875 1041
-320.312 -7.8125 908
62.5 -226.562 928
257.812 195.312 1241
78.125 281.25 1189
109.375 -171.875 951
203.125 242.188 1202
-109.375 406.25 1157
-273.438 164.062 1970
15.625 265.625 1197
-171.875 -234.375 1161
-453.125 -226.562 2958
-437.5 -328.125 2744
-39.0625 281.25 1197
-390.625 187.5 1959
-453.125 -367.188 2639
46.875 265.625 1210
-31.25 437.5 1273
132.812 242.188 1470
203.125 -93.75 875
414.062 -148.438 862
-132.812 140.625 894
70.3125 289.062 1181
218.75 93.75 954
171.875 -125 871
31.25 -148.438 998
-460.938 -179.688 2184
23.4375 242.188 1010
359.375 -171.875 871
-109.375 210.938 956
54.6875 -289.062 891
93.75 273.438 1193
164.062 195.312 1022
-78.125 273.438 1010
148.438 195.312 1019
125 46.875 843
23.4375 234.375 1010
-70.3125 93.75 833
46.875 -132.812 978
-289.062 429.688 1557
-320.312 -62.5 967
-7.8125 281.25 1202
140.625 257.812 1197
250 179.688 1031
375 -148.438 923
54.6875 257.812 1210
85.9375 218.75 1016
-492.188 -445.312 2005
-117.188 203.125 946
-54.6875 367.188 1130
171.875 187.5 1019
304.688 -132.812 843
23.4375 -164.062 970
218.75 -234.375 837
429.688 125 1523
-453.125 -382.812 2659
101.562 -281.25 854
-39.0625 250 1004
179.688 -257.812 815
0 250 1004
-46.875 375 1134
195.312 -234.375 847
453.125 -421.875 885
-31.25 242.188 1004
296.875 210.938 1214
85.9375 273.438 1189
101.562 242.188 1470
15.625 296.875 1181
164.062 -148.438 923
320.312 320.312 1312
226.562 -148.438 851
-460.938 -171.875 2198
257.812 15.625 860
132.812 210.938 1019
179.688 257.812 1197
46.875 -171.875 964
39.0625 296.875 1185
85.9375 226.562 1016
-70.3125 304.688 1060
296.875 -140.625 841
-445.312 -351.562 2659
226.562 203.125 1509
351.562 -140.625 856
-250 390.625 1609
140.625 265.625 1197
156.25 250 1197
265.625 -101.562 856
0 234.375 1004
-429.688 -156.25 2271
226.562 101.562 951
210.938 -101.562 869
-320.312 -156.25 1084
-210.938 359.375 1655
367.188 296.875 1312
289.062 187.5 1236
203.125 -109.375 860
-62.5 328.125 1073
-46.875 250 1004
-7.8125 242.188 1007
242.188 -351.562 915
-265.625 164.062 1970
132.812 -296.875 1016
7.8125 -281.25 938
210.938 210.938 1509
-304.688 304.688 1739
257.812 234.375 1210
226.562 234.375 1202
-23.4375 250 1004
234.375 234.375 1202
296.875 -367.188 975
-39.0625 414.062 1197
-31.25 -304.688 938
-46.875 289.062 1197
-7.8125 -289.062 923
281.25 343.75 1333
-15.625 304.688 1181
234.375 203.125 1227
164.062 -453.125 1206
-445.312 -210.938 2958
171.875 -359.375 970
78.125 -218.75 918
-70.3125 257.812 1001
-23.4375 273.438 1206
117.188 -203.125 896
-46.875 398.438 1181
171.875 -289.062 989
7.8125 242.188 1004
179.688 195.312 1025
-312.5 117.188 809
-93.75 437.5 1210
156.25 -289.062 1004
203.125 -132.812 858
460.938 -289.062 849
54.6875 -132.812 978
304.688 -359.375 962
281.25 -382.812 1001
117.188 218.75 1019
-93.75 273.438 1013
437.5 140.625 1503
148.438 257.812 1197
234.375 -242.188 831
132.812 -39.0625 880
-460.938 -398.438 2618
242.188 -367.188 1067
148.438 -359.375 978
195.312 242.188 1202
-406.25 -242.188 2933
140.625 234.375 1470
476.562 -273.438 827
85.9375 210.938 1013
-85.9375 -359.375 3037
-70.3125 296.875 1038
265.625 226.562 1206
171.875 39.0625 845
-125 179.688 925
281.25 156.25 1034
-226.562 296.875 1757
78.125 164.062 923
289.062 195.312 1236
390.625 -109.375 908
23.4375 -171.875 964
234.375 -140.625 851
15.625 -179.688 967
-445.312 -132.812 2256
93.75 406.25 1302
31.25 242.188 1010
-375 312.5 1748
320.312 203.125 1210
-54.6875 359.375 1112
328.125 140.625 1038
85.9375 250 1214
101.562 -304.688 1034
-109.375 218.75 959
93.75 -187.5 954
101.562 265.625 1193
250 -398.438 1041
23.4375 265.625 1202
195.312 187.5 1031
125 -164.062 940
414.062 296.875 1354
171.875 382.812 1312
-335.938 171.875 1970
203.125 -62.5 894
351.562 250 1206
218.75 234.375 1206
242.188 210.938 1227
117.188 140.625 959
460.938 -117.188 894
7.8125 -265.625 948
70.3125 -125 970
140.625 -273.438 827
101.562 250 1470
-78.125 312.5 1057
85.9375 -296.875 1028
-31.25 85.9375 835
367.188 187.5 1138
492.188 -132.812 894
-109.375 226.562 967
445.312 -359.375 920
23.4375 -156.25 1007
171.875 250 1197
171.875 -117.188 871
46.875 257.812 1210
7.8125 -296.875 915
492.188 -125 898
46.875 -140.625 973
273.438 -390.625 1016
375 140.625 1047
0 78.125 837
-476.562 -460.938 2503
390.625 117.188 1038
78.125 257.812 1214
-335.938 -226.562 1193
289.062 -101.562 856
281.25 304.688 1376
15.625 -250 954
390.625 -281.25 849
171.875 203.125 1025
-421.875 -296.875 2859
250 171.875 1034
70.3125 250 1214
54.6875 414.062 1302
-7.8125 250 1007
187.5 250 1193
-164.062 281.25 998
210.938 -242.188 839
312.5 -351.562 951
179.688 -351.562 956
-289.062 304.688 1731
140.625 46.875 845
117.188 398.438 1307
7.8125 296.875 1181
171.875 -351.562 964
39.0625 -164.062 967
-109.375 101.562 827
-132.812 148.438 901
171.875 -429.688 1214
-46.875 382.812 1149
273.438 -101.562 860
-15.625 429.688 1297
375 -132.812 928
351.562 179.688 1126
140.625 -367.188 989
93.75 250 1214
46.875 289.062 1181
351.562 132.812 1038
429.688 -15.625 875
-320.312 -234.375 1202
382.812 -117.188 915
-328.125 171.875 1959
359.375 -148.438 858
-140.625 132.812 887
-203.125 187.5 910
117.188 -367.188 998
-320.312 23.4375 882
15.625 -171.875 964
132.812 265.625 1202
-414.062 -242.188 2908
296.875 320.312 1354
-414.062 -250 2883
-46.875 367.188 1130
429.688 132.812 1503
257.812 -31.25 864
187.5 195.312 1031
250 -375 1047
218.75 -148.438 854
343.75 -234.375 943
257.812 -109.375 851
-54.6875 312.5 1421
242.188 171.875 1031
312.5 179.688 1227
-382.812 312.5 1748
-15.625 250 1007
-117.188 203.125 946
15.625 265.625 1197
210.938 -62.5 887
320.312 -343.75 938
-429.688 -187.5 2933
54.6875 140.625 940
171.875 195.312 1025
179.688 -406.25 1202
-15.625 273.438 1202
171.875 -281.25 823
-54.6875 343.75 1105
429.688 -250 813
492.188 78.125 1433
250 -125 851
117.188 203.125 1013
39.0625 -187.5 946
125 265.625 1202
-351.562 -257.812 2958
78.125 218.75 1016
62.5 218.75 1010
312.5 328.125 1333
265.625 203.125 1236
0 296.875 1181
429.688 -31.25 875
31.25 -148.438 998
390.625 0 938
-132.812 156.25 906
226.562 -117.188 847
31.25 226.562 1010
304.688 -445.312 1108
125 273.438 1185
46.875 -367.188 1016
-492.188 -406.25 1926
0 -273.438 946
304.688 320.312 1349
117.188 -281.25 843
203.125 101.562 959
70.3125 273.438 1185
-132.812 140.625 894
273.438 195.312 1241
15.625 242.188 1010
281.25 273.438 1410
-500 -187.5 2908
242.188 -210.938 829
-203.125 101.562 817
453.125 -257.812 817
156.25 -195.312 906
203.125 242.188 1202
156.25 265.625 1193
78.125 226.562 1013
437.5 -15.625 1794
39.0625 -406.25 3037
203.125 179.688 1028
-492.188 -460.938 2078
7.8125 -226.562 984
31.25 289.062 1185
210.938 -437.5 1119
109.375 250 1477
351.562 -46.875 867
-31.25 242.188 1004
484.375 -265.625 819
171.875 -101.562 878
250 -117.188 851
132.812 242.188 1470
-320.312 -226.562 1185
-320.312 7.8125 901
-382.812 -250 2958
-70.3125 296.875 1038
78.125 281.25 1189
-429.688 -304.688 2789
-406.25 312.5 1748
359.375 -304.688 882
31.25 -296.875 906
-39.0625 85.9375 835
195.312 375 1317
-257.812 164.062 1970
-429.688 -296.875 2767
101.562 281.25 1193
148.438 390.625 1312
62.5 234.375 1004
179.688 -398.438 1214
54.6875 -281.25 887
421.875 -203.125 827
382.812 46.875 970
304.688 210.938 1214
218.75 218.75 1496
46.875 -171.875 964
-125 179.688 925
234.375 226.562 1214
335.938 -328.125 918
125 -203.125 894
70.3125 289.062 1181
164.062 -265.625 819
210.938 218.75 1503
312.5 210.938 1210
351.562 304.688 1268
46.875 234.375 1016
257.812 -257.812 837
-15.625 -296.875 925
304.688 -320.312 967
-117.188 390.625 1130
31.25 -289.062 901
-78.125 265.625 1010
70.3125 226.562 1013
390.625 93.75 1019
117.188 210.938 1019
476.562 46.875 1483
-7.8125 -125 981
-320.312 -23.4375 930
93.75 54.6875 839
226.562 187.5 1028
187.5 -156.25 880
46.875 226.562 1013
390.625 -156.25 891
281.25 -125 845
187.5 -437.5 1157
-421.875 -273.438 2835
367.188 -296.875 873
-85.9375 281.25 1022
-320.312 -109.375 1022
210.938 -101.562 869
132.812 390.625 1312
148.438 -367.188 978
-156.25 296.875 1013
-445.312 -195.312 2184
234.375 -414.062 1067
210.938 -257.812 819
93.75 226.562 1509
-320.312 -242.188 1210
414.062 -359.375 933
296.875 187.5 1236
445.312 164.062 1496
132.812 -195.312 891
187.5 -265.625 815
39.0625 234.375 1010
234.375 242.188 1202
46.875 -15.625 869
-31.25 257.812 1004
242.188 359.375 1322
187.5 -78.125 908
148.438 132.812 959
-187.5 226.562 946
375 85.9375 1004
453.125 -265.625 823
210.938 -93.75 871
85.9375 218.75 1016
304.688 -304.688 973
359.375 -39.0625 862
-421.875 -289.062 2859
218.75 -273.438 825
-210.938 296.875 1739
289.062 -375 992
-62.5 250 1001
421.875 -7.8125 935
62.5 39.0625 833
226.562 -281.25 829
218.75 85.9375 948
-54.6875 257.812 1007
273.438 39.0625 928
242.188 -375 1067
406.25 7.8125 943
0 304.688 1181
93.75 273.438 1193
375 -250 871
437.5 -7.8125 1739
-398.438 312.5 1748
-273.438 117.188 809
-210.938 -406.25 2859
148.438 195.312 1022
281.25 -179.688 835
304.688 -359.375 973
-31.25 281.25 1464
-476.562 -445.312 2450
468.75 132.812 1433
210.938 -15.625 849
234.375 -132.812 849
-421.875 -187.5 2241
-296.875 125 811
398.438 -132.812 910
289.062 -140.625 843
164.062 -437.5 1264
117.188 218.75 1025
218.75 -156.25 860
-453.125 -328.125 2680
398.438 -117.188 910
-62.5 265.625 1489
148.438 210.938 1523
164.062 257.812 1452
234.375 -390.625 1123
-46.875 320.312 1415
164.062 -195.312 915
-39.0625 312.5 1427
343.75 218.75 1185
23.4375 257.812 1489
132.812 -273.438 837
93.75 210.938 1010
-54.6875 359.375 1119
15.625 -187.5 975
7.8125 429.688 1292
257.812 234.375 1464
-46.875 304.688 1439
46.875 -132.812 975
62.5 -156.25 962
414.062 101.562 1609
93.75 -195.312 948
-109.375 218.75 964
242.188 -132.812 851
-23.4375 250 1010
54.6875 -171.875 962
54.6875 -164.062 970
-125 375 1112
-359.375 -257.812 2984
359.375 -171.875 862
273.438 289.062 1398
39.0625 -195.312 956
109.375 -203.125 946
85.9375 -375 1022
171.875 -109.375 935
-46.875 406.25 1185
328.125 -242.188 878
-406.25 -210.938 2958
-429.688 -312.5 2744
109.375 273.438 1445
195.312 -210.938 873
-125 164.062 918
281.25 -296.875 841
164.062 -375 978
78.125 164.062 970
257.812 164.062 1034
195.312 -101.562 887
351.562 -203.125 860
-117.188 203.125 948
-468.75 -437.5 2415
46.875 -156.25 981
179.688 250 1452
23.4375 -359.375 995
7.8125 -296.875 925
93.75 -210.938 956
203.125 195.312 1543
179.688 -414.062 1250
210.938 210.938 1503
-289.062 312.5 1722
-125 171.875 923
273.438 234.375 1458
375 156.25 1108
54.6875 -218.75 951
-15.625 -312.5 938
320.312 -343.75 948
187.5 226.562 1489
484.375 -273.438 819
359.375 -156.25 858
46.875 -226.562 984
23.4375 273.438 1470
140.625 -359.375 989
343.75 -320.312 915
-265.625 -414.062 2789
-15.625 -304.688 938
304.688 -250 835
226.562 171.875 1028
281.25 -101.562 860
-23.4375 281.25 1470
-429.688 -93.75 2349
117.188 -312.5 1031
-367.188 -257.812 2958
234.375 171.875 1031
382.812 39.0625 964
-15.625 312.5 1427
226.562 -421.875 1105
-265.625 164.062 1981
-367.188 312.5 1739
31.25 242.188 1016
-195.312 343.75 1671
226.562 117.188 935
281.25 -281.25 851
257.812 -398.438 1041
445.312 -117.188 887
54.6875 -226.562 975
312.5 -351.562 956
31.25 -234.375 989
382.812 -234.375 894
203.125 -265.625 819
296.875 -367.188 981
70.3125 -234.375 933
-414.062 -250 2883
85.9375 -203.125 946
171.875 -351.562 970
23.4375 -156.25 1010
85.9375 250 1483
265.625 -343.75 906
398.438 62.5 995
226.562 179.688 1028
218.75 -429.688 1123
218.75 -148.438 856
-281.25 304.688 1739
-125 109.375 833
414.062 -140.625 880
-320.312 304.688 1748
85.9375 -281.25 875
78.125 -203.125 943
-304.688 -250 1219
15.625 -351.562 989
15.625 304.688 1433
-351.562 -265.625 2958
226.562 -62.5 889
359.375 132.812 1038
-132.812 156.25 910
101.562 -179.688 948
140.625 -289.062 835
-62.5 343.75 1097
-390.625 312.5 1748
46.875 257.812 1483
-445.312 -390.625 2618
156.25 -265.625 823
39.0625 -164.062 978
156.25 -257.812 823
257.812 -117.188 854
-468.75 -398.438 2212
421.875 -257.812 817
179.688 -85.9375 913
-140.625 132.812 891
140.625 -156.25 943
46.875 265.625 1477
78.125 250 1489
117.188 -156.25 995
54.6875 218.75 1013
367.188 195.312 1149
250 -140.625 851
15.625 265.625 1477
320.312 -156.25 841
382.812 179.688 1219
375 -125 930
195.312 -265.625 817
-203.125 296.875 1748
406.25 -257.812 835
46.875 296.875 1433
7.8125 242.188 1010
429.688 179.688 1496
351.562 -312.5 906
484.375 -125 896
367.188 -156.25 858
-164.062 296.875 1731
304.688 -312.5 854
390.625 15.625 948
250 179.688 1031
226.562 -164.062 860
109.375 -367.188 1013
125 265.625 1445
-78.125 296.875 1044
-7.8125 281.25 1470
-15.625 273.438 1470
242.188 210.938 1496
320.312 210.938 1214
250 -117.188 849
-171.875 296.875 1739
0 -273.438 962
328.125 -335.938 935
-492.188 -328.125 1970
-500 -328.125 1947
242.188 203.125 1496
406.25 0 940
250 171.875 1031
117.188 265.625 1445
312.5 -320.312 869
390.625 -437.5 923
31.25 234.375 1016
171.875 -117.188 882
117.188 -304.688 1031
273.438 226.562 1470
421.875 -250 817
70.3125 -210.938 946
179.688 226.562 1489
7.8125 -304.688 923
187.5 187.5 1031
85.9375 -195.312 946
-46.875 390.625 1165
-328.125 171.875 1959
132.812 -367.188 998
-109.375 234.375 975
304.688 -296.875 862
-359.375 312.5 1739
7.8125 -257.812 956
-320.312 171.875 1959
132.812 -296.875 837
46.875 -367.188 1010
398.438 -265.625 843
-15.625 -296.875 935
0 250 1503
351.562 -195.312 858
218.75 23.4375 856
242.188 179.688 1028
-273.438 304.688 1739
125 -304.688 1031
148.438 -195.312 923
359.375 -140.625 854
31.25 265.625 1470
-289.062 414.062 1586
85.9375 164.062 928
-85.9375 265.625 1010
375 -289.062 875
-132.812 148.438 906
62.5 226.562 1013
23.4375 -234.375 989
-78.125 273.438 1019
390.625 -273.438 856
-125 171.875 923
203.125 -445.312 1153
359.375 -187.5 864
382.812 164.062 1112
226.562 187.5 1529
-460.938 -414.062 2503
0 242.188 1007
-23.4375 437.5 1236
-39.0625 312.5 1427
382.812 -281.25 862
62.5 -125 964
93.75 -187.5 946
148.438 257.812 1452
-132.812 140.625 901
476.562 140.625 1433
-437.5 -304.688 2744
218.75 -351.562 940
-375 312.5 1748
203.125 -109.375 878
-257.812 398.438 1594
398.438 -109.375 910
234.375 -375 1130
390.625 -15.625 869
273.438 -140.625 845
-492.188 -445.312 1936
156.25 203.125 1022
15.625 -359.375 992
-429.688 -226.562 2933
-148.438 320.312 1047
367.188 -296.875 882
140.625 242.188 1483
-257.812 164.062 1970
351.562 257.812 1219
281.25 218.75 1398
359.375 -226.562 867
125 203.125 1016
343.75 -140.625 854
-31.25 281.25 1464
179.688 -445.312 1227
-375 -250 2984
171.875 -101.562 928
265.625 -390.625 1034
195.312 -101.562 887
406.25 15.625 954
203.125 195.312 1543
46.875 -156.25 981
203.125 242.188 1470
429.688 -109.375 889
23.4375 -289.062 915
-437.5 -109.375 2333
117.188 273.438 1445
-109.375 226.562 970
390.625 -398.438 943
226.562 -351.562 930
62.5 234.375 1516
257.812 -101.562 856
218.75 0 847
70.3125 414.062 1302
-460.938 -406.25 2560
343.75 -320.312 915
-117.188 195.312 943
242.188 -390.625 1094
242.188 -398.438 1044
54.6875 265.625 1470
343.75 -156.25 851
109.375 273.438 1445
296.875 273.438 1398
-421.875 -273.438 2812
-117.188 210.938 956
-460.938 -398.438 2579
-453.125 -359.375 2618
171.875 -453.125 1241
164.062 -437.5 1264
335.938 257.812 1232
140.625 -148.438 981
-85.9375 -335.938 1307
93.75 226.562 1516
-296.875 304.688 1748
210.938 250 1458
179.688 -171.875 908
15.625 -164.062 1016
195.312 -257.812 817
-453.125 -148.438 2256
70.3125 257.812 1477
93.75 210.938 1010
351.562 171.875 1138
187.5 218.75 1496
-54.6875 312.5 1433
226.562 -156.25 860
46.875 -171.875 970
-281.25 164.062 1981
-218.75 367.188 1647
70.3125 281.25 1445
351.562 273.438 1232
-382.812 179.688 1981
171.875 -140.625 923
195.312 -218.75 873
164.062 -281.25 827
156.25 -289.062 829
406.25 -257.812 835
-312.5 125 811
179.688 250 1452
-78.125 320.312 1067
-429.688 -351.562 2744
-398.438 242.188 1863
31.25 -289.062 910
-85.9375 296.875 1041
-39.0625 -312.5 948
375 -242.188 898
-476.562 -390.625 2129
78.125 257.812 1477
296.875 -250 833
-195.312 296.875 1748
101.562 -171.875 951
-250 164.062 1970
39.0625 -140.625 989
-39.0625 -226.562 1105
195.312 -226.562 894
265.625 234.375 1464
-15.625 250 1010
-414.062 -234.375 2883
148.438 203.125 1022
226.562 242.188 1464
226.562 179.688 1028
234.375 234.375 1464
359.375 -304.688 896
78.125 140.625 948
390.625 -414.062 938
187.5 242.188 1470
312.5 -109.375 858
414.062 -250 825
-406.25 304.688 1757
382.812 31.25 959
164.062 257.812 1452
351.562 -156.25 856
382.812 -156.25 928
15.625 -171.875 1025
171.875 -281.25 825
140.625 -296.875 835
390.625 -406.25 943
23.4375 -156.25 1010
23.4375 242.188 1016
289.062 195.312 1376
257.812 -179.688 843
-218.75 -304.688 1297
-468.75 -187.5 2184
226.562 210.938 1503
117.188 -296.875 854
226.562 -132.812 849
164.062 -351.562 975
234.375 -351.562 925
148.438 -289.062 829
85.9375 -195.312 946
171.875 -125 880
304.688 210.938 1292
273.438 -382.812 1022
273.438 195.312 1398
31.25 234.375 1016
445.312 -7.8125 1731
187.5 -70.3125 898
390.625 -375 959
54.6875 70.3125 839
257.812 -234.375 829
398.438 -421.875 930
23.4375 265.625 1477
0 -281.25 956
265.625 -226.562 829
117.188 54.6875 845
210.938 101.562 962
-468.75 -429.688 2381
46.875 -132.812 975
242.188 -234.375 829
250 -203.125 847
250 234.375 1464
195.312 226.562 1496
7.8125 234.375 1010
140.625 -195.312 928
304.688 -117.188 849
-265.625 304.688 1731
