ply
format ascii 1.0
comment Created by Open3D
element vertex 2341
property double x
property double y
property double z
end_header
-335.938 -390.625 2958
-492.188 -375 2226
-70.3125 -179.688 906
335.938 39.0625 843
70.3125 -46.875 962
-328.125 -296.875 3064
-414.062 54.6875 1101
85.9375 -210.938 887
101.562 -406.25 2835
-335.938 406.25 1268
85.9375 -148.438 913
-218.75 132.812 898
367.188 132.812 813
460.938 382.812 938
85.9375 -195.312 891
-320.312 -164.062 1509
-132.812 234.375 935
-390.625 375 1307
320.312 23.4375 878
-234.375 93.75 954
-273.438 -117.188 1115
156.25 -265.625 1038
-382.812 171.875 981
-414.062 390.625 1283
148.438 -218.75 1038
-429.688 -414.062 2485
-15.625 -140.625 918
-23.4375 -179.688 901
-281.25 46.875 967
-398.438 312.5 1007
156.25 -257.812 1044
46.875 -273.438 1057
-500 195.312 956
-367.188 54.6875 954
-335.938 164.062 938
-335.938 -375 2933
335.938 54.6875 843
-500 -148.438 1483
-289.062 421.875 1255
421.875 117.188 807
-218.75 -187.5 3365
70.3125 -289.062 1063
-382.812 54.6875 967
7.8125 -125 928
-421.875 -23.4375 951
-15.625 242.188 925
-39.0625 -46.875 967
-320.312 70.3125 920
-265.625 421.875 1250
125 -250 1034
-335.938 -406.25 2958
296.875 218.75 871
-304.688 -210.938 3333
-335.938 -398.438 2958
-343.75 -398.438 2933
-70.3125 -70.3125 948
-320.312 62.5 920
85.9375 -171.875 901
-265.625 -101.562 1080
-304.688 414.062 1264
-398.438 117.188 948
-54.6875 -296.875 1077
476.562 -31.25 970
328.125 46.875 845
-250 15.625 956
492.188 46.875 862
125 -226.562 1041
-171.875 335.938 1028
148.438 -226.562 1034
-382.812 164.062 984
492.188 15.625 908
-359.375 -453.125 2933
-406.25 70.3125 1101
-296.875 0 946
-437.5 -187.5 2503
78.125 -335.938 1097
-39.0625 -335.938 1087
125 -203.125 1022
-367.188 140.625 946
-234.375 109.375 954
296.875 382.812 1496
-70.3125 -187.5 903
484.375 -7.8125 935
15.625 -367.188 1054
85.9375 -140.625 915
-78.125 -265.625 1105
-70.3125 -125 933
-320.312 382.812 1297
85.9375 -179.688 896
85.9375 -187.5 896
31.25 -187.5 896
-320.312 -226.562 3208
-70.3125 -179.688 906
46.875 -312.5 1060
203.125 -164.062 956
304.688 31.25 854
-390.625 156.25 951
-226.562 265.625 925
85.9375 -218.75 887
-335.938 -312.5 3037
-437.5 -85.9375 1060
132.812 -226.562 1034
234.375 -101.562 1022
-476.562 148.438 1001
-453.125 -218.75 2450
320.312 31.25 858
85.9375 -164.062 906
-257.812 117.188 943
85.9375 -156.25 908
-500 367.188 1193
-320.312 -234.375 3178
-320.312 -234.375 3178
-414.062 218.75 943
-226.562 62.5 885
390.625 -7.8125 925
289.062 -210.938 1292
-39.0625 -54.6875 964
-179.688 -23.4375 978
-210.938 304.688 1001
-328.125 414.062 1259
-101.562 -179.688 1219
-31.25 -281.25 1063
-289.062 117.188 930
-445.312 -171.875 1516
78.125 -62.5 956
-15.625 -187.5 896
-265.625 15.625 943
492.188 234.375 856
-250 382.812 1087
-312.5 62.5 933
-453.125 382.812 1283
-437.5 359.375 1123
54.6875 -296.875 1060
-343.75 132.812 930
-468.75 -179.688 3503
304.688 62.5 869
343.75 7.8125 882
-390.625 148.438 946
-390.625 54.6875 1080
-328.125 -156.25 1489
-312.5 31.25 925
-343.75 156.25 951
429.688 367.188 951
359.375 -23.4375 901
476.562 140.625 803
429.688 -148.438 1153
-320.312 -312.5 3037
-195.312 7.8125 943
39.0625 -54.6875 959
85.9375 -195.312 891
39.0625 -171.875 903
-335.938 -289.062 3064
-296.875 -140.625 1149
-429.688 -210.938 2450
-304.688 203.125 951
-335.938 -382.812 2933
109.375 -265.625 1034
-359.375 -250 3269
-375 39.0625 970
-335.938 -421.875 2908
-218.75 54.6875 894
-218.75 54.6875 894
156.25 -203.125 1031
0 390.625 1572
117.188 -250 1041
-31.25 -93.75 946
85.9375 -226.562 896
85.9375 -210.938 887
492.188 -93.75 1354
-429.688 -226.562 2415
85.9375 -117.188 928
23.4375 -117.188 930
-218.75 281.25 923
-414.062 343.75 1112
-203.125 -148.438 1470
85.9375 -148.438 913
-281.25 -109.375 1112
-187.5 -7.8125 959
-210.938 39.0625 908
117.188 -156.25 1016
-242.188 -23.4375 970
-375 117.188 951
-203.125 351.562 1041
-421.875 31.25 1067
-125 289.062 918
-171.875 -39.0625 998
-289.062 398.438 1543
-70.3125 -171.875 906
-351.562 31.25 925
78.125 -93.75 938
-320.312 -218.75 3238
-335.938 -351.562 3010
250 406.25 1410
242.188 -140.625 998
242.188 -140.625 998
-492.188 -390.625 2184
-101.562 406.25 1404
-234.375 15.625 959
343.75 54.6875 843
-414.062 62.5 1105
-328.125 -281.25 3120
-398.438 -46.875 959
0 -125 928
-70.3125 -164.062 913
-203.125 23.4375 925
-335.938 -414.062 2958
328.125 0 880
54.6875 414.062 1529
-23.4375 -179.688 901
-320.312 -187.5 3269
-335.938 -359.375 2933
-390.625 140.625 943
85.9375 398.438 1458
-484.375 -320.312 2333
46.875 -304.688 1054
-328.125 -320.312 3064
-500 -328.125 2317
-62.5 -54.6875 967
-179.688 421.875 1161
-312.5 -265.625 3238
-375 109.375 948
-289.062 15.625 938
328.125 312.5 867
-23.4375 -125 928
117.188 -242.188 1047
-429.688 -62.5 1034
148.438 -187.5 970
117.188 -273.438 1038
242.188 429.688 1392
164.062 -195.312 1031
-31.25 -78.125 948
-351.562 85.9375 928
-234.375 101.562 954
0 -148.438 915
62.5 -62.5 956
-429.688 296.875 1025
101.562 -281.25 1087
-242.188 39.0625 970
-23.4375 -93.75 946
-54.6875 -148.438 918
-375 62.5 948
-328.125 -312.5 3064
-367.188 140.625 948
-328.125 -242.188 3149
375 390.625 1134
421.875 390.625 962
109.375 -273.438 1038
31.25 -218.75 891
-335.938 -296.875 3092
-164.062 -171.875 3300
-390.625 351.562 1105
-429.688 -93.75 1080
-328.125 -296.875 3120
31.25 -296.875 1054
-375 46.875 970
-70.3125 -179.688 906
-375 54.6875 967
-23.4375 -320.312 1063
437.5 132.812 805
46.875 -242.188 906
-93.75 429.688 1227
-187.5 335.938 1022
-367.188 31.25 928
132.812 281.25 894
-500 -335.938 2256
-23.4375 -171.875 906
54.6875 -195.312 891
304.688 7.8125 889
-117.188 437.5 1241
-101.562 414.062 1241
289.062 -23.4375 915
-429.688 -406.25 2503
-328.125 -351.562 3010
-39.0625 -265.625 1067
-328.125 -234.375 3208
390.625 -15.625 925
85.9375 -187.5 896
328.125 -7.8125 882
23.4375 -125 925
-304.688 -250 3269
-218.75 54.6875 894
0 398.438 1572
460.938 351.562 858
-398.438 109.375 954
-382.812 46.875 970
78.125 265.625 908
492.188 0 925
-164.062 414.062 1130
421.875 195.312 841
140.625 414.062 1404
-343.75 -218.75 3269
-250 101.562 946
148.438 195.312 878
132.812 -195.312 987
-62.5 -23.4375 978
148.438 445.312 1365
476.562 -78.125 1028
-429.688 -54.6875 1016
-351.562 93.75 928
-257.812 31.25 948
-453.125 -281.25 2365
-367.188 296.875 1025
140.625 -187.5 981
-359.375 -406.25 2984
-117.188 429.688 1241
-351.562 406.25 1273
-437.5 -250 2415
-242.188 -70.3125 1007
-62.5 -46.875 970
-421.875 -39.0625 964
-296.875 -62.5 1157
85.9375 -109.375 930
39.0625 -46.875 964
-289.062 390.625 1572
-398.438 117.188 948
-312.5 390.625 1297
0 -78.125 951
125 -250 1034
-382.812 -382.812 2908
-414.062 54.6875 1070
-421.875 -343.75 2560
-328.125 -304.688 3092
-304.688 -203.125 3365
-234.375 406.25 1529
78.125 406.25 1439
-367.188 117.188 946
-328.125 85.9375 925
-468.75 273.438 1054
-500 320.312 1119
281.25 406.25 1516
-328.125 367.188 1097
-445.312 -179.688 2503
85.9375 -179.688 898
492.188 242.188 860
-242.188 -23.4375 964
85.9375 -117.188 928
-265.625 -179.688 3399
-250 7.8125 959
312.5 23.4375 854
445.312 -109.375 1087
-421.875 -31.25 948
-500 -437.5 2170
78.125 -289.062 1070
-257.812 15.625 948
226.562 398.438 1421
-273.438 210.938 948
-15.625 -187.5 896
-234.375 7.8125 962
414.062 -195.312 1264
-62.5 -265.625 1087
-250 -187.5 3365
85.9375 429.688 1421
-492.188 -351.562 2241
-421.875 23.4375 1070
-242.188 109.375 948
-70.3125 -156.25 918
-265.625 -187.5 3365
484.375 250 862
-320.312 -226.562 3238
-437.5 -85.9375 1073
-257.812 382.812 1087
-46.875 -132.812 925
-281.25 429.688 1259
-78.125 414.062 1523
85.9375 -203.125 889
250 -187.5 978
437.5 390.625 943
-335.938 390.625 1292
-210.938 304.688 1004
140.625 429.688 1376
328.125 31.25 854
-296.875 398.438 1543
-203.125 335.938 1028
468.75 -54.6875 1004
62.5 -117.188 928
85.9375 -171.875 903
-250 62.5 951
-101.562 -179.688 1219
-70.3125 -23.4375 978
-335.938 -398.438 2933
312.5 62.5 867
85.9375 -93.75 938
492.188 140.625 798
-382.812 15.625 928
398.438 390.625 1041
-70.3125 406.25 1543
-70.3125 -156.25 918
-257.812 406.25 1536
-320.312 -242.188 3238
132.812 -210.938 1041
312.5 39.0625 856
-492.188 -382.812 2256
-23.4375 -234.375 913
367.188 -414.062 2639
-335.938 -320.312 3037
-367.188 132.812 946
-31.25 390.625 1557
-242.188 429.688 1250
78.125 -320.312 1077
31.25 -54.6875 959
-242.188 382.812 1087
117.188 -273.438 1038
-320.312 367.188 1094
101.562 -234.375 1105
-265.625 -85.9375 1070
-390.625 140.625 943
-23.4375 -70.3125 954
-335.938 -437.5 2908
-375 140.625 946
-320.312 414.062 1259
-304.688 -187.5 3365
421.875 140.625 811
-343.75 382.812 1292
0 -273.438 1057
343.75 -46.875 898
-218.75 54.6875 894
-265.625 -101.562 1077
-273.438 398.438 1536
-320.312 -234.375 3238
414.062 -187.5 1236
195.312 -226.562 1063
-242.188 31.25 967
-328.125 -250 3149
54.6875 421.875 1516
-210.938 39.0625 908
-429.688 -429.688 2450
312.5 54.6875 860
-367.188 304.688 1025
-359.375 70.3125 940
-23.4375 -179.688 903
-343.75 156.25 948
-406.25 367.188 1307
492.188 7.8125 920
-398.438 398.438 1268
156.25 320.312 889
70.3125 -312.5 1067
-437.5 -109.375 1087
-359.375 382.812 1307
164.062 -226.562 1054
-23.4375 -218.75 896
-312.5 179.688 978
-351.562 359.375 1097
-210.938 296.875 995
-367.188 382.812 1288
-179.688 382.812 1073
-289.062 7.8125 946
85.9375 -164.062 906
-492.188 -289.062 2365
-195.312 218.75 946
281.25 15.625 918
-429.688 -62.5 1028
-250 -78.125 1025
-445.312 351.562 1126
-281.25 375 1087
-132.812 320.312 1219
304.688 54.6875 860
171.875 -179.688 962
-54.6875 398.438 1529
-296.875 414.062 1259
335.938 -7.8125 885
-218.75 414.062 1516
140.625 -250 1028
15.625 -148.438 915
-70.3125 -296.875 1097
-62.5 -31.25 981
-234.375 -62.5 995
-343.75 -304.688 3092
-359.375 398.438 1268
-187.5 343.75 1031
-429.688 -117.188 1108
-398.438 109.375 948
-304.688 390.625 1292
164.062 -203.125 1038
164.062 -195.312 964
-218.75 429.688 1245
-359.375 62.5 940
179.688 -187.5 962
164.062 -210.938 1060
-195.312 7.8125 943
85.9375 -62.5 956
351.562 7.8125 887
-296.875 -70.3125 1161
-359.375 -62.5 1138
-382.812 164.062 989
-445.312 382.812 1288
-195.312 414.062 1523
117.188 -250 1044
156.25 -195.312 975
-62.5 -70.3125 959
-406.25 -351.562 2680
-187.5 437.5 1241
-234.375 15.625 959
296.875 -7.8125 901
-382.812 351.562 1101
62.5 -250 1067
-445.312 210.938 948
-375 54.6875 956
85.9375 -304.688 1073
-257.812 421.875 1255
-265.625 421.875 1255
-234.375 -39.0625 973
-320.312 -281.25 3149
-328.125 -289.062 3120
234.375 414.062 1410
-351.562 -398.438 2984
-312.5 -203.125 3300
335.938 70.3125 860
-429.688 -421.875 2503
-296.875 7.8125 943
-265.625 429.688 1250
-398.438 93.75 1063
39.0625 312.5 898
-203.125 328.125 1025
-429.688 -414.062 2467
242.188 429.688 1392
85.9375 445.312 1398
-15.625 -62.5 959
234.375 421.875 1398
-257.812 109.375 940
460.938 -78.125 1038
-62.5 -62.5 959
-367.188 359.375 1101
62.5 -242.188 910
242.188 445.312 1359
156.25 -187.5 975
-234.375 164.062 998
-359.375 375 1307
140.625 -187.5 981
-421.875 23.4375 1067
-250 7.8125 956
-234.375 7.8125 956
-492.188 -375 2241
-500 -179.688 3365
85.9375 -226.562 898
85.9375 -31.25 970
-23.4375 -85.9375 948
-367.188 125 946
-390.625 367.188 1312
-289.062 375 1090
-226.562 -171.875 3399
-390.625 31.25 1004
-351.562 375 1097
-437.5 -93.75 1084
-445.312 375 1288
-289.062 148.438 935
445.312 375 930
265.625 -15.625 956
148.438 437.5 1381
-23.4375 242.188 928
-359.375 -375 2835
-445.312 -187.5 2485
85.9375 -257.812 1073
382.812 140.625 813
93.75 -234.375 898
-132.812 203.125 935
-500 -343.75 2286
-210.938 -187.5 3365
-164.062 406.25 1126
-296.875 -7.8125 940
85.9375 -46.875 962
31.25 -171.875 903
85.9375 -39.0625 967
-421.875 -39.0625 975
-359.375 -390.625 2958
-31.25 398.438 1550
382.812 132.812 811
437.5 -132.812 1123
437.5 343.75 851
-265.625 132.812 935
-140.625 -93.75 1077
226.562 -78.125 1031
-421.875 -351.562 2541
343.75 367.188 1283
117.188 -148.438 1063
296.875 -23.4375 913
234.375 -117.188 1010
-101.562 85.9375 862
-328.125 -312.5 3064
-78.125 -265.625 1112
-15.625 -226.562 901
-156.25 78.125 871
85.9375 -156.25 913
-304.688 31.25 928
-210.938 289.062 992
-195.312 289.062 987
-203.125 343.75 1034
7.8125 304.688 901
-242.188 23.4375 959
-296.875 23.4375 933
-195.312 93.75 878
164.062 -218.75 1054
-335.938 23.4375 928
-398.438 375 1312
-62.5 -54.6875 967
-320.312 -304.688 3149
54.6875 -54.6875 959
54.6875 320.312 898
-54.6875 296.875 908
-320.312 -320.312 3064
156.25 398.438 1421
-335.938 -406.25 2984
-367.188 132.812 948
164.062 398.438 1433
-328.125 382.812 1297
-320.312 -242.188 3208
78.125 -179.688 901
-93.75 218.75 938
140.625 -257.812 1028
-335.938 -242.188 3208
-421.875 15.625 1070
234.375 -93.75 1022
-390.625 140.625 943
-273.438 -93.75 1090
-460.938 289.062 1073
-484.375 -312.5 2349
-500 -351.562 2271
-289.062 179.688 978
351.562 31.25 841
-46.875 -39.0625 973
-62.5 -39.0625 978
70.3125 -140.625 918
453.125 -85.9375 1054
-289.062 -140.625 1145
-218.75 70.3125 878
296.875 7.8125 896
140.625 382.812 1439
-343.75 93.75 925
-320.312 164.062 940
-414.062 -265.625 2450
-320.312 -171.875 1509
273.438 46.875 887
-54.6875 -203.125 894
-335.938 -414.062 2984
-70.3125 -171.875 908
-328.125 -273.438 3120
0 -203.125 891
-46.875 -265.625 1070
-226.562 429.688 1250
-78.125 -273.438 1108
140.625 -210.938 1041
54.6875 -132.812 923
23.4375 -54.6875 962
54.6875 -148.438 915
-265.625 140.625 938
148.438 -265.625 1025
-492.188 -359.375 2271
-484.375 -343.75 2349
281.25 31.25 869
-367.188 179.688 975
-289.062 7.8125 946
15.625 -265.625 1054
-39.0625 226.562 930
414.062 257.812 906
31.25 -117.188 928
328.125 7.8125 880
-242.188 132.812 948
125 -218.75 1038
-62.5 -85.9375 948
-265.625 46.875 967
-375 171.875 984
-320.312 203.125 954
-281.25 -46.875 981
-179.688 437.5 1157
-359.375 359.375 1105
-203.125 390.625 1077
-203.125 390.625 1077
-39.0625 -312.5 1070
-304.688 125 928
-414.062 -7.8125 938
140.625 -265.625 1025
156.25 -203.125 1031
39.0625 -179.688 898
351.562 0 889
-328.125 -242.188 3208
-203.125 23.4375 920
-210.938 320.312 1019
484.375 250 862
-351.562 -351.562 2812
343.75 250 882
-203.125 -187.5 3365
-414.062 46.875 1073
-382.812 164.062 989
-351.562 304.688 1028
85.9375 -54.6875 959
125 210.938 889
117.188 -257.812 1041
-429.688 210.938 946
312.5 46.875 856
-23.4375 -242.188 913
-335.938 -335.938 3010
-234.375 -39.0625 973
-62.5 -101.562 943
421.875 359.375 989
78.125 -39.0625 967
85.9375 -101.562 935
-484.375 -351.562 2286
-328.125 15.625 935
-367.188 46.875 967
125 320.312 896
-226.562 46.875 906
-484.375 -328.125 2349
15.625 -117.188 930
234.375 398.438 1415
78.125 437.5 1404
-250 398.438 1543
-398.438 7.8125 933
-320.312 -187.5 3269
-203.125 437.5 1236
-70.3125 -62.5 959
-156.25 -62.5 1034
-54.6875 -234.375 915
85.9375 406.25 1439
-414.062 304.688 1025
-31.25 -85.9375 948
125 -257.812 1034
-351.562 -414.062 2984
-476.562 335.938 1115
-148.438 -78.125 1060
-390.625 132.812 946
-70.3125 -179.688 906
242.188 421.875 1398
-62.5 -70.3125 959
-320.312 -250 3178
351.562 15.625 885
-398.438 101.562 954
39.0625 -226.562 898
39.0625 -171.875 903
164.062 -210.938 1060
-62.5 -148.438 920
-93.75 226.562 943
-15.625 312.5 903
250 437.5 1370
421.875 -171.875 1210
-359.375 148.438 948
-359.375 148.438 948
54.6875 312.5 898
-281.25 421.875 1255
-171.875 312.5 1041
-335.938 -429.688 2933
-492.188 -398.438 2256
109.375 -273.438 1038
-296.875 421.875 1259
351.562 359.375 1259
289.062 0 918
-210.938 406.25 1094
-414.062 359.375 1123
54.6875 -296.875 1057
93.75 -218.75 894
-492.188 -406.25 2256
31.25 -226.562 898
-257.812 -31.25 959
-406.25 70.3125 1097
-54.6875 -250 1084
-31.25 -132.812 925
-234.375 7.8125 959
-414.062 54.6875 1115
-328.125 164.062 943
70.3125 445.312 1445
242.188 390.625 1445
-421.875 -31.25 951
-328.125 -320.312 3064
-15.625 375 1601
-15.625 375 1601
125 -195.312 1004
-195.312 210.938 954
-320.312 -234.375 3208
-437.5 -93.75 1080
-335.938 -437.5 2933
46.875 445.312 1489
-289.062 -62.5 1153
125 242.188 903
257.812 257.812 915
-195.312 367.188 1060
-328.125 -343.75 3037
-406.25 -328.125 2560
-421.875 -359.375 2598
125 -140.625 1041
-242.188 -31.25 970
-296.875 242.188 928
-390.625 -46.875 1123
-320.312 23.4375 928
-226.562 164.062 1001
-398.438 -328.125 2598
-328.125 -304.688 3037
-429.688 -70.3125 1050
85.9375 -109.375 933
0 304.688 903
-312.5 -289.062 3178
-375 109.375 956
-382.812 156.25 951
-429.688 -437.5 2467
85.9375 -31.25 970
304.688 -39.0625 915
-7.8125 -187.5 898
-179.688 406.25 1119
296.875 46.875 856
-328.125 -328.125 3037
-335.938 -445.312 2908
164.062 -226.562 1054
-289.062 390.625 1557
-234.375 -62.5 998
-460.938 -234.375 2415
117.188 -273.438 1038
31.25 -351.562 1070
132.812 -234.375 1031
85.9375 -218.75 891
-484.375 -335.938 2271
234.375 429.688 1392
164.062 -218.75 1054
-195.312 359.375 1054
-304.688 -257.812 3238
-382.812 -359.375 2744
-382.812 -23.4375 956
-406.25 218.75 943
-492.188 281.25 1073
-343.75 -335.938 2958
-187.5 273.438 923
-31.25 117.188 860
-234.375 15.625 964
476.562 -39.0625 978
453.125 -93.75 1060
-445.312 -195.312 2485
-335.938 -171.875 1496
-437.5 -289.062 2365
148.438 -234.375 1028
109.375 -257.812 1041
-492.188 -367.188 2301
164.062 -203.125 1034
-31.25 -31.25 975
-335.938 -421.875 2958
-429.688 -242.188 2398
164.062 -195.312 1025
-179.688 398.438 1090
-382.812 39.0625 1007
445.312 -117.188 1101
-429.688 -62.5 1038
117.188 -62.5 1016
-328.125 -335.938 3037
-375 46.875 967
-421.875 15.625 1073
54.6875 195.312 894
-62.5 -320.312 1101
-31.25 -78.125 951
-250 195.312 962
-398.438 109.375 956
125 -234.375 1047
-62.5 -93.75 946
0 -109.375 935
304.688 46.875 856
-242.188 -54.6875 992
-335.938 -304.688 3037
-320.312 -179.688 3300
-164.062 398.438 1115
-335.938 -328.125 3010
-382.812 93.75 967
0 226.562 925
148.438 -257.812 1028
359.375 39.0625 839
-335.938 15.625 935
-70.3125 -312.5 1105
445.312 140.625 805
164.062 -187.5 967
-273.438 -23.4375 954
46.875 437.5 1496
-414.062 367.188 1307
-304.688 0 946
46.875 -359.375 1077
-242.188 -31.25 970
-54.6875 -257.812 1084
-367.188 23.4375 938
-398.438 101.562 956
-375 179.688 975
-210.938 101.562 882
148.438 -195.312 973
54.6875 -109.375 933
-492.188 -414.062 2226
-265.625 -109.375 1090
140.625 421.875 1387
125 -210.938 1028
23.4375 -171.875 903
7.8125 382.812 1579
-343.75 406.25 1268
39.0625 -296.875 1054
296.875 -7.8125 910
7.8125 445.312 1489
312.5 54.6875 858
-273.438 -101.562 1097
164.062 -242.188 1050
-101.562 281.25 908
-328.125 -257.812 3149
85.9375 -23.4375 964
-351.562 -406.25 2958
-234.375 -39.0625 973
-273.438 -125 1123
-31.25 289.062 901
-328.125 -226.562 3208
-218.75 109.375 889
164.062 -234.375 1050
-242.188 117.188 948
-273.438 78.125 935
-351.562 -421.875 2984
-210.938 156.25 910
-359.375 70.3125 943
117.188 -250 1044
-7.8125 -109.375 935
296.875 54.6875 860
109.375 -250 1050
-367.188 132.812 946
-359.375 148.438 951
234.375 406.25 1415
-132.812 -109.375 1101
-312.5 -62.5 1153
-429.688 -429.688 2467
-242.188 148.438 959
-335.938 -429.688 2933
101.562 -289.062 1087
-414.062 39.0625 1067
-171.875 437.5 1161
-70.3125 296.875 913
-7.8125 -54.6875 964
484.375 250 860
140.625 429.688 1376
78.125 -210.938 887
-328.125 -250 3149
125 -203.125 1022
-375 39.0625 1010
85.9375 -46.875 962
-62.5 -78.125 956
101.562 -226.562 896
-429.688 390.625 1283
39.0625 -382.812 1105
-242.188 367.188 1073
-179.688 367.188 1054
-210.938 281.25 984
-453.125 -226.562 2415
-320.312 -218.75 3269
140.625 -257.812 1028
273.438 62.5 869
-210.938 148.438 906
-445.312 335.938 1115
-39.0625 -148.438 918
406.25 390.625 1016
-62.5 -85.9375 954
429.688 406.25 959
-484.375 359.375 1317
-257.812 140.625 938
-390.625 132.812 951
-414.062 46.875 1073
70.3125 421.875 1523
265.625 -187.5 987
31.25 -117.188 930
109.375 -31.25 975
-70.3125 -187.5 906
-437.5 -101.562 1087
492.188 0 928
-359.375 54.6875 948
429.688 -132.812 1130
-39.0625 -54.6875 964
-226.562 140.625 906
70.3125 -39.0625 967
78.125 -257.812 1070
-234.375 101.562 889
-335.938 -382.812 2958
-187.5 210.938 954
-335.938 -312.5 3037
437.5 -125 1115
78.125 -23.4375 964
-375 289.062 1041
437.5 -289.062 2767
-15.625 -179.688 901
31.25 -304.688 1054
-242.188 125 948
117.188 -117.188 1034
-320.312 -250 3149
15.625 -117.188 930
-351.562 132.812 938
85.9375 -39.0625 967
-437.5 -453.125 2432
164.062 -265.625 1031
78.125 -234.375 908
-328.125 -234.375 3208
-359.375 -460.938 2859
-31.25 -148.438 918
-414.062 -7.8125 933
-351.562 -437.5 2933
-242.188 23.4375 959
250 -164.062 973
250 445.312 1354
0 -46.875 970
148.438 359.375 1503
-312.5 -242.188 3208
-429.688 -70.3125 1050
-304.688 335.938 1063
-281.25 0 951
39.0625 -148.438 915
156.25 -210.938 1028
328.125 62.5 851
-304.688 156.25 935
-398.438 -210.938 3433
-335.938 -351.562 2958
468.75 -62.5 1016
-226.562 117.188 889
-179.688 -15.625 970
-15.625 -226.562 901
312.5 -15.625 896
-328.125 -359.375 2958
-218.75 132.812 906
-367.188 15.625 925
85.9375 -140.625 918
-429.688 -445.312 2432
-335.938 -445.312 2908
-7.8125 -171.875 903
-335.938 -437.5 2933
-171.875 -31.25 989
-320.312 -242.188 3208
-335.938 -398.438 2958
-218.75 62.5 887
-328.125 -328.125 3037
23.4375 -296.875 1050
164.062 -226.562 1054
15.625 -46.875 967
-320.312 -257.812 3149
-328.125 -296.875 3037
304.688 39.0625 854
-421.875 0 1087
-335.938 -460.938 2859
117.188 429.688 1452
125 -117.188 1019
-54.6875 -273.438 1080
-382.812 156.25 951
-335.938 -406.25 2958
-242.188 -39.0625 970
125 -195.312 1004
-242.188 -31.25 970
296.875 218.75 873
460.938 351.562 854
31.25 -140.625 918
-54.6875 -328.125 1105
85.9375 -328.125 1090
-70.3125 445.312 1255
-23.4375 -140.625 920
93.75 -218.75 894
-367.188 125 946
-289.062 15.625 938
109.375 -242.188 1047
-382.812 164.062 987
-62.5 -101.562 943
164.062 -234.375 1050
164.062 -210.938 1057
46.875 -265.625 1054
-179.688 398.438 1090
-257.812 -85.9375 1054
62.5 312.5 898
-242.188 54.6875 959
-500 -140.625 1445
-445.312 187.5 962
-62.5 -62.5 964
-406.25 -125 1119
117.188 -132.812 1044
281.25 31.25 867
46.875 257.812 913
140.625 -242.188 1031
-203.125 320.312 1016
-382.812 -343.75 2659
-320.312 -187.5 3269
-210.938 46.875 898
15.625 -132.812 923
15.625 -226.562 898
-156.25 -7.8125 962
-62.5 -312.5 1094
-367.188 289.062 1034
140.625 -265.625 1025
78.125 -265.625 1070
140.625 -195.312 978
-156.25 85.9375 871
-179.688 359.375 1050
-421.875 -70.3125 1041
-351.562 -390.625 3010
-140.625 375 1181
-335.938 -343.75 2958
-257.812 -93.75 1070
-304.688 78.125 933
-203.125 335.938 1031
-343.75 31.25 928
39.0625 -218.75 889
-289.062 -132.812 1145
-328.125 -343.75 3037
62.5 -54.6875 959
-437.5 -101.562 1087
70.3125 -117.188 928
-234.375 23.4375 964
421.875 -156.25 1181
-367.188 148.438 948
-15.625 -304.688 1057
-320.312 -265.625 3120
-15.625 -140.625 918
39.0625 -23.4375 970
0 -23.4375 975
-382.812 31.25 1007
-195.312 15.625 935
-195.312 15.625 938
-414.062 -54.6875 1016
492.188 140.625 798
-328.125 -367.188 2958
54.6875 -140.625 918
257.812 -195.312 1001
335.938 39.0625 845
-335.938 -414.062 2933
-351.562 -414.062 2958
-7.8125 -23.4375 973
-265.625 -23.4375 959
85.9375 429.688 1415
-289.062 -15.625 948
-421.875 -46.875 1019
-343.75 -273.438 3149
148.438 414.062 1404
-429.688 -437.5 2450
62.5 -46.875 962
-304.688 0 946
187.5 -109.375 1004
0 -148.438 915
-367.188 414.062 1273
85.9375 414.062 1421
-210.938 31.25 906
23.4375 -148.438 915
-70.3125 -31.25 989
-335.938 7.8125 946
85.9375 -85.9375 940
-492.188 -421.875 2212
-7.8125 -226.562 901
-343.75 -382.812 2958
125 -257.812 1041
320.312 0 882
-328.125 -320.312 3064
-445.312 -312.5 2503
23.4375 -23.4375 970
-453.125 -312.5 2432
-210.938 296.875 1001
-210.938 289.062 992
-93.75 390.625 1421
-492.188 -406.25 2226
-343.75 7.8125 940
78.125 -109.375 933
15.625 -171.875 906
406.25 421.875 1007
-31.25 -289.062 1063
-265.625 -85.9375 1080
-500 -351.562 2286
-312.5 -195.312 3269
-46.875 -54.6875 967
-328.125 -335.938 3010
-335.938 -335.938 3010
85.9375 -195.312 894
390.625 23.4375 875
-359.375 117.188 946
-476.562 265.625 1054
-382.812 -132.812 1130
-265.625 -109.375 1087
484.375 -78.125 1343
-109.375 421.875 1255
-250 70.3125 946
312.5 -7.8125 887
257.812 421.875 1381
-320.312 -164.062 1516
125 -234.375 1044
164.062 -242.188 1047
-328.125 -375 2958
-390.625 398.438 1273
484.375 -54.6875 1010
-492.188 -390.625 2212
148.438 320.312 891
-31.25 -273.438 1063
-335.938 -453.125 2859
-343.75 15.625 933
78.125 -117.188 930
-171.875 437.5 1161
-265.625 148.438 938
-335.938 -468.75 2859
-23.4375 421.875 1543
101.562 164.062 867
93.75 -62.5 956
-406.25 7.8125 938
-335.938 421.875 1268
-421.875 7.8125 1090
484.375 7.8125 920
31.25 -289.062 1054
-226.562 -46.875 978
164.062 -218.75 1044
296.875 -23.4375 915
-429.688 -250 2415
-273.438 -15.625 954
296.875 0 901
335.938 23.4375 882
-500 -359.375 2271
-62.5 -117.188 935
-328.125 -273.438 3149
-93.75 398.438 1458
140.625 414.062 1398
-320.312 -195.312 3269
257.812 351.562 1616
257.812 429.688 1376
-296.875 140.625 928
-421.875 -367.188 2560
-234.375 132.812 954
85.9375 -23.4375 964
7.8125 -23.4375 970
93.75 -296.875 1080
-429.688 -78.125 1057
-296.875 -140.625 1149
117.188 -257.812 1044
296.875 39.0625 854
-218.75 62.5 887
-187.5 0 954
335.938 62.5 851
187.5 -101.562 1010
296.875 31.25 854
-390.625 125 946
-46.875 -328.125 1090
226.562 -171.875 959
15.625 -78.125 948
-421.875 -390.625 2579
-218.75 78.125 878
78.125 -101.562 938
-445.312 -203.125 2432
164.062 -101.562 1001
-320.312 -273.438 3178
-359.375 -343.75 2744
-500 -343.75 2301
-476.562 -296.875 2381
273.438 0 938
140.625 -218.75 1034
-62.5 406.25 1550
-70.3125 -296.875 1105
-390.625 23.4375 1004
46.875 -62.5 956
62.5 -257.812 1063
15.625 -125 925
-492.188 335.938 1119
-328.125 -351.562 3037
-62.5 -125 933
-242.188 -78.125 1016
23.4375 -39.0625 970
164.062 -250 1038
-7.8125 -187.5 898
-421.875 -117.188 1108
-281.25 -117.188 1130
-351.562 296.875 1034
-250 0 964
-101.562 -171.875 1202
-421.875 0 1087
148.438 -195.312 981
31.25 -312.5 1057
125 -203.125 1022
-296.875 164.062 940
-125 -101.562 1087
-46.875 -281.25 1077
367.188 -31.25 898
-343.75 54.6875 923
296.875 -7.8125 915
0 -273.438 1057
-312.5 -179.688 3300
-187.5 312.5 1004
-429.688 -414.062 2485
-62.5 -109.375 940
132.812 -218.75 1041
-421.875 -359.375 2579
148.438 437.5 1376
0 -117.188 933
-335.938 93.75 925
-312.5 156.25 935
-289.062 -62.5 1153
164.062 -265.625 1028
-132.812 -101.562 1087
-351.562 -460.938 2859
195.312 398.438 1439
54.6875 -23.4375 970
-226.562 -54.6875 992
257.812 437.5 1365
-289.062 140.625 930
-312.5 -171.875 1509
-500 351.562 1181
421.875 -187.5 1236
-351.562 -406.25 2958
210.938 -164.062 959
-492.188 367.188 1197
-203.125 312.5 1010
39.0625 -171.875 903
-382.812 156.25 951
-234.375 23.4375 967
31.25 -23.4375 970
-500 -382.812 2212
-140.625 -85.9375 1067
-7.8125 -281.25 1057
414.062 429.688 984
-351.562 -367.188 2835
-500 -367.188 2256
-273.438 46.875 973
-390.625 132.812 946
-257.812 156.25 940
46.875 -132.812 923
156.25 445.312 1365
7.8125 -125 928
-281.25 -15.625 948
-390.625 -46.875 1123
250 -148.438 1001
-23.4375 -281.25 1063
-351.562 -445.312 2933
31.25 -179.688 898
-23.4375 -242.188 913
-273.438 -125 1119
15.625 -218.75 891
-335.938 15.625 935
-320.312 7.8125 946
-234.375 31.25 967
93.75 -210.938 891
39.0625 -46.875 964
351.562 -15.625 898
-218.75 93.75 880
218.75 -70.3125 1031
429.688 421.875 970
375 39.0625 889
54.6875 -265.625 1060
-382.812 62.5 1094
-62.5 -93.75 948
-257.812 132.812 940
296.875 7.8125 898
296.875 7.8125 898
242.188 421.875 1398
-492.188 -312.5 2333
148.438 429.688 1376
-500 -140.625 1445
-421.875 -382.812 2560
-164.062 -46.875 1016
-453.125 250 1034
-156.25 -54.6875 1025
-484.375 -343.75 2349
-367.188 15.625 925
-289.062 62.5 946
-335.938 125 928
-265.625 -156.25 1483
-312.5 -195.312 3269
-328.125 -265.625 3149
85.9375 -132.812 920
-351.562 -453.125 2859
-320.312 -265.625 3149
-414.062 39.0625 1063
-15.625 -296.875 1060
31.25 -132.812 923
125 -195.312 1004
281.25 156.25 839
-375 39.0625 1010
-343.75 23.4375 928
-179.688 398.438 1073
62.5 406.25 1543
-265.625 156.25 938
414.062 132.812 811
-320.312 -203.125 3269
46.875 -382.812 1105
-210.938 140.625 908
382.812 -109.375 1094
-210.938 148.438 908
93.75 -187.5 896
-421.875 -39.0625 962
-203.125 351.562 1047
-7.8125 -171.875 906
-171.875 351.562 1050
-101.562 -171.875 1202
148.438 421.875 1387
-70.3125 -140.625 925
70.3125 -101.562 938
-195.312 367.188 1063
31.25 -78.125 948
-15.625 -148.438 915
-484.375 -351.562 2317
-367.188 125 948
-117.188 -148.438 1165
-320.312 -257.812 3149
-335.938 -359.375 2933
-210.938 406.25 1094
476.562 -46.875 992
-171.875 429.688 1153
-351.562 -437.5 2908
-500 -375 2241
-429.688 -289.062 2381
-70.3125 -289.062 1101
-156.25 437.5 1157
-421.875 -46.875 1019
-453.125 -250 2415
-62.5 -203.125 896
-218.75 7.8125 1197
70.3125 -23.4375 967
-234.375 39.0625 970
31.25 -148.438 915
85.9375 -148.438 915
-375 101.562 959
164.062 -140.625 998
125 304.688 887
-46.875 390.625 1564
62.5 -23.4375 967
7.8125 -148.438 915
-15.625 -179.688 901
-335.938 7.8125 946
-421.875 -398.438 2503
7.8125 390.625 1470
-31.25 -265.625 1067
-335.938 -460.938 2859
-23.4375 -78.125 951
-304.688 -234.375 3269
359.375 0 896
0 -54.6875 962
-414.062 -23.4375 954
-328.125 -343.75 3010
-445.312 -320.312 2503
-31.25 -171.875 906
-312.5 -203.125 3300
-320.312 -226.562 3178
-62.5 -164.062 915
-62.5 -148.438 920
289.062 -15.625 915
-312.5 85.9375 925
-234.375 85.9375 954
-289.062 -54.6875 1149
-414.062 -15.625 938
-437.5 -203.125 2467
-312.5 -218.75 3238
-343.75 -132.812 1149
70.3125 437.5 1496
-250 -31.25 967
-62.5 -156.25 918
-234.375 117.188 951
289.062 46.875 860
289.062 -7.8125 915
-62.5 -140.625 925
-289.062 -7.8125 948
-257.812 351.562 1063
31.25 -125 925
-320.312 -250 3178
-484.375 -312.5 2333
-62.5 -132.812 928
-23.4375 -31.25 975
-351.562 -398.438 2958
-335.938 -445.312 2908
304.688 54.6875 860
-398.438 -46.875 1115
-335.938 -453.125 2859
78.125 -23.4375 964
0 226.562 928
164.062 -234.375 1050
70.3125 -281.25 1063
-328.125 -359.375 2984
-164.062 -39.0625 1001
-406.25 54.6875 1077
-421.875 -109.375 1097
-421.875 7.8125 1090
250 445.312 1354
-281.25 195.312 962
7.8125 382.812 1579
132.812 -210.938 1034
132.812 -203.125 1031
93.75 -250 1084
-382.812 -210.938 3468
226.562 -203.125 1060
-320.312 -328.125 3064
421.875 140.625 811
-23.4375 -250 1067
93.75 -203.125 891
46.875 -375 1077
125 -242.188 1041
-148.438 289.062 923
-39.0625 375 1601
484.375 -23.4375 959
-406.25 62.5 1101
-226.562 -54.6875 992
54.6875 -312.5 1063
85.9375 421.875 1415
-195.312 351.562 1047
-437.5 210.938 948
-296.875 -195.312 3365
-414.062 46.875 1073
390.625 117.188 811
-351.562 31.25 928
-250 39.0625 978
-429.688 -78.125 1057
-398.438 78.125 1094
-351.562 -62.5 1145
484.375 242.188 858
375 15.625 887
367.188 -7.8125 901
273.438 54.6875 880
-335.938 -421.875 2933
-320.312 -273.438 3178
-257.812 140.625 938
203.125 414.062 1421
-398.438 156.25 995
226.562 -164.062 959
148.438 -234.375 1031
-406.25 0 938
-335.938 -468.75 2859
257.812 414.062 1392
-328.125 -312.5 3037
-328.125 -328.125 3010
-54.6875 406.25 1543
-445.312 375 1439
-156.25 390.625 1115
-476.562 343.75 1338
-335.938 -367.188 2933
-429.688 -382.812 2541
-15.625 -250 1063
-289.062 414.062 1259
-312.5 367.188 1097
-351.562 39.0625 925
281.25 39.0625 891
-484.375 289.062 1077
93.75 -179.688 898
-320.312 -289.062 3120
-328.125 -281.25 3120
-382.812 367.188 1312
-210.938 414.062 1283
-226.562 93.75 882
-414.062 343.75 1119
468.75 265.625 896
-171.875 -23.4375 984
-359.375 140.625 948
429.688 -156.25 1177
367.188 -39.0625 894
164.062 -257.812 1038
140.625 -187.5 984
234.375 -85.9375 1028
-257.812 421.875 1259
93.75 -195.312 894
-414.062 382.812 1283
-375 398.438 1273
-375 375 1312
-351.562 -429.688 2933
-351.562 359.375 1087
-281.25 -54.6875 987
-320.312 39.0625 920
-335.938 -304.688 3064
203.125 406.25 1427
-210.938 406.25 1273
-328.125 406.25 1268
-390.625 125 951
460.938 -62.5 1016
-429.688 -453.125 2432
-320.312 382.812 1302
-101.562 -62.5 1034
-296.875 414.062 1264
-390.625 390.625 1283
-328.125 -351.562 3064
-265.625 -156.25 1489
85.9375 -273.438 1070
-500 398.438 1232
-359.375 398.438 1278
-265.625 398.438 1288
164.062 -226.562 1047
125 -265.625 1038
-390.625 7.8125 938
-62.5 -179.688 908
-445.312 351.562 1433
-398.438 -7.8125 935
-375 171.875 981
-390.625 375 1312
492.188 242.188 856
-335.938 234.375 935
-281.25 390.625 1297
-226.562 140.625 964
93.75 -187.5 896
93.75 -210.938 891
54.6875 398.438 1564
-445.312 -242.188 2415
-328.125 -367.188 2933
125 -210.938 1028
250 398.438 1421
-273.438 -109.375 1112
-335.938 62.5 935
-156.25 265.625 915
-281.25 -140.625 1145
-62.5 -156.25 918
-320.312 390.625 1302
78.125 -132.812 920
-382.812 390.625 1278
156.25 -132.812 1004
-351.562 398.438 1268
-429.688 -85.9375 1073
-398.438 218.75 943
-125 265.625 913
7.8125 429.688 1516
296.875 -15.625 915
367.188 -23.4375 898
-39.0625 -250 1073
-242.188 31.25 959
-312.5 -281.25 3208
-109.375 273.438 910
-289.062 398.438 1288
-250 -85.9375 1038
-500 -429.688 2184
-351.562 375 1087
-351.562 382.812 1307
-351.562 382.812 1307
132.812 -242.188 1038
-382.812 351.562 1112
-281.25 375 1094
-367.188 117.188 951
164.062 -195.312 967
351.562 0 887
-421.875 343.75 1108
-289.062 0 954
7.8125 -226.562 901
296.875 -54.6875 1013
-273.438 421.875 1264
-335.938 -429.688 2933
-367.188 -187.5 3503
-429.688 -203.125 2467
-210.938 132.812 903
-468.75 265.625 1054
-429.688 328.125 1105
-343.75 78.125 933
-242.188 429.688 1255
-335.938 -351.562 2958
-281.25 187.5 970
-218.75 85.9375 880
-250 -62.5 1004
164.062 -273.438 1031
-468.75 -312.5 2415
-382.812 140.625 948
39.0625 -218.75 891
-375 390.625 1278
-218.75 429.688 1250
-62.5 -164.062 913
93.75 -171.875 903
-421.875 -54.6875 1022
140.625 -257.812 1031
156.25 -218.75 1031
23.4375 -117.188 930
-414.062 31.25 1073
-437.5 382.812 1452
-382.812 375 1312
-335.938 -437.5 2933
-421.875 -203.125 2485
-226.562 -46.875 981
281.25 -7.8125 918
-70.3125 -281.25 1108
93.75 -156.25 913
93.75 -156.25 913
-148.438 -85.9375 1057
476.562 273.438 889
-312.5 -210.938 3238
468.75 273.438 891
-242.188 382.812 1090
234.375 328.125 880
-179.688 -7.8125 967
-414.062 390.625 1292
-320.312 367.188 1094
343.75 7.8125 880
-218.75 70.3125 885
242.188 312.5 875
-335.938 132.812 933
-312.5 414.062 1264
-203.125 390.625 1084
-109.375 445.312 1241
-406.25 390.625 1283
-62.5 -171.875 908
-304.688 390.625 1302
-312.5 382.812 1297
93.75 -148.438 915
-421.875 -304.688 2467
156.25 -156.25 987
164.062 -265.625 1031
-210.938 281.25 925
-335.938 -460.938 2835
-62.5 -148.438 923
-414.062 -23.4375 951
-179.688 78.125 873
-70.3125 -39.0625 1001
-250 382.812 1094
-320.312 406.25 1268
7.8125 -171.875 906
-492.188 -382.812 2256
-429.688 359.375 1312
-164.062 382.812 1080
-171.875 226.562 943
164.062 -179.688 970
-242.188 15.625 956
93.75 -234.375 910
-421.875 -390.625 2503
-421.875 382.812 1503
-328.125 -375 2958
-320.312 382.812 1302
-382.812 46.875 1077
312.5 46.875 856
-62.5 203.125 923
273.438 -15.625 920
-359.375 46.875 967
-398.438 304.688 1022
171.875 109.375 835
93.75 -195.312 889
-171.875 78.125 873
-15.625 257.812 915
-257.812 398.438 1273
-93.75 429.688 1236
78.125 -62.5 956
-328.125 390.625 1297
93.75 -179.688 898
-367.188 -328.125 2723
-476.562 -328.125 2286
93.75 -187.5 896
-414.062 359.375 1317
15.625 -125 928
-242.188 -78.125 1019
85.9375 -70.3125 951
93.75 -164.062 906
-320.312 195.312 962
-343.75 156.25 951
164.062 -242.188 1047
-78.125 328.125 1489
-492.188 -320.312 2271
-335.938 382.812 1302
421.875 -179.688 1227
-328.125 -382.812 2984
-54.6875 117.188 867
-257.812 421.875 1250
-273.438 375 1090
-445.312 375 1322
31.25 -125 928
382.812 31.25 891
-226.562 406.25 1268
-476.562 328.125 1123
117.188 -257.812 1044
-62.5 -187.5 906
-335.938 140.625 933
453.125 -101.562 1077
-414.062 31.25 1073
-445.312 359.375 1322
93.75 -203.125 889
-320.312 -335.938 3037
-46.875 281.25 903
54.6875 -304.688 1057
-187.5 414.062 1509
85.9375 -54.6875 959
46.875 -179.688 898
-226.562 109.375 956
-54.6875 -265.625 1090
-414.062 39.0625 1077
-429.688 -460.938 2365
31.25 -148.438 915
-367.188 187.5 967
85.9375 -62.5 956
-62.5 -156.25 918
78.125 320.312 896
-359.375 117.188 948
39.0625 -226.562 908
0 414.062 1516
-15.625 -125 928
437.5 -140.625 1149
-367.188 406.25 1273
132.812 -218.75 1034
453.125 -117.188 1094
-250 398.438 1108
-234.375 -70.3125 1010
-234.375 179.688 987
-62.5 -179.688 906
-210.938 406.25 1273
-382.812 367.188 1312
-359.375 -468.75 2812
0 -85.9375 946
-265.625 -93.75 1094
-257.812 132.812 940
-375 296.875 1050
117.188 -265.625 1041
-429.688 -39.0625 1264
-406.25 78.125 1090
-328.125 -390.625 2984
-375 7.8125 928
-359.375 140.625 948
-375 351.562 1105
-171.875 429.688 1153
-210.938 304.688 1010
-390.625 304.688 1016
93.75 -210.938 891
-289.062 -140.625 1149
-62.5 -140.625 925
54.6875 -273.438 1057
117.188 -273.438 1041
125 -242.188 1050
-250 23.4375 951
-492.188 -414.062 2226
-328.125 -289.062 3149
-62.5 -171.875 908
93.75 -171.875 901
-335.938 93.75 928
-93.75 85.9375 864
-437.5 335.938 1119
-70.3125 85.9375 864
-273.438 -46.875 989
-320.312 -218.75 3238
179.688 -218.75 1063
31.25 -187.5 896
210.938 390.625 1439
-468.75 328.125 1123
164.062 -187.5 967
-421.875 15.625 1073
414.062 -195.312 1259
-171.875 85.9375 873
-320.312 156.25 935
-398.438 85.9375 1080
-281.25 -125 1145
-273.438 429.688 1264
-414.062 382.812 1292
-265.625 -117.188 1112
-15.625 -359.375 1090
-281.25 375 1094
289.062 -31.25 918
54.6875 -312.5 1060
0 234.375 938
-46.875 234.375 938
93.75 234.375 908
-195.312 343.75 1034
351.562 23.4375 841
-54.6875 -23.4375 981
265.625 -179.688 981
-62.5 -164.062 915
-390.625 351.562 1112
-453.125 117.188 1041
351.562 -46.875 898
-335.938 156.25 943
-406.25 62.5 1108
445.312 -125 1119
93.75 -156.25 913
-320.312 -281.25 3149
-343.75 359.375 1094
-335.938 -468.75 2812
-320.312 -265.625 3149
320.312 -46.875 898
93.75 -257.812 1080
93.75 -203.125 889
-195.312 406.25 1550
-375 171.875 981
-406.25 304.688 1022
93.75 -179.688 898
-390.625 -304.688 2541
-156.25 429.688 1149
242.188 429.688 1392
-312.5 -203.125 3269
281.25 78.125 858
218.75 -156.25 959
-382.812 390.625 1273
-281.25 15.625 940
148.438 -203.125 1044
445.312 -85.9375 1054
-320.312 164.062 940
-125 218.75 948
-390.625 117.188 951
-242.188 -62.5 1007
-7.8125 -109.375 935
304.688 7.8125 896
31.25 390.625 1572
-234.375 109.375 954
-382.812 31.25 1010
-289.062 234.375 928
93.75 -195.312 889
-242.188 398.438 1112
343.75 -15.625 894
-351.562 375 1090
93.75 -148.438 915
-367.188 195.312 959
-390.625 195.312 959
-375 54.6875 967
93.75 -187.5 896
-210.938 132.812 903
-343.75 406.25 1268
-7.8125 -187.5 901
-359.375 406.25 1278
-273.438 -132.812 1134
-250 -85.9375 1044
-46.875 429.688 1516
-46.875 296.875 908
148.438 437.5 1376
203.125 312.5 880
93.75 -164.062 906
-476.562 109.375 1050
-265.625 140.625 938
-289.062 414.062 1250
156.25 414.062 1410
-234.375 46.875 970
-281.25 390.625 1292
-210.938 54.6875 894
-156.25 -148.438 1464
-187.5 7.8125 948
101.562 320.312 896
-257.812 -101.562 1090
-203.125 39.0625 910
39.0625 -187.5 896
-500 -328.125 2286
-382.812 398.438 1268
-195.312 359.375 1054
-351.562 -460.938 2812
-210.938 429.688 1241
242.188 414.062 1404
-54.6875 437.5 1503
-15.625 406.25 1550
-421.875 -54.6875 1038
-218.75 70.3125 885
-210.938 70.3125 880
-15.625 -179.688 903
-15.625 -171.875 906
-101.562 289.062 918
-210.938 312.5 1016
0 93.75 851
-210.938 78.125 878
-343.75 304.688 1041
-15.625 -218.75 896
-335.938 -375 2933
-7.8125 -367.188 1073
-234.375 382.812 1070
-70.3125 -273.438 1108
-406.25 359.375 1112
-382.812 148.438 951
-468.75 367.188 1354
-476.562 -281.25 2365
-476.562 203.125 956
-265.625 398.438 1292
-62.5 -179.688 906
390.625 23.4375 880
-312.5 54.6875 987
164.062 -250 1041
-265.625 7.8125 948
-109.375 109.375 871
-328.125 -359.375 2984
-179.688 421.875 1161
-335.938 250 930
-250 109.375 943
-218.75 429.688 1250
-484.375 109.375 1050
0 226.562 928
-125 85.9375 869
85.9375 -289.062 1070
-328.125 250 938
-234.375 281.25 992
-492.188 -328.125 2271
-421.875 -398.438 2503
-46.875 -148.438 918
-328.125 -398.438 2958
-195.312 23.4375 928
-429.688 -406.25 2450
-23.4375 234.375 938
-171.875 421.875 1145
-328.125 234.375 935
-85.9375 437.5 1236
-156.25 234.375 935
-304.688 421.875 1259
-460.938 375 1387
-414.062 31.25 1073
54.6875 -148.438 915
-312.5 -218.75 3269
-414.062 -31.25 956
93.75 -210.938 891
93.75 -210.938 891
-406.25 343.75 1115
-320.312 -210.938 3238
-320.312 406.25 1268
-203.125 406.25 1278
-414.062 367.188 1317
343.75 39.0625 843
335.938 343.75 869
78.125 -335.938 1090
-31.25 -7.8125 959
-382.812 -7.8125 933
289.062 23.4375 864
281.25 46.875 887
-46.875 226.562 946
156.25 -242.188 1038
273.438 -7.8125 951
109.375 -62.5 951
492.188 0 928
140.625 -226.562 1038
39.0625 -296.875 1054
-250 406.25 1292
-351.562 -453.125 2883
-359.375 382.812 1312
-460.938 -171.875 1509
203.125 -140.625 967
-421.875 -62.5 1047
-328.125 -367.188 2933
-289.062 -62.5 1157
-406.25 367.188 1312
-335.938 -367.188 2933
-414.062 23.4375 1073
-359.375 140.625 951
406.25 140.625 813
-414.062 -23.4375 946
-429.688 -85.9375 1080
-343.75 -375 2908
-429.688 -390.625 2522
-85.9375 375 1464
-328.125 -296.875 3092
351.562 54.6875 843
109.375 -257.812 1090
-343.75 375 1108
93.75 -179.688 898
-195.312 351.562 1047
382.812 7.8125 887
-226.562 7.8125 959
-281.25 148.438 938
-210.938 23.4375 1173
-437.5 375 1322
54.6875 312.5 903
179.688 -179.688 962
-343.75 85.9375 930
171.875 -148.438 989
-62.5 -171.875 908
-351.562 70.3125 943
492.188 140.625 798
-398.438 70.3125 1101
-375 257.812 1016
171.875 -203.125 1031
46.875 -367.188 1073
-195.312 390.625 1087
-484.375 -359.375 2301
-179.688 -7.8125 967
85.9375 -320.312 1077
-156.25 421.875 1141
-406.25 -101.562 1108
-343.75 31.25 930
328.125 23.4375 880
-31.25 -257.812 1070
148.438 320.312 891
-398.438 -296.875 2485
-421.875 -421.875 2485
-367.188 375 1307
-312.5 -210.938 3238
171.875 -195.312 967
-31.25 -351.562 1097
-39.0625 -148.438 918
-390.625 109.375 948
54.6875 429.688 1516
93.75 -171.875 903
-304.688 -218.75 3238
-312.5 -226.562 3208
-281.25 414.062 1268
-460.938 -179.688 3539
-54.6875 -39.0625 975
54.6875 -281.25 1057
-242.188 62.5 956
46.875 -179.688 898
-320.312 -273.438 3149
-351.562 62.5 946
93.75 -195.312 891
62.5 -296.875 1060
-414.062 -39.0625 970
-312.5 -296.875 3149
-429.688 -398.438 2503
-234.375 23.4375 964
-351.562 78.125 940
93.75 -140.625 918
-367.188 117.188 951
-406.25 85.9375 1080
93.75 -117.188 928
-312.5 -187.5 3300
-304.688 414.062 1273
-437.5 351.562 1105
-250 421.875 1255
-281.25 273.438 1001
-500 -140.625 1477
-31.25 -46.875 967
492.188 -7.8125 938
-296.875 390.625 1297
39.0625 -351.562 1073
476.562 -46.875 992
312.5 15.625 887
101.562 -62.5 951
-398.438 -320.312 2560
-289.062 210.938 946
93.75 -187.5 896
-406.25 54.6875 1073
-15.625 375 1601
132.812 -109.375 1019
-492.188 320.312 1123
-46.875 -156.25 918
-320.312 -203.125 3269
15.625 -148.438 915
-320.312 -289.062 3149
-429.688 -429.688 2467
312.5 62.5 871
23.4375 -117.188 930
0 -117.188 933
-406.25 187.5 964
-328.125 23.4375 930
-382.812 23.4375 1004
-54.6875 -31.25 978
-62.5 390.625 1572
-328.125 -382.812 2984
-421.875 -390.625 2503
-367.188 62.5 954
-289.062 242.188 930
-382.812 140.625 948
-320.312 -226.562 3208
-70.3125 -265.625 1108
93.75 -218.75 894
234.375 -78.125 1031
-351.562 382.812 1307
-398.438 -460.938 3010
125 -265.625 1038
468.75 -70.3125 1028
-437.5 -171.875 1516
46.875 -171.875 903
-281.25 -62.5 1153
-250 31.25 959
-257.812 15.625 948
-62.5 -156.25 920
31.25 -54.6875 959
-328.125 -273.438 3120
-289.062 390.625 1297
-390.625 15.625 938
320.312 -23.4375 915
-445.312 -101.562 1381
-484.375 -382.812 2241
-62.5 -179.688 908
312.5 31.25 856
-265.625 -117.188 1112
-398.438 367.188 1312
-320.312 -296.875 3120
78.125 -132.812 920
7.8125 -78.125 951
-39.0625 421.875 1529
-117.188 -70.3125 1044
-414.062 -31.25 962
-414.062 -171.875 1516
476.562 -171.875 2933
-328.125 -375 2958
476.562 257.812 869
-367.188 171.875 973
351.562 7.8125 882
93.75 -203.125 889
125 -250 1044
-289.062 414.062 1268
-171.875 414.062 1134
-250 7.8125 954
-414.062 23.4375 1073
-250 250 925
-7.8125 -226.562 901
-203.125 296.875 995
-289.062 7.8125 946
-54.6875 429.688 1509
312.5 7.8125 889
156.25 -257.812 1031
-257.812 398.438 1292
-421.875 -406.25 2503
-406.25 218.75 946
-406.25 218.75 946
93.75 -109.375 935
70.3125 -62.5 956
335.938 46.875 845
-242.188 382.812 1094
54.6875 -54.6875 962
-351.562 -335.938 2812
-320.312 390.625 1302
-281.25 7.8125 946
0 -187.5 898
-109.375 437.5 1250
-140.625 109.375 878
-70.3125 -257.812 1112
-312.5 -304.688 3092
132.812 -250 1038
-375 164.062 987
-46.875 -320.312 1094
-140.625 414.062 1138
93.75 -93.75 938
23.4375 390.625 1536
-476.562 -335.938 2349
-320.312 -320.312 3037
39.0625 -171.875 903
-437.5 -179.688 2381
46.875 -54.6875 962
-296.875 -171.875 3399
-54.6875 -312.5 1097
-250 70.3125 946
-335.938 -453.125 2883
-375 351.562 1105
-226.562 -62.5 1001
-398.438 390.625 1288
242.188 406.25 1415
-328.125 -390.625 2933
-351.562 -445.312 2883
-289.062 -171.875 3399
-273.438 421.875 1264
-46.875 -296.875 1080
320.312 23.4375 885
-54.6875 -62.5 962
-320.312 -218.75 3208
-367.188 54.6875 964
117.188 -273.438 1041
156.25 -187.5 978
93.75 -54.6875 959
312.5 54.6875 860
-304.688 171.875 940
460.938 -85.9375 1054
-320.312 382.812 1297
93.75 -226.562 906
-54.6875 -70.3125 959
-312.5 -195.312 3300
-492.188 195.312 959
359.375 23.4375 887
-468.75 203.125 956
-242.188 7.8125 959
46.875 -351.562 1073
-382.812 390.625 1283
335.938 390.625 1297
-421.875 -414.062 2503
289.062 -7.8125 915
-54.6875 -78.125 956
320.312 0 885
-179.688 351.562 1041
-382.812 304.688 1022
-320.312 226.562 935
-257.812 421.875 1250
156.25 406.25 1415
7.8125 -273.438 1057
-296.875 -187.5 3365
-492.188 -281.25 2365
382.812 -78.125 1041
85.9375 -39.0625 967
312.5 -23.4375 915
226.562 265.625 903
367.188 23.4375 898
-31.25 -54.6875 964
-273.438 390.625 1101
281.25 54.6875 882
195.312 421.875 1421
-429.688 -93.75 1097
-125 250 923
-414.062 23.4375 1073
-335.938 156.25 946
148.438 -250 1031
429.688 54.6875 871
23.4375 -304.688 1054
-375 46.875 1016
-312.5 367.188 1101
0 -7.8125 956
335.938 210.938 862
359.375 31.25 843
-54.6875 -54.6875 967
-437.5 -109.375 1392
-421.875 -398.438 2485
-257.812 406.25 1292
-234.375 429.688 1250
23.4375 101.562 847
-492.188 -421.875 2226
-421.875 -62.5 1047
125 -273.438 1038
164.062 -179.688 970
492.188 -46.875 1004
-351.562 -437.5 2908
234.375 375 1496
-328.125 -335.938 3037
273.438 -15.625 918
328.125 31.25 867
-492.188 -453.125 2485
-62.5 -46.875 970
-179.688 210.938 956
-62.5 -117.188 935
-429.688 -109.375 1097
-343.75 -398.438 2933
-187.5 304.688 1001
156.25 445.312 1349
171.875 -210.938 1060
-351.562 132.812 946
117.188 -265.625 1041
-335.938 101.562 928
421.875 421.875 975
445.312 132.812 805
-406.25 46.875 1073
-265.625 -23.4375 959
-156.25 414.062 1134
109.375 -234.375 906
320.312 78.125 858
-359.375 226.562 938
-171.875 421.875 1145
242.188 -93.75 1028
-414.062 250 1022
-476.562 -320.312 2286
-312.5 382.812 1302
-312.5 -218.75 3238
-171.875 382.812 1073
-203.125 164.062 918
-234.375 398.438 1288
-320.312 -312.5 3064
-242.188 398.438 1292
-125 -109.375 1105
54.6875 -304.688 1057
-367.188 367.188 1307
-320.312 414.062 1264
148.438 -187.5 981
-320.312 234.375 935
-46.875 437.5 1496
-500 -398.438 2226
-382.812 -70.3125 1126
132.812 -195.312 1007
-460.938 -171.875 1509
-226.562 -39.0625 981
-476.562 -328.125 2301
-15.625 -70.3125 956
-484.375 320.312 1123
-140.625 78.125 873
-390.625 -328.125 2579
-226.562 7.8125 959
-78.125 85.9375 864
-281.25 -132.812 1149
-390.625 109.375 948
-414.062 -343.75 2598
-226.562 406.25 1278
-226.562 15.625 967
-296.875 164.062 938
-484.375 -367.188 2286
-234.375 382.812 1090
0 -109.375 935
-335.938 70.3125 935
-484.375 273.438 1060
171.875 -226.562 1057
-484.375 -398.438 2256
-351.562 398.438 1273
-312.5 -234.375 3208
-15.625 -234.375 918
-210.938 257.812 923
117.188 -257.812 1041
-328.125 -406.25 2933
-234.375 -54.6875 995
-195.312 335.938 1028
-31.25 -312.5 1073
414.062 140.625 813
-421.875 -85.9375 1073
-109.375 289.062 920
-210.938 -179.688 3365
0 -304.688 1060
148.438 -210.938 1041
-54.6875 -289.062 1090
31.25 -117.188 930
148.438 -265.625 1028
148.438 -257.812 1031
-414.062 -304.688 2467
140.625 -265.625 1028
-414.062 -46.875 1028
