ply
format ascii 1.0
comment Created by Open3D
element vertex 2343
property double x
property double y
property double z
end_header
375 125 923
-484.375 0 1001
-171.875 23.4375 956
328.125 -148.438 837
320.312 -132.812 843
148.438 23.4375 938
-281.25 320.312 1255
429.688 390.625 1169
-375 218.75 1073
335.938 85.9375 873
-421.875 -289.062 2701
-117.188 -367.188 962
-304.688 281.25 1283
-359.375 -132.812 908
-93.75 -148.438 882
-375 -320.312 3010
-351.562 54.6875 940
-296.875 273.438 1322
-39.0625 -148.438 875
-421.875 -171.875 984
-437.5 320.312 1236
-93.75 -328.125 978
203.125 -148.438 849
-109.375 -367.188 962
-140.625 421.875 1264
421.875 101.562 864
-187.5 -210.938 1022
-101.562 -421.875 1126
-343.75 -140.625 910
-148.438 -359.375 964
-31.25 23.4375 951
-484.375 226.562 1101
-375 -390.625 2984
125 23.4375 935
257.812 15.625 889
414.062 398.438 1141
-468.75 -23.4375 978
164.062 -273.438 959
-78.125 -210.938 995
-101.562 -23.4375 930
-414.062 -148.438 962
-453.125 -46.875 959
382.812 429.688 1169
-31.25 -414.062 1112
406.25 109.375 864
-429.688 -39.0625 959
-195.312 429.688 1259
-78.125 -398.438 954
140.625 398.438 1292
-257.812 23.4375 962
398.438 328.125 1173
62.5 265.625 1655
312.5 429.688 1112
-156.25 -140.625 889
164.062 70.3125 885
-398.438 0 998
-445.312 -54.6875 956
-203.125 23.4375 959
-179.688 -398.438 962
-390.625 -148.438 973
-382.812 -242.188 1206
125 234.375 1731
-304.688 289.062 1288
406.25 406.25 1141
375 273.438 987
132.812 328.125 1415
367.188 109.375 869
335.938 -156.25 837
210.938 31.25 928
203.125 15.625 908
-382.812 -179.688 998
460.938 265.625 973
453.125 109.375 867
-179.688 328.125 1219
-492.188 281.25 1202
-117.188 70.3125 913
-453.125 234.375 1097
359.375 406.25 1206
-335.938 93.75 995
-312.5 296.875 1292
-406.25 -93.75 964
-101.562 -320.312 981
-468.75 -406.25 2522
-398.438 -304.688 2883
-390.625 257.812 1343
-296.875 335.938 1223
117.188 273.438 1496
-476.562 -179.688 973
359.375 -148.438 833
140.625 234.375 1731
140.625 218.75 1705
312.5 15.625 896
-382.812 312.5 1236
210.938 15.625 940
-367.188 -46.875 978
156.25 31.25 925
164.062 -218.75 887
-414.062 265.625 1255
-70.3125 31.25 938
203.125 31.25 925
-375 328.125 1232
-468.75 312.5 1245
-15.625 265.625 1671
-187.5 359.375 1219
-62.5 -265.625 1001
-406.25 320.312 1241
-398.438 -445.312 2883
-242.188 23.4375 962
125 429.688 1288
-257.812 62.5 930
-460.938 -164.062 978
109.375 31.25 928
367.188 429.688 1181
351.562 406.25 1227
-375 -62.5 973
-312.5 281.25 1297
132.812 226.562 1713
195.312 -218.75 882
-296.875 296.875 1288
-453.125 -164.062 973
414.062 414.062 1189
429.688 109.375 864
-468.75 304.688 1250
-476.562 -31.25 975
78.125 117.188 967
-453.125 312.5 1245
156.25 -195.312 896
-359.375 273.438 1307
-398.438 -171.875 984
-179.688 -203.125 1004
-195.312 421.875 1250
-367.188 -203.125 1004
320.312 367.188 1070
78.125 31.25 933
-171.875 -265.625 1004
-289.062 351.562 1161
-335.938 265.625 1328
-296.875 351.562 1223
-328.125 296.875 1283
-257.812 15.625 970
132.812 148.438 1655
148.438 148.438 1639
101.562 328.125 1398
-101.562 -367.188 964
359.375 179.688 943
476.562 375 1241
-414.062 320.312 1227
-500 39.0625 956
484.375 382.812 1210
-398.438 289.062 1283
-7.8125 -148.438 871
-500 304.688 1206
437.5 414.062 1185
164.062 31.25 928
93.75 -148.438 860
-351.562 281.25 1302
320.312 375 1073
-179.688 -359.375 964
468.75 125 910
-476.562 -140.625 973
-421.875 296.875 1273
140.625 31.25 925
117.188 234.375 1731
421.875 85.9375 860
-312.5 273.438 1317
-242.188 15.625 967
-281.25 15.625 973
-484.375 -242.188 1177
-140.625 -273.438 1001
-296.875 -140.625 903
414.062 125 915
140.625 203.125 1688
-101.562 70.3125 913
-437.5 -70.3125 956
62.5 125 970
484.375 351.562 1264
-437.5 312.5 1245
382.812 328.125 1181
-414.062 -171.875 984
-460.938 -351.562 2579
250 -148.438 845
70.3125 257.812 1663
-453.125 -140.625 959
-312.5 54.6875 935
437.5 398.438 1193
-406.25 304.688 1268
39.0625 23.4375 946
-343.75 320.312 1227
476.562 289.062 984
109.375 429.688 1288
445.312 398.438 1202
171.875 -265.625 954
62.5 -148.438 862
-296.875 15.625 970
195.312 -250 954
367.188 -148.438 833
289.062 15.625 896
-390.625 -156.25 973
93.75 328.125 1398
-343.75 343.75 1223
179.688 -148.438 854
-179.688 -117.188 901
421.875 398.438 1161
-335.938 343.75 1223
382.812 46.875 896
140.625 -218.75 894
132.812 437.5 1328
187.5 31.25 925
179.688 -195.312 887
101.562 437.5 1322
-93.75 23.4375 954
-398.438 242.188 1090
93.75 31.25 928
250 39.0625 913
156.25 320.312 1410
-148.438 -343.75 973
-320.312 257.812 1077
-78.125 -328.125 978
-187.5 -398.438 962
-179.688 -109.375 901
-367.188 289.062 1307
304.688 437.5 1112
171.875 382.812 1297
-140.625 -398.438 956
-445.312 -179.688 970
-117.188 406.25 1398
-382.812 304.688 1264
-445.312 0 1004
453.125 289.062 981
312.5 398.438 1094
-70.3125 39.0625 925
-289.062 335.938 1223
-414.062 0 998
460.938 421.875 1181
-398.438 328.125 1241
-140.625 -265.625 1007
-453.125 -54.6875 959
-367.188 -343.75 3092
-203.125 -390.625 956
-500 -148.438 1019
-281.25 343.75 1185
171.875 320.312 1410
125 -226.562 898
109.375 242.188 1722
375 320.312 1189
31.25 320.312 1439
-93.75 -398.438 954
-367.188 -273.438 3149
375 421.875 1206
-226.562 15.625 973
296.875 15.625 898
46.875 15.625 951
148.438 31.25 925
-406.25 -406.25 3010
-484.375 7.8125 992
-289.062 23.4375 959
125 226.562 1731
-460.938 -335.938 2618
296.875 -148.438 839
476.562 343.75 1189
-39.0625 15.625 940
-398.438 -218.75 1206
-101.562 -335.938 975
31.25 31.25 935
226.562 -148.438 845
-492.188 304.688 1206
109.375 -210.938 906
101.562 273.438 1483
367.188 23.4375 923
-453.125 250 1349
445.312 390.625 1193
328.125 414.062 1206
-460.938 0 1001
-382.812 -132.812 978
-390.625 289.062 1278
-492.188 289.062 1206
-382.812 -195.312 998
148.438 -179.688 887
-437.5 273.438 1307
390.625 109.375 869
-328.125 335.938 1227
218.75 -148.438 847
-445.312 304.688 1255
-101.562 -257.812 1007
-390.625 -125 978
-398.438 -242.188 1206
312.5 414.062 1105
-445.312 -156.25 962
-453.125 257.812 1343
-265.625 15.625 970
132.812 234.375 1713
-85.9375 -234.375 1016
429.688 437.5 1161
-453.125 -148.438 962
328.125 437.5 1173
343.75 414.062 1206
429.688 414.062 1189
117.188 -273.438 1141
164.062 -257.812 959
-476.562 312.5 1255
320.312 -148.438 837
-351.562 296.875 1264
164.062 320.312 1410
-460.938 -46.875 964
140.625 70.3125 885
-39.0625 39.0625 928
-328.125 164.062 1031
-335.938 -140.625 910
-101.562 15.625 959
117.188 -148.438 858
320.312 85.9375 873
335.938 -148.438 837
-179.688 62.5 920
-484.375 289.062 1288
351.562 -125 839
468.75 289.062 987
-39.0625 -296.875 1126
187.5 -148.438 851
-390.625 -203.125 995
343.75 15.625 887
-421.875 -460.938 2984
31.25 -148.438 867
-304.688 304.688 1264
-398.438 257.812 1255
-320.312 -140.625 908
453.125 367.188 1161
-15.625 -148.438 871
492.188 296.875 987
-7.8125 -351.562 1041
414.062 429.688 1161
54.6875 125 973
320.312 398.438 1094
328.125 398.438 1094
140.625 15.625 938
-460.938 -132.812 962
406.25 109.375 864
-445.312 296.875 1278
-62.5 -218.75 1019
445.312 437.5 1161
406.25 289.062 989
351.562 109.375 871
-382.812 335.938 1232
-304.688 15.625 973
468.75 390.625 1214
62.5 15.625 948
-414.062 281.25 1307
109.375 273.438 1489
-164.062 -398.438 956
-437.5 281.25 1283
-296.875 328.125 1223
312.5 437.5 1112
476.562 367.188 1241
-250 15.625 970
-335.938 312.5 1264
-125 -140.625 885
-164.062 -359.375 964
453.125 -210.938 1173
-429.688 304.688 1241
117.188 101.562 894
453.125 85.9375 858
273.438 15.625 898
-125 109.375 992
335.938 15.625 891
312.5 421.875 1108
351.562 437.5 1173
-289.062 304.688 1259
-390.625 335.938 1232
-351.562 335.938 1227
-492.188 226.562 1101
359.375 265.625 987
140.625 320.312 1415
-148.438 -398.438 962
140.625 328.125 1410
85.9375 250 2028
312.5 15.625 896
453.125 429.688 1169
460.938 -218.75 1173
-109.375 15.625 962
-414.062 -296.875 2767
281.25 15.625 896
328.125 15.625 894
421.875 117.188 913
437.5 390.625 1185
-46.875 226.562 1757
-39.0625 -375 1161
375 429.688 1173
-93.75 117.188 989
-171.875 -140.625 891
132.812 218.75 1705
-468.75 320.312 1245
492.188 304.688 987
429.688 289.062 984
148.438 164.062 1639
-367.188 273.438 1302
343.75 -156.25 837
-62.5 -421.875 1141
-460.938 -109.375 967
-445.312 -382.812 3120
-164.062 437.5 1250
351.562 398.438 1206
117.188 -203.125 908
-39.0625 226.562 1757
-468.75 296.875 1278
-117.188 -421.875 1130
398.438 437.5 1165
-281.25 23.4375 956
-109.375 304.688 1609
265.625 15.625 901
125 273.438 1624
109.375 382.812 1292
281.25 -148.438 839
304.688 445.312 1123
-117.188 -140.625 885
-359.375 335.938 1236
85.9375 273.438 1639
-289.062 343.75 1219
125 437.5 1328
125 234.375 1731
343.75 437.5 1173
304.688 421.875 1108
-460.938 -281.25 2598
304.688 15.625 930
453.125 -187.5 1189
-492.188 -179.688 973
-468.75 -414.062 3037
-406.25 242.188 1087
-398.438 -187.5 989
320.312 351.562 1063
-359.375 312.5 1264
117.188 -210.938 906
-156.25 -359.375 964
-437.5 -273.438 2618
-367.188 -335.938 3092
335.938 398.438 1227
93.75 273.438 1483
-453.125 -226.562 1189
-148.438 -265.625 1004
-78.125 -359.375 967
-54.6875 31.25 938
-54.6875 226.562 1748
406.25 273.438 984
-367.188 -226.562 1130
-429.688 296.875 1273
-375 -421.875 2958
62.5 31.25 933
351.562 273.438 992
171.875 -203.125 885
351.562 429.688 1177
-445.312 -46.875 959
421.875 406.25 1189
-476.562 226.562 1105
492.188 429.688 1149
-343.75 -46.875 943
-390.625 85.9375 1004
132.812 -179.688 889
-476.562 7.8125 992
179.688 382.812 1297
117.188 31.25 930
125 -195.312 908
-15.625 -351.562 1050
-101.562 31.25 943
-70.3125 -289.062 992
226.562 15.625 898
187.5 -234.375 933
-335.938 335.938 1223
-476.562 -421.875 3037
164.062 265.625 1647
171.875 -187.5 894
-343.75 -31.25 1054
-296.875 296.875 1288
-343.75 312.5 1259
-406.25 -23.4375 973
-375 -414.062 2958
250 15.625 889
-312.5 -140.625 908
492.188 289.062 975
148.438 320.312 1415
-351.562 320.312 1236
-78.125 312.5 1572
-453.125 164.062 1060
-460.938 320.312 1241
351.562 -148.438 833
-203.125 -234.375 1022
117.188 -195.312 920
281.25 39.0625 913
-476.562 289.062 1278
-328.125 257.812 1077
-289.062 320.312 1250
492.188 125 901
-359.375 296.875 1268
-117.188 320.312 1550
343.75 429.688 1185
117.188 -226.562 898
-140.625 -429.688 1134
132.812 -242.188 896
54.6875 -148.438 864
85.9375 250 2028
-156.25 -398.438 959
-304.688 343.75 1219
429.688 359.375 1157
-93.75 -320.312 981
-468.75 289.062 1283
-320.312 281.25 1297
-437.5 -226.562 1189
-468.75 -250 2432
382.812 414.062 1145
-382.812 -125 978
-265.625 -140.625 901
-93.75 -335.938 975
101.562 31.25 928
257.812 -148.438 845
-312.5 15.625 973
-437.5 -54.6875 954
179.688 312.5 1404
-359.375 -273.438 3178
-281.25 289.062 1130
320.312 15.625 894
-296.875 351.562 1223
242.188 15.625 898
-171.875 -203.125 1001
-7.8125 31.25 938
179.688 31.25 925
-437.5 0 998
382.812 117.188 915
273.438 0 896
-101.562 -320.312 981
-164.062 -406.25 956
-500 78.125 1019
-382.812 -312.5 2958
-429.688 -109.375 959
-445.312 -140.625 959
281.25 85.9375 875
-445.312 281.25 1312
312.5 -70.3125 862
-468.75 -171.875 973
-140.625 -359.375 964
-93.75 406.25 1410
367.188 125 923
328.125 -132.812 841
-312.5 343.75 1210
-445.312 -234.375 1189
-500 281.25 1202
-398.438 281.25 1259
-476.562 265.625 1322
-132.812 -453.125 1149
-164.062 -203.125 998
210.938 -234.375 940
-320.312 289.062 1297
203.125 -125 856
-406.25 289.062 1273
-250 23.4375 962
0 78.125 901
-406.25 265.625 1255
23.4375 78.125 898
382.812 312.5 1193
-453.125 312.5 1245
-398.438 -54.6875 962
-421.875 -171.875 984
-445.312 -70.3125 956
226.562 382.812 1381
265.625 -148.438 845
-375 -171.875 984
-429.688 328.125 1236
-265.625 23.4375 962
125 234.375 1731
-117.188 31.25 940
-62.5 -125 885
210.938 -195.312 915
-367.188 304.688 1259
23.4375 -148.438 867
-406.25 -171.875 984
-312.5 320.312 1214
-15.625 265.625 1671
62.5 265.625 1655
234.375 15.625 898
-421.875 -179.688 978
-210.938 23.4375 959
-289.062 15.625 975
-468.75 39.0625 951
-367.188 281.25 1302
-429.688 -171.875 978
343.75 -132.812 839
-351.562 289.062 1292
-390.625 -54.6875 962
429.688 429.688 1161
54.6875 406.25 1317
-281.25 -109.375 910
132.812 31.25 928
468.75 359.375 1157
-382.812 -335.938 3064
390.625 390.625 1145
453.125 390.625 1219
-359.375 -281.25 3178
-429.688 85.9375 1007
-46.875 226.562 1757
148.438 203.125 1688
-382.812 -343.75 3092
-429.688 -164.062 970
-218.75 23.4375 959
-335.938 289.062 1288
-351.562 -140.625 908
-85.9375 -335.938 975
-187.5 -226.562 1022
-195.312 23.4375 956
85.9375 367.188 1312
-398.438 312.5 1241
-109.375 429.688 1370
-421.875 320.312 1227
-31.25 -414.062 1112
-375 304.688 1259
179.688 367.188 1317
-304.688 304.688 1264
-109.375 31.25 943
-242.188 -140.625 898
-359.375 -265.625 3178
-414.062 320.312 1227
-85.9375 31.25 943
-437.5 242.188 1094
140.625 234.375 1731
-406.25 -296.875 2835
-273.438 15.625 970
195.312 15.625 908
343.75 39.0625 910
304.688 -148.438 839
289.062 -148.438 839
-109.375 -140.625 885
-406.25 296.875 1273
-23.4375 78.125 906
85.9375 257.812 1663
-460.938 -296.875 2598
-125 -265.625 1007
-492.188 304.688 1206
-453.125 -70.3125 959
-171.875 -390.625 956
-70.3125 70.3125 906
101.562 78.125 887
-187.5 328.125 1223
-445.312 -265.625 2579
421.875 429.688 1173
-328.125 -140.625 910
15.625 226.562 1739
-257.812 320.312 1141
-257.812 23.4375 962
0 31.25 935
-296.875 328.125 1223
101.562 234.375 1722
-312.5 335.938 1210
-492.188 -140.625 1038
132.812 328.125 1415
-500 226.562 1105
-289.062 343.75 1219
-382.812 -445.312 2908
-328.125 156.25 1025
85.9375 335.938 1387
-343.75 -132.812 910
-414.062 257.812 1349
140.625 218.75 1705
398.438 351.562 1161
-70.3125 -210.938 992
-343.75 -109.375 920
-101.562 -328.125 978
171.875 382.812 1297
-406.25 304.688 1268
429.688 406.25 1189
-484.375 -179.688 970
-460.938 273.438 1317
195.312 390.625 1333
78.125 273.438 1639
-445.312 46.875 951
359.375 437.5 1173
-281.25 -140.625 903
-460.938 312.5 1241
-476.562 -156.25 1019
-375 -125 987
-453.125 296.875 1278
-429.688 46.875 948
-406.25 -429.688 2958
70.3125 -148.438 862
-15.625 226.562 1748
-375 328.125 1232
-484.375 -85.9375 984
-429.688 296.875 1273
359.375 429.688 1177
-312.5 312.5 1259
-187.5 -335.938 975
375 437.5 1169
335.938 406.25 1210
-421.875 328.125 1236
203.125 -195.312 918
171.875 -273.438 954
-85.9375 -218.75 1019
-484.375 265.625 1328
-335.938 257.812 1084
320.312 445.312 1165
101.562 273.438 1483
-367.188 312.5 1259
273.438 -148.438 843
-453.125 -164.062 973
320.312 421.875 1108
-85.9375 -304.688 987
179.688 -273.438 951
156.25 -218.75 925
-296.875 23.4375 959
39.0625 -148.438 864
-453.125 -234.375 1189
101.562 242.188 1722
-390.625 -195.312 992
-117.188 23.4375 954
-343.75 320.312 1227
-382.812 281.25 1297
-187.5 23.4375 959
-460.938 -367.188 2579
15.625 31.25 938
-289.062 296.875 1283
-304.688 335.938 1223
-406.25 -437.5 2958
7.8125 343.75 1370
289.062 15.625 896
-156.25 23.4375 959
-437.5 304.688 1241
-250 -140.625 901
164.062 265.625 1647
-125 171.875 1688
-414.062 296.875 1273
484.375 320.312 1202
335.938 296.875 1031
-335.938 335.938 1223
-437.5 85.9375 1010
-7.8125 -359.375 1038
226.562 39.0625 918
-15.625 31.25 938
335.938 31.25 915
-273.438 343.75 1161
-164.062 -328.125 975
-343.75 343.75 1223
-312.5 289.062 1292
85.9375 250 2028
-304.688 351.562 1219
-343.75 312.5 1259
140.625 31.25 925
421.875 312.5 1189
-23.4375 -375 1115
-85.9375 -406.25 956
-156.25 -203.125 1007
-382.812 328.125 1232
-179.688 367.188 1219
-148.438 117.188 995
273.438 39.0625 910
-289.062 234.375 1067
218.75 39.0625 918
156.25 164.062 1671
-242.188 23.4375 962
-93.75 31.25 943
-406.25 -148.438 973
406.25 398.438 1141
335.938 15.625 891
-289.062 -140.625 903
414.062 367.188 1157
-500 265.625 1202
484.375 421.875 1145
445.312 375 1177
437.5 406.25 1189
-414.062 -437.5 2958
429.688 281.25 984
484.375 335.938 1189
351.562 226.562 970
-320.312 15.625 970
125 226.562 1731
-367.188 54.6875 943
7.8125 226.562 1748
-39.0625 -359.375 1084
-421.875 -62.5 956
-398.438 -414.062 2933
-296.875 320.312 1245
-164.062 -351.562 967
226.562 406.25 1359
-437.5 320.312 1236
453.125 382.812 1185
125 31.25 930
-414.062 -171.875 984
-351.562 -132.812 908
-414.062 -414.062 3064
-54.6875 226.562 1748
-390.625 250 1087
187.5 -265.625 951
-351.562 93.75 998
328.125 -148.438 837
-320.312 226.562 1067
-195.312 414.062 1241
101.562 429.688 1288
-390.625 -304.688 2883
7.8125 -148.438 869
-78.125 23.4375 948
406.25 429.688 1161
421.875 328.125 1173
-406.25 273.438 1255
85.9375 31.25 933
164.062 -171.875 882
-351.562 320.312 1236
109.375 31.25 928
492.188 343.75 1232
-468.75 -23.4375 978
-460.938 257.812 1349
-320.312 296.875 1283
-179.688 31.25 946
156.25 -250 940
-257.812 -140.625 901
140.625 390.625 1288
156.25 -171.875 878
-414.062 273.438 1255
328.125 39.0625 908
492.188 398.438 1202
453.125 414.062 1189
-367.188 273.438 1302
39.0625 382.812 1343
-398.438 273.438 1259
85.9375 273.438 1639
132.812 382.812 1292
93.75 31.25 928
-375 -117.188 978
-437.5 -46.875 959
-281.25 343.75 1185
-304.688 296.875 1288
156.25 296.875 1421
-445.312 312.5 1250
-460.938 -140.625 964
-234.375 437.5 1227
109.375 289.062 1421
85.9375 70.3125 889
-437.5 -140.625 964
187.5 39.0625 918
-390.625 304.688 1278
-437.5 234.375 1094
328.125 15.625 894
46.875 -148.438 864
421.875 273.438 981
-414.062 -289.062 2701
-304.688 23.4375 959
-382.812 257.812 1333
351.562 -132.812 837
-234.375 -140.625 898
-367.188 -351.562 3092
-429.688 -46.875 956
-320.312 320.312 1214
171.875 31.25 930
-460.938 -343.75 2598
-93.75 -328.125 978
-101.562 -406.25 956
-328.125 312.5 1214
-335.938 -132.812 910
484.375 -125 1193
-140.625 70.3125 918
-492.188 -70.3125 984
328.125 421.875 1210
398.438 320.312 1181
484.375 289.062 987
359.375 109.375 871
-445.312 273.438 1307
351.562 421.875 1206
445.312 406.25 1189
156.25 148.438 1647
-367.188 -62.5 975
-93.75 -304.688 987
460.938 414.062 1189
-484.375 -265.625 2485
-476.562 46.875 959
-414.062 234.375 1090
-140.625 -453.125 1153
359.375 -156.25 835
242.188 -148.438 845
476.562 406.25 1185
406.25 -437.5 2767
328.125 398.438 1094
15.625 -148.438 867
335.938 445.312 1161
-367.188 -265.625 3149
-85.9375 -367.188 964
164.062 39.0625 918
179.688 375 1302
-437.5 328.125 1236
62.5 23.4375 943
226.562 85.9375 880
320.312 -132.812 843
-54.6875 -429.688 1149
-320.312 187.5 1044
-171.875 -343.75 970
-390.625 281.25 1302
320.312 359.375 1067
-398.438 -23.4375 975
-375 -109.375 975
-218.75 85.9375 933
-351.562 -218.75 1025
445.312 382.812 1185
-171.875 70.3125 923
375 125 923
398.438 375 1157
-398.438 296.875 1273
-78.125 -218.75 1016
-406.25 -242.188 1206
-296.875 281.25 1283
93.75 273.438 1483
-93.75 -437.5 1134
70.3125 273.438 1647
-23.4375 328.125 1557
-132.812 -375 956
-445.312 234.375 1097
101.562 250 2028
195.312 -195.312 878
-375 289.062 1292
46.875 31.25 930
-289.062 23.4375 959
156.25 156.25 1671
-359.375 335.938 1236
-125 375 1483
-453.125 234.375 1097
101.562 242.188 1722
-437.5 -164.062 967
320.312 390.625 1090
-132.812 117.188 992
304.688 437.5 1112
-429.688 234.375 1094
-367.188 -273.438 3149
-468.75 289.062 1283
265.625 109.375 885
-281.25 23.4375 956
85.9375 257.812 1663
242.188 132.812 956
-445.312 -140.625 959
-296.875 -140.625 903
343.75 15.625 887
359.375 421.875 1206
-101.562 -140.625 885
148.438 390.625 1297
210.938 -132.812 854
437.5 414.062 1185
-320.312 281.25 1297
226.562 -234.375 928
492.188 375 1236
-460.938 -15.625 987
-281.25 320.312 1255
-398.438 289.062 1283
-164.062 31.25 946
-320.312 -132.812 908
-203.125 31.25 940
312.5 15.625 896
-148.438 -203.125 998
171.875 320.312 1410
-359.375 296.875 1268
312.5 398.438 1094
93.75 234.375 1731
-460.938 -171.875 973
460.938 359.375 1157
421.875 -171.875 1227
437.5 437.5 1165
414.062 320.312 1181
-390.625 335.938 1232
-398.438 328.125 1241
-125 -398.438 956
-343.75 257.812 1084
70.3125 -242.188 1057
148.438 328.125 1410
328.125 445.312 1177
242.188 85.9375 880
-453.125 -171.875 970
-375 273.438 1302
484.375 429.688 1157
164.062 445.312 1302
-492.188 -171.875 970
109.375 234.375 1722
-164.062 -390.625 956
148.438 -171.875 873
-367.188 -328.125 3120
-312.5 304.688 1259
-445.312 304.688 1255
-398.438 -296.875 2859
-398.438 250 1090
429.688 304.688 1193
367.188 164.062 938
343.75 421.875 1206
-500 -242.188 2365
335.938 398.438 1227
-382.812 -289.062 2958
-421.875 320.312 1227
-93.75 -140.625 882
312.5 421.875 1108
-312.5 343.75 1210
312.5 -148.438 839
343.75 -148.438 837
-453.125 -179.688 973
-117.188 -140.625 885
-117.188 -140.625 885
-359.375 -54.6875 984
476.562 390.625 1206
-132.812 -398.438 956
-23.4375 226.562 1757
-328.125 296.875 1283
351.562 15.625 887
-367.188 93.75 1001
101.562 -148.438 860
-421.875 390.625 1421
-343.75 226.562 1073
23.4375 31.25 938
-148.438 -335.938 975
-367.188 226.562 1080
-398.438 -273.438 2859
468.75 367.188 1161
-132.812 -437.5 1138
132.812 234.375 1713
-140.625 -335.938 975
414.062 125 915
-320.312 23.4375 959
-367.188 -335.938 3092
132.812 390.625 1288
367.188 7.8125 885
320.312 398.438 1094
-414.062 -85.9375 959
-289.062 304.688 1259
382.812 375 1165
203.125 -218.75 946
460.938 382.812 1219
-406.25 -117.188 964
-445.312 -164.062 967
-296.875 343.75 1223
-468.75 -46.875 967
-468.75 -273.438 2522
78.125 234.375 1731
312.5 437.5 1112
-117.188 320.312 1550
296.875 -46.875 875
-335.938 312.5 1264
117.188 234.375 1731
-453.125 -132.812 959
-195.312 359.375 1219
390.625 437.5 1169
-304.688 -132.812 903
-320.312 343.75 1227
476.562 359.375 1241
421.875 398.438 1161
398.438 343.75 1161
429.688 312.5 1189
-156.25 -453.125 1169
-375 -421.875 2958
492.188 359.375 1245
46.875 273.438 1647
-171.875 -406.25 959
250 132.812 954
-484.375 273.438 1317
-140.625 -320.312 981
460.938 343.75 1173
-429.688 -62.5 954
-390.625 -54.6875 962
265.625 39.0625 913
148.438 156.25 1647
406.25 414.062 1141
-375 -328.125 3092
-312.5 23.4375 959
-23.4375 -390.625 1119
-367.188 -125 992
-359.375 289.062 1302
-398.438 -171.875 984
-445.312 -218.75 1189
-445.312 -414.062 3064
242.188 39.0625 913
-171.875 -335.938 975
-78.125 39.0625 928
343.75 398.438 1210
117.188 242.188 1731
-125 -359.375 964
-226.562 -140.625 896
-328.125 -109.375 918
265.625 -132.812 849
-398.438 242.188 1090
-328.125 15.625 973
296.875 15.625 898
148.438 437.5 1322
-375 -468.75 2883
437.5 406.25 1189
-453.125 15.625 975
-375 -437.5 2933
-382.812 328.125 1232
-382.812 0 998
-460.938 234.375 1101
-179.688 -234.375 1019
437.5 320.312 1181
140.625 273.438 1632
-140.625 -203.125 995
171.875 429.688 1333
-476.562 15.625 973
226.562 -109.375 860
304.688 437.5 1112
-85.9375 -304.688 987
-375 -31.25 984
39.0625 31.25 930
335.938 39.0625 908
-101.562 -304.688 987
-320.312 273.438 1317
-476.562 320.312 1255
-70.3125 -226.562 1019
250 -39.0625 885
382.812 429.688 1169
-390.625 -414.062 2933
429.688 429.688 1161
-132.812 -343.75 970
-476.562 -179.688 973
-445.312 -132.812 959
-70.3125 31.25 938
468.75 390.625 1214
-343.75 335.938 1223
-367.188 -367.188 3064
85.9375 31.25 933
265.625 -117.188 854
-7.8125 31.25 938
7.8125 -414.062 1108
-500 304.688 1206
-468.75 7.8125 987
-78.125 -375 959
31.25 31.25 935
250 39.0625 913
234.375 -132.812 851
390.625 429.688 1173
-500 -273.438 2381
101.562 250 2028
-476.562 406.25 1381
-148.438 -265.625 1004
117.188 429.688 1288
-46.875 31.25 935
304.688 39.0625 910
460.938 437.5 1157
328.125 390.625 1090
-140.625 -398.438 956
156.25 -265.625 959
-414.062 -171.875 984
-406.25 281.25 1255
406.25 132.812 920
203.125 39.0625 915
-453.125 7.8125 987
-132.812 31.25 940
-226.562 -140.625 896
218.75 429.688 1338
-375 265.625 1333
-7.8125 398.438 1427
-187.5 375 1214
148.438 390.625 1297
406.25 320.312 1181
-359.375 265.625 1343
140.625 390.625 1288
-367.188 328.125 1232
429.688 406.25 1189
320.312 390.625 1090
-437.5 273.438 1307
-85.9375 390.625 1433
-367.188 296.875 1268
312.5 414.062 1105
-234.375 23.4375 962
54.6875 273.438 1647
476.562 289.062 984
367.188 132.812 923
-484.375 7.8125 992
-54.6875 234.375 1731
70.3125 31.25 933
-500 -125 1119
70.3125 421.875 1302
-140.625 -359.375 964
-289.062 320.312 1250
-398.438 320.312 1241
70.3125 234.375 1731
-429.688 273.438 1312
-164.062 23.4375 959
187.5 375 1307
-351.562 312.5 1259
351.562 -203.125 925
437.5 429.688 1165
-492.188 -257.812 2415
-312.5 351.562 1210
-156.25 -351.562 967
-265.625 109.375 1001
-46.875 226.562 1757
156.25 164.062 1671
-132.812 -320.312 981
-453.125 -304.688 2598
-492.188 -156.25 973
265.625 -109.375 856
-421.875 0 998
-406.25 328.125 1241
23.4375 -320.312 1041
234.375 -125 854
320.312 15.625 894
-492.188 -242.188 2415
-484.375 -46.875 973
-289.062 343.75 1210
-54.6875 -140.625 875
312.5 39.0625 910
-476.562 296.875 1278
-375 -46.875 975
273.438 -109.375 849
-273.438 23.4375 959
195.312 39.0625 915
-242.188 -140.625 894
367.188 359.375 1165
-476.562 289.062 1283
-492.188 -15.625 978
-39.0625 226.562 1748
-85.9375 31.25 943
-351.562 289.062 1297
421.875 406.25 1149
85.9375 234.375 1731
-375 -406.25 2984
85.9375 257.812 2005
367.188 421.875 1197
-132.812 -375 956
-453.125 0 1004
-304.688 328.125 1219
320.312 421.875 1094
179.688 -265.625 948
-492.188 -7.8125 1016
-460.938 289.062 1288
-445.312 -15.625 970
375 406.25 1145
-367.188 242.188 1084
-85.9375 -328.125 975
-312.5 234.375 1067
-187.5 -414.062 1169
-39.0625 367.188 1477
-273.438 -140.625 901
-351.562 -39.0625 989
375 429.688 1197
93.75 375 1302
-109.375 437.5 1370
148.438 171.875 1647
-109.375 -460.938 1145
-23.4375 31.25 938
210.938 -125 854
-343.75 312.5 1264
-78.125 31.25 940
78.125 -148.438 858
382.812 406.25 1141
-414.062 242.188 1084
-109.375 -140.625 882
-304.688 304.688 1278
242.188 -132.812 847
320.312 382.812 1073
-453.125 -257.812 2485
-375 -429.688 2958
445.312 406.25 1189
320.312 -148.438 833
-367.188 312.5 1259
335.938 304.688 1034
-382.812 -304.688 2958
-171.875 -398.438 956
-398.438 335.938 1236
-359.375 -304.688 3092
-210.938 -140.625 894
117.188 289.062 1415
-484.375 312.5 1245
-62.5 -140.625 875
-265.625 359.375 1165
-101.562 414.062 1398
-140.625 31.25 943
-203.125 -226.562 1022
328.125 437.5 1169
85.9375 250 2016
-250 250 1145
359.375 15.625 885
-398.438 312.5 1241
-328.125 335.938 1227
78.125 265.625 1647
-382.812 -468.75 2908
-429.688 -140.625 962
-132.812 -359.375 964
382.812 335.938 1173
-453.125 85.9375 1010
-414.062 304.688 1273
-31.25 -398.438 1119
453.125 117.188 858
-148.438 312.5 1496
273.438 85.9375 873
-414.062 -187.5 981
-437.5 296.875 1273
-46.875 -140.625 873
101.562 31.25 928
-390.625 -187.5 992
-39.0625 -140.625 873
78.125 257.812 1647
15.625 117.188 975
-460.938 250 1354
23.4375 23.4375 946
-320.312 257.812 1087
-281.25 296.875 1130
468.75 -132.812 1210
-406.25 257.812 1343
-406.25 -187.5 984
195.312 85.9375 880
101.562 242.188 1731
-359.375 328.125 1227
312.5 437.5 1108
312.5 312.5 1041
-375 281.25 1302
-390.625 -382.812 3010
62.5 31.25 933
-453.125 -140.625 962
-296.875 343.75 1214
-164.062 70.3125 918
-406.25 -164.062 973
7.8125 31.25 938
101.562 250 2028
-304.688 351.562 1214
343.75 359.375 1185
-273.438 328.125 1145
328.125 320.312 1041
-445.312 -164.062 970
-429.688 0 995
445.312 359.375 1157
-273.438 351.562 1165
-265.625 351.562 1165
-382.812 -203.125 995
-359.375 -289.062 3120
-234.375 -257.812 1185
-367.188 -359.375 3064
-406.25 312.5 1241
-312.5 296.875 1288
-312.5 328.125 1227
296.875 39.0625 915
-156.25 -390.625 954
-140.625 -343.75 967
117.188 31.25 928
-7.8125 335.938 1550
-453.125 281.25 1278
414.062 429.688 1189
359.375 210.938 954
-460.938 -414.062 3064
-367.188 -281.25 3120
-179.688 359.375 1219
390.625 320.312 1185
429.688 421.875 1189
148.438 210.938 1696
-148.438 -351.562 967
-109.375 -343.75 967
101.562 375 1297
-304.688 320.312 1255
-375 93.75 1001
-476.562 7.8125 992
-382.812 -343.75 3010
-39.0625 351.562 1509
-492.188 -39.0625 973
382.812 125 915
476.562 421.875 1173
-312.5 -132.812 903
335.938 -148.438 831
453.125 421.875 1181
31.25 70.3125 896
-140.625 23.4375 956
-382.812 -351.562 3010
320.312 414.062 1077
-296.875 296.875 1283
-453.125 -164.062 978
-195.312 -140.625 891
-125 -335.938 973
-320.312 320.312 1255
-484.375 15.625 975
-437.5 -179.688 973
-484.375 -171.875 970
390.625 414.062 1169
-367.188 265.625 1322
-203.125 -140.625 894
31.25 265.625 1655
-492.188 -179.688 970
-343.75 265.625 1322
-406.25 -171.875 981
31.25 -148.438 864
304.688 437.5 1108
-312.5 257.812 1080
-437.5 -15.625 967
85.9375 -148.438 856
265.625 -132.812 843
382.812 437.5 1173
62.5 -148.438 860
-78.125 445.312 1349
-453.125 -148.438 959
304.688 429.688 1101
-390.625 304.688 1278
-484.375 265.625 1322
109.375 429.688 1288
54.6875 -148.438 860
226.562 31.25 925
-117.188 429.688 1376
-367.188 -351.562 3092
367.188 140.625 925
359.375 203.125 951
-148.438 23.4375 956
-320.312 312.5 1255
492.188 312.5 1210
-304.688 23.4375 959
62.5 257.812 1655
-359.375 289.062 1302
-460.938 -117.188 962
-101.562 23.4375 954
-296.875 421.875 1381
-460.938 -375 2579
-390.625 320.312 1236
-484.375 -242.188 1177
-156.25 -359.375 964
85.9375 343.75 1376
-453.125 289.062 1278
-351.562 343.75 1223
-359.375 250 1080
-476.562 -171.875 973
-265.625 -140.625 901
281.25 78.125 873
343.75 296.875 998
-382.812 -156.25 973
-328.125 281.25 1297
179.688 132.812 956
382.812 296.875 987
78.125 421.875 1288
-382.812 -195.312 995
-359.375 320.312 1259
351.562 296.875 998
-195.312 -328.125 975
-476.562 -132.812 967
-242.188 62.5 925
46.875 70.3125 889
-445.312 -148.438 959
-375 -414.062 2958
-500 -171.875 973
101.562 234.375 1731
-304.688 15.625 973
406.25 78.125 858
-359.375 -273.438 3120
476.562 414.062 1173
375 289.062 989
78.125 257.812 1647
-187.5 -140.625 889
-31.25 78.125 901
-429.688 -109.375 956
367.188 382.812 1169
-398.438 304.688 1268
-164.062 -375 956
257.812 132.812 951
-390.625 -46.875 962
226.562 39.0625 915
-390.625 -156.25 970
-445.312 -210.938 1189
39.0625 39.0625 923
328.125 406.25 1210
343.75 312.5 1038
320.312 -85.9375 854
-367.188 335.938 1227
468.75 125 901
-460.938 312.5 1250
-359.375 -46.875 987
-15.625 -140.625 871
460.938 367.188 1149
-429.688 -296.875 2680
-421.875 -46.875 956
234.375 -148.438 843
-117.188 31.25 940
39.0625 273.438 1655
-304.688 414.062 1392
-304.688 179.688 1034
492.188 289.062 964
-304.688 343.75 1214
125 382.812 1292
-351.562 -7.8125 1010
289.062 39.0625 913
468.75 414.062 1177
398.438 406.25 1141
335.938 296.875 995
-359.375 343.75 1223
78.125 265.625 1647
187.5 93.75 882
359.375 296.875 992
-476.562 -398.438 2541
156.25 -148.438 849
117.188 242.188 1731
421.875 109.375 862
-70.3125 -250 1010
-125 335.938 1557
156.25 132.812 964
-117.188 226.562 1688
-320.312 304.688 1259
-195.312 -390.625 954
414.062 437.5 1157
460.938 125 903
-140.625 117.188 995
-500 226.562 1105
93.75 328.125 1398
-382.812 273.438 1302
359.375 39.0625 908
-359.375 -281.25 3120
375 414.062 1181
-437.5 -148.438 964
320.312 437.5 1108
406.25 437.5 1157
-70.3125 -406.25 954
484.375 367.188 1236
-367.188 296.875 1302
148.438 179.688 1663
62.5 234.375 1731
375 421.875 1193
-132.812 -203.125 987
-54.6875 234.375 1731
-359.375 -296.875 3120
476.562 367.188 1214
117.188 234.375 1731
-195.312 31.25 943
-500 -179.688 973
117.188 -179.688 882
-78.125 -242.188 1010
-460.938 -156.25 973
367.188 -156.25 833
234.375 132.812 951
-320.312 343.75 1223
-328.125 320.312 1255
-468.75 -156.25 975
-453.125 273.438 1317
148.438 164.062 1632
-445.312 -289.062 2618
-125 31.25 943
-453.125 -281.25 2618
-390.625 328.125 1236
15.625 375 1359
-117.188 -273.438 998
320.312 359.375 1060
429.688 304.688 981
476.562 328.125 1189
-453.125 296.875 1278
-445.312 328.125 1245
-437.5 -429.688 3037
-375 -437.5 2933
-171.875 -367.188 959
-390.625 312.5 1236
-429.688 320.312 1236
-289.062 23.4375 959
148.438 39.0625 918
-437.5 -187.5 975
-421.875 -109.375 956
93.75 234.375 1731
-109.375 312.5 1572
-460.938 -390.625 2522
-492.188 312.5 1245
-195.312 -335.938 973
-390.625 -445.312 2859
453.125 351.562 1157
328.125 328.125 1038
179.688 39.0625 918
101.562 250 2028
-414.062 328.125 1232
-437.5 -164.062 967
-296.875 -132.812 903
-187.5 31.25 943
-296.875 265.625 1073
289.062 -23.4375 880
445.312 312.5 1189
132.812 390.625 1288
-468.75 234.375 1101
-85.9375 -289.062 989
210.938 39.0625 918
-460.938 -148.438 964
7.8125 -351.562 1028
-85.9375 39.0625 928
187.5 -195.312 880
-351.562 312.5 1264
-351.562 -203.125 1019
-453.125 -140.625 962
453.125 406.25 1185
414.062 132.812 913
-429.688 281.25 1312
210.938 -210.938 933
-62.5 31.25 938
-406.25 289.062 1278
148.438 414.062 1328
93.75 70.3125 887
-437.5 328.125 1236
-289.062 -132.812 903
-156.25 31.25 943
132.812 -179.688 885
156.25 390.625 1292
-414.062 -140.625 923
-312.5 273.438 1322
218.75 -203.125 938
140.625 226.562 1713
140.625 -171.875 871
-335.938 281.25 1297
390.625 343.75 1161
492.188 -125 1181
-351.562 -226.562 1041
-140.625 -203.125 989
351.562 250 973
375 375 1165
304.688 -117.188 843
-273.438 328.125 1145
273.438 -132.812 845
109.375 -195.312 923
-156.25 -304.688 984
-343.75 335.938 1223
179.688 382.812 1297
343.75 -117.188 839
-460.938 -382.812 2560
70.3125 265.625 1647
312.5 -125 839
109.375 382.812 1292
-179.688 -140.625 889
-148.438 31.25 946
351.562 39.0625 908
-140.625 -375 956
-421.875 23.4375 959
-429.688 -140.625 962
-171.875 -351.562 967
-398.438 -117.188 973
-312.5 304.688 1259
453.125 429.688 1181
78.125 234.375 1731
117.188 -187.5 906
-468.75 15.625 973
-125 -367.188 959
15.625 31.25 938
-367.188 -343.75 3092
54.6875 273.438 1647
125 -39.0625 889
-382.812 -335.938 3092
351.562 242.188 970
-382.812 -351.562 3010
-320.312 23.4375 959
-476.562 -39.0625 973
445.312 429.688 1141
125 335.938 1404
78.125 31.25 933
421.875 320.312 1177
-460.938 -250 1189
-500 -125 1112
-468.75 312.5 1250
-164.062 -351.562 967
-421.875 265.625 1312
148.438 273.438 1639
-453.125 -132.812 962
195.312 320.312 1392
390.625 296.875 987
-85.9375 -296.875 989
328.125 421.875 1206
-398.438 250 1090
-445.312 -179.688 973
445.312 320.312 1177
-460.938 46.875 951
78.125 265.625 1647
-132.812 421.875 1268
460.938 -132.812 1214
156.25 179.688 1671
437.5 -132.812 1214
70.3125 234.375 1731
-289.062 -203.125 1025
-117.188 -210.938 1007
343.75 414.062 1193
-453.125 -296.875 2680
437.5 421.875 1185
-109.375 -218.75 1019
195.312 31.25 925
-171.875 437.5 1245
-382.812 -375 3010
367.188 367.188 1165
15.625 39.0625 925
-234.375 398.438 1193
343.75 437.5 1165
320.312 367.188 1063
-117.188 234.375 1731
-500 -31.25 975
328.125 414.062 1206
-109.375 -429.688 1126
140.625 414.062 1283
-414.062 289.062 1278
-367.188 -375 3010
-492.188 -171.875 970
-382.812 328.125 1232
-70.3125 -140.625 875
-460.938 296.875 1283
468.75 382.812 1236
-148.438 -140.625 885
-375 -429.688 2958
-492.188 265.625 1202
-78.125 -304.688 987
492.188 93.75 847
62.5 39.0625 920
-367.188 -359.375 3064
320.312 414.062 1077
-453.125 -312.5 2659
-484.375 -179.688 970
-460.938 85.9375 1016
-140.625 296.875 1557
-500 -421.875 2381
-179.688 31.25 946
93.75 31.25 928
320.312 -125 839
-156.25 343.75 1223
-125 39.0625 935
-62.5 -406.25 954
398.438 296.875 987
117.188 242.188 1731
70.3125 273.438 1639
-351.562 -265.625 3178
-367.188 328.125 1227
-492.188 -390.625 2286
328.125 390.625 1084
-453.125 -15.625 978
-429.688 -132.812 962
-23.4375 -382.812 1112
-351.562 335.938 1223
-296.875 273.438 1119
-132.812 -375 956
476.562 382.812 1245
-148.438 -382.812 954
187.5 398.438 1317
-289.062 273.438 1119
-78.125 -367.188 962
-140.625 -140.625 885
484.375 359.375 1214
445.312 437.5 1141
445.312 375 1161
398.438 437.5 1161
46.875 273.438 1655
414.062 398.438 1138
453.125 132.812 908
-367.188 -367.188 3064
-359.375 -265.625 3120
460.938 -218.75 1165
-382.812 -367.188 3037
210.938 132.812 948
164.062 -218.75 885
-429.688 296.875 1273
70.3125 265.625 1647
-343.75 54.6875 935
-414.062 70.3125 951
-445.312 -171.875 973
-265.625 359.375 1165
312.5 414.062 1077
-375 250 1087
132.812 39.0625 915
-468.75 320.312 1250
359.375 187.5 943
-382.812 -109.375 973
-125 250 1647
453.125 382.812 1165
-148.438 -382.812 954
468.75 359.375 1169
171.875 -148.438 849
-468.75 164.062 1031
70.3125 -148.438 860
335.938 437.5 1173
390.625 -195.312 1392
-398.438 -148.438 970
-445.312 273.438 1317
351.562 437.5 1169
-414.062 -54.6875 956
-320.312 234.375 1070
-148.438 406.25 1245
367.188 289.062 992
-304.688 320.312 1255
359.375 343.75 1177
-304.688 -140.625 903
156.25 187.5 1671
-109.375 31.25 943
-406.25 -109.375 964
-468.75 85.9375 1016
23.4375 343.75 1392
171.875 265.625 1647
-398.438 -171.875 984
390.625 -109.375 841
93.75 250 2016
-367.188 -382.812 3037
-85.9375 31.25 943
-375 -453.125 2908
-421.875 320.312 1236
-500 304.688 1206
367.188 320.312 1193
132.812 -218.75 894
-359.375 -148.438 903
93.75 -148.438 856
476.562 398.438 1202
-281.25 335.938 1145
-421.875 304.688 1259
-382.812 -328.125 2984
343.75 445.312 1165
406.25 406.25 1138
78.125 257.812 1647
-398.438 -437.5 2859
-289.062 54.6875 930
-179.688 70.3125 918
-187.5 109.375 1001
257.812 15.625 896
62.5 273.438 1639
-328.125 343.75 1223
-382.812 54.6875 940
-7.8125 -140.625 869
-78.125 -390.625 954
0 -148.438 867
148.438 187.5 1671
203.125 351.562 1359
-39.0625 -265.625 1149
148.438 210.938 1696
-382.812 304.688 1273
265.625 78.125 873
148.438 171.875 1647
132.812 156.25 1655
148.438 390.625 1292
140.625 328.125 1410
-367.188 -320.312 3064
164.062 -101.562 864
-132.812 -359.375 964
-234.375 -140.625 894
-132.812 -328.125 975
367.188 421.875 1197
-46.875 -359.375 1161
414.062 414.062 1141
-312.5 351.562 1219
-453.125 -335.938 2639
-390.625 -421.875 2908
351.562 226.562 964
7.8125 250 2040
-156.25 -140.625 887
-351.562 320.312 1264
-453.125 320.312 1245
-312.5 296.875 1288
-132.812 359.375 1503
367.188 406.25 1185
-78.125 -382.812 954
-203.125 -390.625 954
359.375 281.25 987
359.375 421.875 1197
-125 328.125 1557
-203.125 335.938 1219
-500 -218.75 1153
-375 -195.312 998
-125 -203.125 987
132.812 234.375 1713
335.938 414.062 1202
-109.375 93.75 915
85.9375 343.75 1376
-304.688 -132.812 903
164.062 132.812 959
109.375 -234.375 959
-140.625 -437.5 1138
125 429.688 1278
-375 -437.5 2933
-85.9375 -351.562 967
-367.188 -390.625 3037
-500 -250 2415
-328.125 273.438 1328
109.375 85.9375 885
390.625 406.25 1141
492.188 125 896
414.062 320.312 1177
15.625 -140.625 869
351.562 257.812 981
-15.625 -375 1108
179.688 382.812 1297
-320.312 257.812 1087
179.688 406.25 1312
-367.188 -351.562 3092
31.25 273.438 1655
-23.4375 -351.562 1057
-304.688 343.75 1214
-93.75 -367.188 962
15.625 70.3125 896
15.625 343.75 1376
429.688 -164.062 1202
-273.438 -15.625 951
-320.312 296.875 1288
54.6875 234.375 1739
414.062 296.875 984
-281.25 304.688 1130
-148.438 328.125 1543
421.875 -164.062 1302
-117.188 328.125 1564
-406.25 250 1087
398.438 -398.438 2789
-437.5 -265.625 2560
351.562 234.375 964
-460.938 -335.938 2598
320.312 390.625 1084
171.875 390.625 1292
429.688 257.812 967
445.312 414.062 1189
-187.5 -390.625 954
-359.375 312.5 1259
156.25 132.812 964
335.938 421.875 1202
484.375 414.062 1173
437.5 -187.5 1202
-359.375 320.312 1259
-453.125 -328.125 2618
-125 -320.312 978
-460.938 7.8125 992
-70.3125 -218.75 1013
-140.625 -390.625 954
-31.25 328.125 1543
-140.625 -351.562 964
-312.5 23.4375 959
-156.25 117.188 989
-390.625 -171.875 984
-414.062 7.8125 987
460.938 406.25 1206
-429.688 -54.6875 954
-359.375 -304.688 3092
164.062 390.625 1292
-367.188 289.062 1302
-390.625 328.125 1236
-367.188 -304.688 3092
398.438 320.312 1181
-109.375 -242.188 1010
421.875 398.438 1149
429.688 398.438 1169
-78.125 23.4375 951
-367.188 -296.875 3120
0 39.0625 928
-359.375 -289.062 3120
-132.812 -367.188 959
15.625 -351.562 1028
93.75 250 2016
335.938 39.0625 908
335.938 39.0625 908
-429.688 -15.625 967
-320.312 -203.125 1516
140.625 226.562 1713
343.75 39.0625 908
-398.438 304.688 1268
492.188 320.312 1214
398.438 414.062 1177
-351.562 257.812 1080
70.3125 265.625 1647
492.188 367.188 1214
-367.188 -140.625 1001
93.75 257.812 2005
-468.75 257.812 1349
-414.062 -46.875 959
-15.625 117.188 978
23.4375 31.25 938
101.562 39.0625 915
-429.688 265.625 1312
-359.375 -296.875 3120
-460.938 23.4375 964
-125 343.75 1503
164.062 -171.875 878
156.25 -171.875 875
382.812 296.875 987
351.562 273.438 984
-406.25 -117.188 967
156.25 390.625 1292
62.5 23.4375 943
-390.625 -453.125 2883
234.375 39.0625 913
-304.688 31.25 951
-250 23.4375 962
-296.875 343.75 1214
-429.688 -164.062 967
-359.375 -312.5 3092
-460.938 -382.812 2560
-421.875 -156.25 962
156.25 31.25 925
85.9375 -257.812 1090
-476.562 -265.625 2522
-414.062 281.25 1297
-234.375 31.25 948
132.812 -187.5 903
-109.375 312.5 1572
-296.875 62.5 933
-359.375 -320.312 3064
-164.062 -375 956
375 -70.3125 851
-54.6875 -406.25 1145
-429.688 -140.625 962
-320.312 335.938 1223
351.562 414.062 1193
-445.312 -132.812 959
-429.688 320.312 1236
335.938 367.188 1206
468.75 406.25 1206
-312.5 148.438 1019
-281.25 -132.812 903
-125 -132.812 885
359.375 367.188 1173
140.625 445.312 1312
-406.25 281.25 1307
-312.5 320.312 1255
-359.375 -140.625 903
-164.062 -140.625 887
70.3125 273.438 1639
359.375 39.0625 908
-421.875 242.188 1084
-164.062 -398.438 954
78.125 273.438 1639
-125 -210.938 1010
-117.188 367.188 1483
-23.4375 382.812 1458
93.75 335.938 1392
109.375 242.188 1731
-382.812 -171.875 984
484.375 382.812 1210
218.75 39.0625 918
210.938 375 1359
-31.25 -390.625 1115
-164.062 31.25 946
-46.875 39.0625 928
-320.312 406.25 1404
-125 156.25 1696
23.4375 273.438 1655
-375 -109.375 975
101.562 429.688 1288
390.625 296.875 987
-367.188 -382.812 3037
398.438 429.688 1189
367.188 429.688 1193
367.188 343.75 1173
-7.8125 31.25 938
-46.875 -320.312 981
296.875 31.25 920
-312.5 429.688 1370
-476.562 140.625 1038
429.688 -179.688 1236
-195.312 -234.375 1019
-382.812 281.25 1297
398.438 296.875 987
-406.25 -140.625 923
-125 -140.625 885
429.688 132.812 910
-367.188 -265.625 3120
0 -351.562 1028
476.562 -132.812 1193
476.562 406.25 1202
-367.188 -375 3010
-390.625 -445.312 2859
359.375 296.875 992
-304.688 23.4375 959
156.25 179.688 1671
-468.75 0 998
-382.812 -359.375 3010
187.5 414.062 1312
304.688 429.688 1101
-476.562 289.062 1283
-125 -375 954
335.938 445.312 1165
328.125 414.062 1206
429.688 304.688 981
-382.812 265.625 1333
195.312 398.438 1317
-375 -125 984
-351.562 -226.562 1041
492.188 421.875 1161
468.75 421.875 1173
-375 -453.125 2908
218.75 406.25 1354
312.5 437.5 1108
265.625 31.25 925
-437.5 -140.625 964
328.125 39.0625 908
-421.875 296.875 1273
-375 -468.75 2883
-460.938 -343.75 2618
-421.875 7.8125 987
335.938 23.4375 923
195.312 367.188 1328
-109.375 398.438 1427
-23.4375 -140.625 871
-93.75 -406.25 954
-437.5 7.8125 987
-171.875 -140.625 887
-281.25 328.125 1145
-484.375 -257.812 2485
367.188 296.875 995
-320.312 78.125 943
-460.938 -390.625 2522
-484.375 -39.0625 973
-406.25 320.312 1241
-62.5 78.125 906
-406.25 335.938 1236
421.875 296.875 981
-101.562 -320.312 978
421.875 -179.688 1241
109.375 -148.438 856
-367.188 -312.5 3092
343.75 421.875 1197
-468.75 23.4375 967
367.188 -273.438 2958
-453.125 312.5 1250
-335.938 93.75 992
-367.188 -367.188 3064
-382.812 -382.812 3010
125 390.625 1288
320.312 367.188 1063
-148.438 -304.688 984
195.312 375 1322
-437.5 304.688 1273
312.5 406.25 1077
-429.688 -273.438 2618
375 296.875 995
-460.938 -351.562 2579
-31.25 117.188 978
-375 304.688 1264
460.938 351.562 1169
-367.188 -54.6875 975
-367.188 -390.625 3037
-382.812 -281.25 2859
359.375 218.75 959
-398.438 328.125 1236
-406.25 -289.062 2744
-304.688 62.5 933
-492.188 312.5 1245
367.188 78.125 864
-390.625 93.75 1004
-375 335.938 1227
-375 -460.938 2908
132.812 226.562 1705
-429.688 -179.688 981
460.938 429.688 1173
-281.25 296.875 1130
-382.812 -375 3010
-312.5 335.938 1223
406.25 320.312 1181
132.812 234.375 1713
-398.438 93.75 1007
-343.75 93.75 995
-476.562 234.375 1101
-437.5 296.875 1273
351.562 -125 835
-359.375 54.6875 940
421.875 -187.5 1241
-453.125 -320.312 2618
-429.688 312.5 1241
-414.062 -171.875 981
-390.625 -23.4375 978
-406.25 328.125 1236
125 39.0625 918
-39.0625 -414.062 1101
460.938 273.438 973
-468.75 7.8125 987
140.625 328.125 1410
171.875 125 959
-359.375 -39.0625 989
-460.938 -273.438 2522
429.688 390.625 1161
156.25 187.5 1671
156.25 85.9375 885
-156.25 -281.25 992
-54.6875 -140.625 875
-117.188 328.125 1564
-421.875 -140.625 959
-109.375 -304.688 984
476.562 390.625 1210
70.3125 23.4375 940
109.375 242.188 1731
15.625 23.4375 943
-390.625 -414.062 2984
312.5 445.312 1108
-382.812 289.062 1292
-453.125 -343.75 2618
85.9375 359.375 1328
-429.688 85.9375 1007
-335.938 296.875 1292
-414.062 -179.688 981
46.875 23.4375 946
148.438 195.312 1680
-257.812 -132.812 898
-148.438 -445.312 1145
-15.625 265.625 1671
23.4375 23.4375 946
328.125 328.125 1038
-359.375 -328.125 3120
-351.562 -257.812 3208
437.5 -179.688 1197
-406.25 312.5 1241
-445.312 -281.25 2618
-492.188 -54.6875 978
-421.875 -109.375 956
-421.875 -164.062 967
46.875 234.375 1739
-429.688 -421.875 3037
-484.375 -7.8125 989
460.938 414.062 1177
-453.125 -156.25 962
-148.438 -375 956
-156.25 -375 956
-445.312 -156.25 962
187.5 406.25 1312
320.312 375 1067
-164.062 -289.062 989
85.9375 39.0625 918
-398.438 335.938 1236
156.25 39.0625 918
367.188 -23.4375 873
367.188 23.4375 923
367.188 125 918
-171.875 -320.312 975
429.688 312.5 1189
-7.8125 39.0625 928
187.5 39.0625 918
-31.25 23.4375 951
375 406.25 1145
-328.125 -210.938 1529
-453.125 -335.938 2639
-320.312 351.562 1223
367.188 171.875 935
-500 -125 1112
-54.6875 -312.5 984
-367.188 -359.375 3064
-359.375 -312.5 3092
421.875 414.062 1177
-460.938 -359.375 2579
93.75 257.812 2005
367.188 351.562 1169
62.5 273.438 1639
-429.688 257.812 1338
359.375 195.312 946
-351.562 335.938 1223
-156.25 -335.938 973
-156.25 -257.812 1004
-375 -437.5 2933
-335.938 335.938 1223
-281.25 351.562 1206
-265.625 359.375 1165
-226.562 31.25 946
164.062 390.625 1292
445.312 390.625 1177
-210.938 31.25 943
-31.25 31.25 943
-351.562 -203.125 1019
-382.812 -367.188 3037
-453.125 273.438 1317
148.438 132.812 962
140.625 218.75 1696
398.438 421.875 1185
445.312 132.812 908
-437.5 -164.062 967
-125 343.75 1503
-312.5 31.25 948
-414.062 -46.875 959
-445.312 -117.188 962
109.375 250 2028
335.938 437.5 1173
-343.75 289.062 1288
343.75 437.5 1165
-93.75 -320.312 978
-500 148.438 1060
-500 156.25 1031
-390.625 -453.125 2883
-359.375 -304.688 3092
31.25 31.25 935
203.125 382.812 1349
-500 -187.5 978
187.5 375 1312
312.5 -39.0625 871
460.938 382.812 1149
-460.938 -101.562 959
-390.625 218.75 1073
351.562 265.625 984
187.5 351.562 1354
-171.875 437.5 1245
171.875 39.0625 918
453.125 320.312 1181
171.875 257.812 1655
-375 -445.312 2859
-156.25 -445.312 1153
351.562 437.5 1169
351.562 445.312 1165
-406.25 -242.188 1197
-390.625 -460.938 2883
328.125 359.375 1054
156.25 429.688 1292
-242.188 -250 1161
-437.5 -117.188 956
-85.9375 -250 1010
-343.75 -203.125 1019
0 390.625 1439
85.9375 351.562 1328
-476.562 -148.438 967
-265.625 -132.812 901
-257.812 31.25 943
-273.438 328.125 1145
-375 -468.75 2883
-460.938 -398.438 2522
328.125 335.938 1044
-101.562 31.25 943
-375 328.125 1232
289.062 -31.25 880
-375 -460.938 2908
-367.188 -382.812 3037
328.125 437.5 1169
-85.9375 328.125 1550
148.438 328.125 1410
-289.062 406.25 1404
-351.562 328.125 1232
359.375 210.938 954
-117.188 -335.938 973
-7.8125 117.188 978
-367.188 -390.625 3037
-39.0625 -343.75 1067
-179.688 437.5 1245
351.562 242.188 970
-359.375 -7.8125 1010
-351.562 -273.438 3178
-359.375 -320.312 3064
382.812 328.125 1177
492.188 335.938 1223
453.125 429.688 1181
-304.688 296.875 1283
-476.562 -281.25 2598
-101.562 23.4375 954
-93.75 320.312 1564
-54.6875 382.812 1452
132.812 226.562 1705
304.688 437.5 1108
-257.812 414.062 1206
171.875 265.625 1647
-289.062 304.688 1278
-351.562 398.438 1427
-453.125 -78.125 954
164.062 382.812 1312
-7.8125 382.812 1458
-31.25 343.75 1516
468.75 320.312 1193
-273.438 320.312 1134
-429.688 343.75 1236
-367.188 -375 3064
-351.562 -265.625 3120
-453.125 -328.125 2639
-281.25 62.5 930
312.5 398.438 1073
-398.438 -296.875 2859
-78.125 -406.25 951
156.25 273.438 1632
-398.438 -234.375 1206
406.25 -382.812 2767
-148.438 -265.625 998
-125 -398.438 954
445.312 382.812 1149
-476.562 -171.875 970
-382.812 -304.688 2883
-382.812 -54.6875 964
406.25 296.875 978
-398.438 -406.25 2984
132.812 335.938 1404
351.562 257.812 973
429.688 -156.25 1206
-351.562 -257.812 3208
-351.562 -289.062 3178
-453.125 -343.75 2618
312.5 406.25 1080
