ply
format ascii 1.0
comment Created by Open3D
element vertex 2358
property double x
property double y
property double z
end_header
-218.75 70.3125 908
0 -54.6875 928
-15.625 367.188 1181
-476.562 -359.375 2767
-171.875 -23.4375 970
-93.75 -23.4375 930
-85.9375 281.25 1041
429.688 257.812 1404
-109.375 367.188 1181
-312.5 382.812 1173
-234.375 335.938 1245
-257.812 390.625 1169
-281.25 335.938 1227
-85.9375 375 1177
-273.438 343.75 1227
-375 -171.875 3064
132.812 78.125 970
31.25 328.125 1219
-85.9375 -23.4375 928
-78.125 -203.125 943
-289.062 367.188 1197
-257.812 382.812 1169
484.375 -23.4375 948
-39.0625 343.75 1214
54.6875 343.75 1193
39.0625 335.938 1219
-62.5 320.312 1241
-54.6875 -226.562 1034
-500 320.312 1915
-132.812 328.125 1245
179.688 46.875 923
414.062 -54.6875 967
-93.75 351.562 1210
-195.312 375 1177
-320.312 398.438 1157
70.3125 -156.25 896
-93.75 15.625 967
-304.688 382.812 1173
-203.125 312.5 1273
7.8125 -265.625 1181
-460.938 -281.25 2859
-46.875 -132.812 1007
429.688 -70.3125 962
234.375 351.562 1464
-468.75 -437.5 2680
179.688 -414.062 970
-93.75 320.312 1250
-31.25 335.938 1219
429.688 -218.75 943
-62.5 359.375 1177
-54.6875 -179.688 956
-375 125 898
-328.125 359.375 1145
195.312 429.688 1338
-265.625 -179.688 1047
125 -429.688 1138
-226.562 -101.562 1050
218.75 -367.188 992
265.625 -117.188 925
-265.625 312.5 1264
-250 359.375 1197
31.25 312.5 1250
-242.188 -109.375 1101
-265.625 335.938 1241
-179.688 351.562 1206
-23.4375 -62.5 925
-62.5 335.938 1245
218.75 -7.8125 962
39.0625 -359.375 1189
-187.5 281.25 1034
-23.4375 -70.3125 925
-453.125 -335.938 2812
-242.188 -117.188 1101
-476.562 -375 2767
140.625 -375 975
421.875 -218.75 943
343.75 -54.6875 959
125 -15.625 948
-304.688 78.125 903
0 -15.625 1004
-164.062 -93.75 1019
296.875 -375 1067
-195.312 281.25 1034
93.75 15.625 943
-484.375 -429.688 2680
179.688 -390.625 970
179.688 -429.688 975
-109.375 273.438 1038
-164.062 -62.5 1028
-101.562 15.625 935
250 -414.062 981
23.4375 257.812 1044
-125 23.4375 948
257.812 -39.0625 956
-15.625 -156.25 967
250 -289.062 1028
39.0625 265.625 1050
-257.812 203.125 975
109.375 -171.875 906
109.375 210.938 1028
46.875 -351.562 1189
148.438 -242.188 1028
62.5 328.125 1223
-265.625 125 954
-187.5 351.562 1210
-265.625 -195.312 1063
70.3125 210.938 1025
-117.188 15.625 935
-23.4375 335.938 1219
-140.625 328.125 1241
328.125 23.4375 933
-23.4375 -125 951
-210.938 289.062 1038
-328.125 382.812 1165
-156.25 312.5 1268
-148.438 382.812 1169
62.5 -171.875 915
156.25 445.312 1250
484.375 -226.562 951
-250 320.312 1268
93.75 250 1050
117.188 -179.688 915
-242.188 359.375 1202
54.6875 328.125 1227
-62.5 -85.9375 920
109.375 -429.688 1138
-468.75 93.75 898
-85.9375 351.562 1206
-109.375 109.375 964
-304.688 359.375 1202
187.5 -398.438 970
-296.875 359.375 1202
-250 382.812 1173
-421.875 109.375 896
-289.062 117.188 906
-101.562 367.188 1185
203.125 -250 1034
328.125 320.312 1370
359.375 -54.6875 962
-257.812 312.5 1264
-375 -156.25 1445
-500 -187.5 2198
-210.938 -46.875 1054
-7.8125 -54.6875 930
-148.438 304.688 1268
-484.375 390.625 1748
-195.312 328.125 1245
-234.375 312.5 1268
-117.188 -140.625 930
54.6875 351.562 1189
31.25 85.9375 915
-179.688 -70.3125 1047
-453.125 -265.625 2812
-203.125 -187.5 956
-429.688 -226.562 2984
-195.312 257.812 1022
-70.3125 93.75 913
-70.3125 343.75 1210
-78.125 304.688 1264
-468.75 -429.688 2701
-132.812 -187.5 925
15.625 -54.6875 935
-140.625 375 1173
226.562 -187.5 910
-93.75 343.75 1210
-320.312 289.062 1025
289.062 -203.125 933
-148.438 109.375 959
164.062 -23.4375 948
257.812 -195.312 925
-140.625 -195.312 1161
-46.875 -109.375 925
351.562 -359.375 1087
-460.938 -390.625 2767
-70.3125 296.875 1264
-281.25 390.625 1161
-117.188 -203.125 1130
-132.812 -7.8125 935
-437.5 -218.75 2883
-23.4375 312.5 1250
265.625 195.312 1766
-500 -359.375 2812
23.4375 -85.9375 954
476.562 -78.125 964
453.125 -304.688 1025
-125 -187.5 928
-15.625 117.188 973
70.3125 -312.5 1227
-78.125 -156.25 925
-273.438 -195.312 1063
-109.375 -171.875 933
-78.125 54.6875 915
7.8125 -46.875 928
429.688 -296.875 1019
-421.875 -179.688 3010
-23.4375 54.6875 915
-109.375 343.75 1206
-437.5 -226.562 2883
-296.875 335.938 1259
7.8125 265.625 1050
-460.938 -289.062 2859
125 429.688 1232
-39.0625 -117.188 933
257.812 -93.75 935
54.6875 78.125 913
101.562 -7.8125 946
-148.438 -109.375 998
0 359.375 1185
39.0625 -62.5 962
-218.75 375 1173
-7.8125 367.188 1181
140.625 421.875 1227
390.625 -62.5 959
-156.25 304.688 1268
-148.438 101.562 913
-382.812 85.9375 903
-265.625 367.188 1202
-226.562 70.3125 908
46.875 78.125 913
-492.188 304.688 1959
210.938 -250 1038
-359.375 85.9375 901
-70.3125 367.188 1177
359.375 -156.25 918
148.438 39.0625 918
-39.0625 265.625 1041
195.312 -335.938 995
101.562 -171.875 903
-117.188 78.125 913
-476.562 117.188 894
-109.375 31.25 946
-54.6875 -164.062 935
203.125 226.562 1680
476.562 -226.562 951
445.312 -203.125 913
-117.188 -171.875 930
-265.625 117.188 908
273.438 -31.25 962
-429.688 -234.375 2984
210.938 -31.25 954
-140.625 351.562 1210
-218.75 289.062 1038
-320.312 359.375 1206
-171.875 359.375 1206
-242.188 312.5 1273
179.688 -15.625 956
-382.812 125 903
-132.812 375 1173
101.562 398.438 1169
70.3125 218.75 1028
-148.438 351.562 1210
210.938 226.562 1680
-39.0625 -46.875 923
-23.4375 343.75 1214
-320.312 382.812 1185
85.9375 101.562 973
148.438 -453.125 1165
343.75 218.75 1470
-234.375 320.312 1268
-468.75 218.75 975
-23.4375 -117.188 938
-351.562 125 901
-62.5 -109.375 925
-242.188 335.938 1245
7.8125 -62.5 935
-23.4375 320.312 1250
-85.9375 -117.188 923
39.0625 351.562 1185
-226.562 93.75 910
437.5 -15.625 943
484.375 -296.875 1019
-218.75 296.875 1038
-234.375 351.562 1232
250 -250 1044
320.312 23.4375 933
0 312.5 1255
320.312 -351.562 1070
70.3125 -164.062 903
-203.125 281.25 1034
140.625 54.6875 920
-117.188 -164.062 946
62.5 -7.8125 981
-273.438 289.062 1028
-93.75 273.438 1038
-203.125 70.3125 908
-93.75 -195.312 938
-117.188 273.438 1038
273.438 -382.812 995
234.375 -343.75 1004
-460.938 93.75 898
-195.312 375 1177
-179.688 328.125 1245
273.438 218.75 1688
-117.188 328.125 1241
304.688 -414.062 3010
-125 289.062 1038
140.625 351.562 1197
-62.5 281.25 1041
-101.562 -179.688 933
179.688 -406.25 970
351.562 -39.0625 967
-250 -109.375 1101
-476.562 93.75 901
-437.5 -257.812 2859
-78.125 351.562 1206
234.375 62.5 981
-468.75 -453.125 2680
7.8125 273.438 1050
85.9375 0 948
-23.4375 273.438 1047
46.875 281.25 1292
-445.312 -257.812 2812
-265.625 390.625 1165
-109.375 -70.3125 933
226.562 281.25 1594
-164.062 359.375 1206
-242.188 328.125 1259
-171.875 382.812 1173
234.375 281.25 1594
-445.312 -265.625 2883
-7.8125 85.9375 915
-7.8125 -39.0625 935
31.25 -54.6875 959
-62.5 -164.062 933
203.125 -187.5 918
-101.562 320.312 1255
-140.625 289.062 1038
-109.375 -187.5 933
-312.5 78.125 903
85.9375 -398.438 1145
-218.75 203.125 992
445.312 -54.6875 967
-15.625 -148.438 992
-304.688 265.625 1013
-218.75 -39.0625 1060
-226.562 335.938 1236
-210.938 187.5 989
109.375 203.125 1022
46.875 312.5 1250
-23.4375 93.75 915
-437.5 132.812 901
31.25 351.562 1206
-93.75 -171.875 935
-234.375 -54.6875 1070
-250 203.125 975
93.75 234.375 1038
-296.875 101.562 903
250 289.062 1579
70.3125 -171.875 915
351.562 250 1470
-242.188 382.812 1169
-257.812 382.812 1169
203.125 -359.375 992
-343.75 265.625 1010
-453.125 -351.562 2767
-242.188 -85.9375 1054
-468.75 -445.312 2680
-187.5 351.562 1210
-437.5 -265.625 2908
226.562 15.625 930
-226.562 296.875 1038
-437.5 -250 2883
-289.062 390.625 1161
23.4375 -93.75 954
156.25 -367.188 978
-210.938 375 1177
-148.438 320.312 1255
-296.875 390.625 1169
-7.8125 234.375 1028
31.25 -437.5 1193
46.875 -437.5 1173
78.125 242.188 1041
-500 -390.625 2744
-304.688 117.188 903
-140.625 15.625 959
-148.438 -179.688 928
-156.25 375 1177
-46.875 265.625 1038
-335.938 93.75 898
328.125 117.188 1722
-70.3125 -203.125 943
-117.188 296.875 1044
257.812 -31.25 959
-500 390.625 1748
109.375 320.312 1119
-109.375 328.125 1245
304.688 -203.125 930
15.625 -70.3125 943
-31.25 312.5 1250
-171.875 335.938 1241
156.25 -179.688 910
46.875 -335.938 1210
46.875 39.0625 918
15.625 335.938 1219
210.938 -164.062 901
335.938 335.938 1354
23.4375 359.375 1189
-78.125 -109.375 925
187.5 70.3125 973
-242.188 320.312 1268
-46.875 -23.4375 925
85.9375 -164.062 898
46.875 359.375 1177
250 218.75 1688
-164.062 312.5 1268
-7.8125 296.875 1288
-125 351.562 1206
78.125 343.75 1126
-132.812 15.625 948
-117.188 351.562 1206
484.375 39.0625 1019
218.75 15.625 930
-304.688 289.062 1022
-195.312 281.25 1034
-85.9375 375 1177
62.5 351.562 1193
-234.375 335.938 1245
-164.062 382.812 1169
-171.875 328.125 1241
-164.062 -171.875 925
39.0625 304.688 1255
468.75 -250 962
-257.812 343.75 1227
-93.75 -117.188 923
-164.062 -23.4375 970
-93.75 -210.938 1090
15.625 312.5 1250
-351.562 265.625 1010
-31.25 359.375 1177
-54.6875 281.25 1041
-265.625 359.375 1202
-23.4375 359.375 1181
-250 335.938 1232
-148.438 328.125 1241
109.375 304.688 1108
-125 273.438 1038
62.5 0 973
-101.562 343.75 1210
203.125 -414.062 975
-46.875 343.75 1214
-273.438 367.188 1202
-54.6875 -125 925
195.312 -296.875 1016
-210.938 296.875 1038
-7.8125 -70.3125 935
156.25 281.25 1609
257.812 203.125 1776
-203.125 367.188 1197
15.625 257.812 1044
-46.875 320.312 1245
-210.938 257.812 1022
-140.625 320.312 1268
-257.812 203.125 975
-70.3125 242.188 1022
-15.625 289.062 1307
-132.812 281.25 1038
492.188 -226.562 930
-437.5 -140.625 1421
-445.312 132.812 901
-468.75 -406.25 2723
-429.688 -218.75 2984
-85.9375 328.125 1245
281.25 203.125 2090
-460.938 -257.812 2723
-125 -46.875 933
-257.812 320.312 1264
-171.875 -242.188 1165
-281.25 70.3125 913
296.875 -414.062 3010
-148.438 -31.25 943
187.5 -226.562 1013
140.625 -437.5 1149
218.75 -23.4375 956
148.438 -375 975
-437.5 398.438 1739
31.25 328.125 1219
-492.188 -382.812 2767
-164.062 62.5 915
265.625 -7.8125 956
-132.812 -70.3125 951
-203.125 296.875 1025
-265.625 -101.562 1105
-250 312.5 1273
-250 296.875 1034
-93.75 281.25 1038
-218.75 328.125 1264
132.812 -7.8125 951
-273.438 125 951
-171.875 -46.875 1047
-203.125 375 1177
-257.812 398.438 1169
-429.688 406.25 1731
-460.938 -296.875 2859
-335.938 382.812 1130
265.625 31.25 930
-289.062 296.875 1031
-257.812 -117.188 1101
117.188 -15.625 946
312.5 23.4375 933
-125 -54.6875 935
398.438 234.375 1452
-7.8125 359.375 1185
-93.75 320.312 1250
312.5 7.8125 930
31.25 304.688 1250
-421.875 398.438 1084
203.125 -23.4375 954
78.125 234.375 1041
-101.562 -54.6875 930
484.375 -250 962
421.875 -54.6875 967
328.125 -273.438 1119
-125 -140.625 964
-93.75 328.125 1245
429.688 -54.6875 970
-125 226.562 970
-54.6875 273.438 1041
-210.938 281.25 1034
-15.625 -140.625 989
-140.625 367.188 1202
117.188 0 956
-7.8125 343.75 1214
-78.125 367.188 1181
-62.5 382.812 1177
70.3125 132.812 987
328.125 101.562 1713
382.812 -46.875 967
390.625 -46.875 967
7.8125 -46.875 928
367.188 62.5 1007
398.438 -23.4375 964
-15.625 367.188 1181
234.375 -250 1044
-101.562 367.188 1185
250 -23.4375 962
226.562 -328.125 1007
-265.625 382.812 1169
-156.25 351.562 1210
-109.375 -117.188 923
23.4375 -328.125 1232
187.5 0 956
0 367.188 1185
-390.625 85.9375 903
-242.188 93.75 906
-15.625 296.875 1292
-179.688 382.812 1177
117.188 218.75 1739
62.5 85.9375 918
320.312 -39.0625 962
-179.688 359.375 1206
-93.75 -179.688 935
-218.75 -132.812 1028
132.812 0 959
23.4375 351.562 1189
148.438 406.25 1219
-250 359.375 1197
312.5 -31.25 967
-70.3125 -210.938 943
-70.3125 281.25 1044
203.125 -312.5 1010
-312.5 335.938 1250
-156.25 101.562 913
-148.438 250 1022
39.0625 -460.938 1197
54.6875 85.9375 913
312.5 -46.875 959
-312.5 289.062 1025
-140.625 -164.062 923
-31.25 335.938 1219
7.8125 296.875 1278
31.25 -78.125 956
-23.4375 -140.625 995
-164.062 109.375 913
296.875 375 1387
-101.562 -171.875 933
-226.562 328.125 1236
289.062 -31.25 962
-164.062 375 1177
-54.6875 -23.4375 925
-203.125 257.812 1022
-281.25 335.938 1227
312.5 -414.062 2984
421.875 -281.25 1019
0 -109.375 943
-39.0625 335.938 1214
171.875 -281.25 1013
343.75 -54.6875 959
-85.9375 -179.688 938
-54.6875 242.188 1025
-382.812 -171.875 3064
484.375 -210.938 915
-320.312 265.625 1010
46.875 289.062 1288
117.188 -375 989
-453.125 -343.75 2789
-85.9375 -156.25 925
-39.0625 296.875 1283
-78.125 -195.312 943
-140.625 281.25 1038
187.5 -351.562 989
85.9375 406.25 1181
140.625 -234.375 1034
54.6875 281.25 1288
367.188 -359.375 1421
265.625 -31.25 959
-187.5 312.5 1273
-250 375 1206
-78.125 -187.5 943
-101.562 0 935
-273.438 -187.5 1057
-226.562 351.562 1210
398.438 -54.6875 962
-85.9375 320.312 1245
-117.188 156.25 981
437.5 -54.6875 967
-156.25 -62.5 1022
-492.188 -359.375 2767
-320.312 289.062 1025
210.938 -23.4375 956
203.125 359.375 1445
-195.312 351.562 1245
-156.25 62.5 915
23.4375 328.125 1219
273.438 -7.8125 956
7.8125 234.375 1028
-242.188 375 1202
-132.812 343.75 1227
273.438 7.8125 933
-109.375 304.688 1283
-85.9375 296.875 1264
-195.312 375 1177
203.125 187.5 1757
-78.125 -117.188 923
492.188 -70.3125 967
312.5 -39.0625 962
117.188 -398.438 978
-62.5 -171.875 938
-39.0625 -140.625 1013
-148.438 312.5 1268
273.438 187.5 1766
-304.688 359.375 1202
-156.25 -179.688 925
-210.938 218.75 964
468.75 289.062 1477
-85.9375 304.688 1268
437.5 -39.0625 981
-390.625 -171.875 3064
-101.562 7.8125 935
-7.8125 289.062 1307
-164.062 281.25 1038
132.812 304.688 1214
210.938 -304.688 1016
-31.25 -218.75 1004
-140.625 343.75 1227
406.25 -54.6875 967
-320.312 382.812 1185
460.938 -242.188 970
-7.8125 312.5 1255
-54.6875 7.8125 975
101.562 -335.938 1028
-70.3125 -78.125 918
-132.812 125 967
-7.8125 335.938 1214
-109.375 273.438 1038
-70.3125 359.375 1202
148.438 -226.562 1022
-296.875 335.938 1259
-203.125 351.562 1214
132.812 -437.5 1145
-164.062 367.188 1210
-468.75 -437.5 2680
23.4375 257.812 1044
54.6875 351.562 1189
-203.125 281.25 1034
-382.812 132.812 903
320.312 117.188 1722
171.875 -414.062 970
-70.3125 343.75 1210
171.875 -429.688 981
93.75 54.6875 918
-93.75 -203.125 938
-70.3125 281.25 1044
-437.5 -164.062 2984
-156.25 -46.875 946
132.812 226.562 1696
-109.375 343.75 1206
117.188 -445.312 1145
-109.375 320.312 1245
-148.438 -117.188 995
93.75 203.125 1022
-171.875 289.062 1041
-257.812 359.375 1197
-46.875 0 987
-390.625 140.625 951
62.5 15.625 946
351.562 -46.875 962
-210.938 375 1177
242.188 -15.625 973
39.0625 -7.8125 989
164.062 195.312 1757
156.25 -15.625 948
-140.625 -187.5 925
257.812 -398.438 984
39.0625 359.375 1177
-242.188 210.938 964
-23.4375 343.75 1214
304.688 -39.0625 962
-242.188 -85.9375 1054
312.5 -203.125 928
23.4375 -39.0625 962
-31.25 -226.562 1016
-46.875 359.375 1181
-257.812 -109.375 1101
-320.312 320.312 1245
-164.062 195.312 995
7.8125 289.062 1283
-265.625 132.812 956
0 273.438 1047
-468.75 -203.125 2541
250 -195.312 925
-93.75 7.8125 935
-273.438 -195.312 1063
-31.25 320.312 1250
-117.188 -203.125 1130
-54.6875 0 984
-15.625 7.8125 967
-406.25 85.9375 901
70.3125 0 970
54.6875 7.8125 959
-226.562 343.75 1236
-187.5 375 1177
156.25 -242.188 1028
453.125 -62.5 970
195.312 -242.188 1038
296.875 -46.875 959
-78.125 343.75 1210
93.75 -148.438 896
-117.188 273.438 1038
-445.312 -296.875 2859
-242.188 -117.188 1101
-218.75 351.562 1206
-210.938 351.562 1206
78.125 -296.875 1278
437.5 -70.3125 962
-85.9375 -117.188 923
203.125 -296.875 1016
-257.812 -226.562 1115
-46.875 -93.75 923
-148.438 -23.4375 948
-101.562 320.312 1255
-242.188 351.562 1232
-179.688 304.688 1038
-203.125 328.125 1250
171.875 -23.4375 948
-31.25 343.75 1219
-273.438 187.5 978
0 -70.3125 935
226.562 187.5 1766
-234.375 70.3125 910
-250 320.312 1268
-23.4375 312.5 1250
-156.25 250 1022
39.0625 -257.812 1157
31.25 312.5 1250
85.9375 -273.438 1189
-234.375 375 1177
-39.0625 359.375 1181
140.625 -375 975
382.812 -62.5 956
-257.812 70.3125 910
250 -31.25 959
-54.6875 343.75 1210
62.5 -171.875 915
-460.938 -398.438 2744
-304.688 335.938 1259
242.188 -257.812 1041
-117.188 343.75 1206
70.3125 148.438 992
-484.375 -437.5 2680
-242.188 257.812 1016
-148.438 -187.5 928
-195.312 312.5 1273
-132.812 -85.9375 959
-15.625 85.9375 915
-179.688 328.125 1245
-54.6875 -171.875 940
-468.75 -328.125 2835
-296.875 343.75 1223
39.0625 328.125 1219
-265.625 312.5 1264
-164.062 351.562 1210
31.25 -31.25 964
328.125 46.875 935
15.625 -31.25 954
-46.875 335.938 1214
-429.688 -187.5 3010
328.125 -39.0625 964
367.188 -46.875 962
-117.188 367.188 1177
-39.0625 -39.0625 923
-226.562 375 1177
-257.812 312.5 1264
-62.5 -210.938 946
-492.188 -453.125 2680
445.312 -250 1010
-109.375 -54.6875 930
-359.375 265.625 1010
7.8125 335.938 1219
-328.125 289.062 1022
-265.625 359.375 1202
-62.5 -179.688 954
-242.188 70.3125 910
39.0625 78.125 915
-179.688 335.938 1245
-54.6875 -54.6875 918
0 359.375 1185
226.562 -367.188 992
-218.75 375 1173
-31.25 -93.75 928
-93.75 375 1177
-250 335.938 1232
-140.625 -15.625 962
210.938 -414.062 975
164.062 -242.188 1028
-156.25 375 1177
468.75 -78.125 964
70.3125 171.875 1004
-132.812 -171.875 923
-226.562 203.125 992
-210.938 312.5 1268
-31.25 359.375 1177
-31.25 312.5 1250
101.562 31.25 920
-484.375 93.75 906
218.75 -367.188 992
414.062 -218.75 946
156.25 -23.4375 948
-203.125 375 1177
-460.938 117.188 896
-39.0625 273.438 1047
210.938 -437.5 987
93.75 -171.875 908
-234.375 328.125 1259
-359.375 93.75 898
250 -39.0625 956
281.25 -203.125 933
-445.312 -304.688 2859
203.125 -31.25 951
-70.3125 367.188 1177
109.375 -15.625 946
-7.8125 -101.562 938
109.375 210.938 1028
-46.875 -46.875 918
-46.875 367.188 1181
-70.3125 15.625 967
-7.8125 -39.0625 935
390.625 -39.0625 981
-54.6875 -62.5 920
445.312 -62.5 964
-273.438 359.375 1206
-140.625 -132.812 975
125 -421.875 1138
-109.375 367.188 1181
-257.812 351.562 1223
429.688 -70.3125 962
-39.0625 367.188 1181
-406.25 125 901
226.562 62.5 923
-101.562 351.562 1210
187.5 -421.875 975
-203.125 -70.3125 1050
31.25 335.938 1219
23.4375 351.562 1189
195.312 -187.5 918
343.75 -31.25 984
-132.812 15.625 948
-171.875 367.188 1210
-46.875 265.625 1038
-7.8125 359.375 1185
-187.5 328.125 1245
-23.4375 289.062 1050
-117.188 -187.5 930
7.8125 257.812 1044
-46.875 -171.875 940
-421.875 -187.5 3037
281.25 54.6875 935
-257.812 335.938 1232
-187.5 359.375 1206
39.0625 312.5 1255
-78.125 78.125 913
117.188 -7.8125 948
39.0625 289.062 1288
-125 273.438 1038
-234.375 109.375 913
-320.312 359.375 1206
-148.438 -179.688 928
-31.25 -31.25 928
-125 367.188 1206
85.9375 -7.8125 946
-117.188 -46.875 933
-171.875 78.125 910
226.562 -156.25 906
234.375 -281.25 1031
218.75 281.25 1594
289.062 54.6875 984
421.875 31.25 946
-320.312 78.125 906
-195.312 289.062 1028
31.25 304.688 1250
62.5 -156.25 903
-429.688 -195.312 3010
46.875 78.125 913
-93.75 -23.4375 930
70.3125 210.938 1025
-265.625 375 1197
-460.938 -390.625 2767
-156.25 312.5 1268
304.688 -46.875 959
85.9375 -148.438 896
-257.812 -125 1105
-273.438 320.312 1264
-273.438 382.812 1165
-164.062 304.688 1278
-414.062 85.9375 901
-156.25 304.688 1268
-23.4375 320.312 1250
-148.438 328.125 1241
109.375 -7.8125 948
-164.062 85.9375 910
-210.938 281.25 1034
70.3125 109.375 975
-179.688 390.625 1173
-203.125 351.562 1214
15.625 257.812 1044
-468.75 -335.938 2767
-304.688 93.75 901
-39.0625 335.938 1214
-125 343.75 1241
-7.8125 273.438 1047
-31.25 46.875 915
343.75 281.25 1359
-195.312 328.125 1245
-226.562 296.875 1038
-54.6875 -23.4375 925
-164.062 375 1177
132.812 -429.688 1141
-210.938 328.125 1250
-7.8125 351.562 1214
-70.3125 320.312 1241
164.062 -429.688 984
-156.25 351.562 1210
-210.938 335.938 1236
398.438 -218.75 943
-117.188 203.125 967
-265.625 382.812 1169
-132.812 320.312 1245
7.8125 -46.875 928
-468.75 117.188 894
-101.562 54.6875 915
-375 265.625 1010
359.375 -46.875 962
-218.75 296.875 1038
-226.562 -203.125 1130
-93.75 -54.6875 925
70.3125 -414.062 1149
-148.438 -195.312 1165
-54.6875 -210.938 951
210.938 -31.25 954
-195.312 351.562 1245
-421.875 -132.812 1392
492.188 -296.875 954
39.0625 281.25 1050
210.938 281.25 1601
-164.062 312.5 1268
-15.625 328.125 1250
-31.25 273.438 1050
-164.062 -187.5 925
-23.4375 -78.125 928
15.625 289.062 1288
304.688 -171.875 908
-101.562 328.125 1250
-304.688 367.188 1193
-281.25 359.375 1189
-109.375 351.562 1206
-265.625 320.312 1264
-226.562 281.25 1034
-15.625 -54.6875 928
-351.562 289.062 1022
-203.125 -54.6875 1054
460.938 -46.875 989
23.4375 328.125 1219
-492.188 -85.9375 1255
-281.25 382.812 1165
46.875 226.562 1031
-304.688 78.125 903
250 -164.062 906
-179.688 359.375 1206
23.4375 -359.375 1214
-148.438 289.062 1041
328.125 -203.125 925
-85.9375 -187.5 938
187.5 -164.062 898
-125 328.125 1241
-54.6875 -164.062 935
-468.75 -445.312 2680
-281.25 320.312 1264
-85.9375 -156.25 925
-171.875 304.688 1283
-234.375 203.125 989
101.562 -7.8125 946
187.5 -359.375 987
-468.75 -343.75 2767
421.875 -70.3125 962
-460.938 -382.812 2767
-296.875 125 948
-429.688 -210.938 2984
85.9375 -171.875 910
-125 375 1173
437.5 -304.688 1028
-312.5 117.188 901
78.125 320.312 1119
-171.875 -210.938 1161
-171.875 335.938 1241
-242.188 109.375 913
-54.6875 265.625 1038
281.25 7.8125 933
-289.062 343.75 1227
-187.5 85.9375 910
-156.25 -195.312 1161
390.625 218.75 1470
-195.312 359.375 1206
-203.125 109.375 908
-289.062 382.812 1173
-250 -125 1105
-492.188 117.188 891
-445.312 -265.625 2883
257.812 -195.312 925
-132.812 351.562 1210
-15.625 289.062 1307
117.188 414.062 1177
437.5 -62.5 964
-273.438 312.5 1031
31.25 328.125 1219
-218.75 375 1173
-70.3125 281.25 1044
7.8125 54.6875 915
-187.5 -31.25 1067
-156.25 328.125 1245
-328.125 382.812 1165
-414.062 398.438 1084
-78.125 320.312 1241
109.375 312.5 1115
125 93.75 998
-312.5 390.625 1165
-437.5 -265.625 2908
-23.4375 296.875 1288
23.4375 304.688 1250
-117.188 320.312 1241
-93.75 351.562 1210
-234.375 281.25 1031
-125 15.625 940
265.625 15.625 930
46.875 281.25 1292
-109.375 320.312 1245
46.875 328.125 1223
-140.625 289.062 1038
-78.125 281.25 1044
-492.188 93.75 903
-250 257.812 1016
31.25 -70.3125 956
-148.438 375 1177
7.8125 328.125 1255
210.938 -273.438 1028
304.688 -203.125 930
-328.125 359.375 1145
-31.25 343.75 1219
-62.5 -195.312 946
265.625 -289.062 1028
-156.25 343.75 1227
-85.9375 375 1177
-414.062 125 901
-335.938 289.062 1022
148.438 -429.688 1153
39.0625 359.375 1177
46.875 351.562 1185
93.75 31.25 920
-109.375 101.562 913
250 -187.5 908
-476.562 390.625 1748
-156.25 -179.688 925
-31.25 -62.5 925
54.6875 -437.5 1165
101.562 406.25 1177
-320.312 289.062 1025
-164.062 351.562 1210
-70.3125 -164.062 933
250 -257.812 1041
-343.75 289.062 1022
296.875 195.312 2090
7.8125 -23.4375 948
-39.0625 265.625 1041
-453.125 -343.75 2789
62.5 226.562 1031
406.25 -218.75 948
328.125 -210.938 940
164.062 -23.4375 948
382.812 -179.688 908
-187.5 335.938 1245
-335.938 351.562 1149
257.812 -273.438 1041
335.938 -187.5 906
195.312 -250 1031
-320.312 93.75 901
-31.25 320.312 1250
85.9375 93.75 970
-437.5 -257.812 2859
468.75 -226.562 951
-93.75 -117.188 923
-171.875 382.812 1173
-125 -156.25 940
179.688 -335.938 992
-109.375 -156.25 930
-257.812 320.312 1264
-312.5 289.062 1025
-117.188 367.188 1177
-31.25 -218.75 1004
15.625 359.375 1185
-242.188 203.125 987
359.375 242.188 1470
-101.562 375 1181
-296.875 382.812 1173
31.25 -335.938 1227
-78.125 304.688 1264
-85.9375 304.688 1268
429.688 -218.75 943
-179.688 382.812 1177
304.688 195.312 2090
148.438 -15.625 948
-195.312 -62.5 1060
-62.5 93.75 913
-343.75 265.625 1010
125 304.688 1579
296.875 -164.062 908
-304.688 335.938 1259
-62.5 242.188 1025
-250 203.125 975
39.0625 335.938 1219
-171.875 375 1177
-171.875 -70.3125 1038
-429.688 -218.75 2984
250 -343.75 1007
-132.812 273.438 1034
-117.188 15.625 935
-171.875 195.312 995
257.812 -39.0625 956
218.75 -382.812 984
335.938 -54.6875 956
164.062 -312.5 1001
273.438 -265.625 1041
-226.562 375 1177
-226.562 257.812 1019
-85.9375 343.75 1210
-156.25 289.062 1038
-195.312 328.125 1245
-226.562 289.062 1038
31.25 312.5 1250
328.125 46.875 935
-179.688 335.938 1245
7.8125 312.5 1255
93.75 -304.688 1241
-85.9375 -195.312 940
-250 296.875 1034
-242.188 296.875 1038
23.4375 351.562 1189
-78.125 -203.125 943
-85.9375 -203.125 940
375 46.875 995
-210.938 203.125 995
-273.438 359.375 1206
-117.188 343.75 1206
210.938 -234.375 1038
-23.4375 343.75 1214
70.3125 250 1044
242.188 -453.125 2958
-93.75 203.125 1004
-304.688 101.562 903
117.188 -15.625 946
421.875 -218.75 943
-500 93.75 901
117.188 46.875 915
-187.5 -78.125 1060
304.688 203.125 2078
273.438 179.688 1776
156.25 46.875 920
140.625 359.375 1197
234.375 -351.562 1004
359.375 15.625 933
-140.625 -179.688 925
-218.75 351.562 1206
-156.25 -78.125 1010
-31.25 335.938 1219
101.562 -179.688 923
-23.4375 85.9375 915
421.875 -359.375 3120
-312.5 78.125 903
-476.562 101.562 896
-281.25 117.188 906
-218.75 281.25 1031
-7.8125 -70.3125 935
484.375 -257.812 959
-335.938 101.562 898
-257.812 -93.75 1060
-445.312 -304.688 2859
-93.75 304.688 1273
-226.562 -54.6875 1050
-39.0625 359.375 1181
148.438 93.75 992
156.25 -250 1022
-234.375 312.5 1268
-320.312 117.188 901
187.5 -187.5 920
234.375 -296.875 1022
429.688 7.8125 938
-320.312 101.562 901
15.625 328.125 1255
304.688 -273.438 1115
-257.812 -164.062 1070
-304.688 390.625 1165
-132.812 -70.3125 951
-78.125 375 1177
-15.625 335.938 1214
46.875 359.375 1177
-15.625 234.375 1028
-234.375 -46.875 1070
-421.875 -171.875 3064
328.125 -187.5 908
109.375 -15.625 946
-398.438 -171.875 3064
-429.688 -226.562 2984
304.688 375 1376
312.5 -15.625 962
109.375 7.8125 954
-359.375 -39.0625 1115
476.562 -281.25 989
367.188 39.0625 938
-320.312 335.938 1232
-15.625 296.875 1292
-164.062 101.562 913
148.438 -242.188 1028
46.875 101.562 970
-62.5 -125 925
-101.562 281.25 1041
-78.125 -218.75 1070
273.438 -203.125 946
-484.375 -31.25 1123
156.25 195.312 1748
-328.125 117.188 901
-195.312 -187.5 956
250 -39.0625 956
328.125 -414.062 3010
-304.688 289.062 1022
-242.188 -117.188 1101
421.875 -164.062 920
-62.5 -23.4375 925
-453.125 -281.25 2859
-93.75 -179.688 935
-109.375 -164.062 943
-187.5 -109.375 1007
-101.562 320.312 1255
132.812 289.062 1601
-312.5 335.938 1250
-125 -171.875 925
-304.688 382.812 1173
-54.6875 320.312 1241
-93.75 281.25 1038
31.25 335.938 1219
85.9375 265.625 1057
-31.25 320.312 1250
-101.562 289.062 1038
7.8125 -78.125 940
-164.062 335.938 1232
195.312 0 954
382.812 -62.5 956
-85.9375 367.188 1177
226.562 -23.4375 959
54.6875 351.562 1189
289.062 367.188 1398
234.375 351.562 1464
117.188 -171.875 903
-273.438 343.75 1227
-343.75 125 903
460.938 -343.75 3149
367.188 234.375 1470
-23.4375 46.875 915
-23.4375 296.875 1288
-15.625 367.188 1181
171.875 -164.062 898
-62.5 -54.6875 920
54.6875 -351.562 1181
-23.4375 367.188 1181
-85.9375 351.562 1206
-226.562 312.5 1264
70.3125 -421.875 1149
-62.5 -62.5 920
-39.0625 273.438 1047
-15.625 359.375 1181
-281.25 367.188 1197
351.562 -54.6875 959
-265.625 335.938 1241
-7.8125 -85.9375 935
-39.0625 0 987
-78.125 23.4375 956
-460.938 -304.688 2859
-7.8125 273.438 1047
226.562 281.25 1594
484.375 23.4375 946
-23.4375 -54.6875 925
78.125 218.75 1028
-453.125 -359.375 2767
-289.062 359.375 1189
-460.938 -210.938 2618
70.3125 164.062 1001
-85.9375 23.4375 956
-203.125 359.375 1206
-156.25 85.9375 910
179.688 -429.688 975
-242.188 -85.9375 1054
-367.188 140.625 951
-382.812 125 903
70.3125 351.562 1126
343.75 -210.938 938
-203.125 304.688 1025
460.938 -304.688 1022
85.9375 -257.812 1138
-226.562 351.562 1210
-421.875 85.9375 903
460.938 23.4375 940
31.25 -39.0625 964
203.125 -7.8125 967
351.562 -406.25 3037
-203.125 328.125 1250
-312.5 367.188 1193
31.25 359.375 1185
-39.0625 312.5 1278
-289.062 320.312 1264
-445.312 -281.25 2883
-250 187.5 984
-31.25 15.625 964
156.25 -265.625 1016
-203.125 125 964
-7.8125 312.5 1255
156.25 -351.562 984
-375 125 898
-31.25 -140.625 956
-421.875 125 901
148.438 429.688 1227
-460.938 -398.438 2744
-117.188 -39.0625 930
-171.875 -101.562 998
-171.875 351.562 1206
226.562 -382.812 987
85.9375 109.375 973
-117.188 -125 973
-179.688 -187.5 930
242.188 -31.25 956
-93.75 109.375 964
-445.312 -296.875 2859
320.312 -414.062 3010
-257.812 -109.375 1101
-85.9375 296.875 1264
429.688 -281.25 1019
164.062 -351.562 984
-125 367.188 1206
-484.375 -429.688 2680
-31.25 312.5 1250
93.75 -7.8125 946
-257.812 203.125 975
-421.875 -109.375 1317
-156.25 -109.375 998
-85.9375 -171.875 943
-132.812 367.188 1210
85.9375 414.062 1181
-140.625 109.375 959
125 -7.8125 951
-140.625 226.562 975
-46.875 -210.938 962
-429.688 132.812 901
-414.062 109.375 898
453.125 -250 973
-203.125 351.562 1214
210.938 -343.75 998
164.062 -375 978
-15.625 -101.562 935
-125 273.438 1038
132.812 -179.688 913
-78.125 343.75 1210
-476.562 203.125 967
-70.3125 273.438 1044
-148.438 343.75 1236
-46.875 273.438 1041
156.25 -460.938 1173
-179.688 -179.688 930
132.812 -242.188 1047
46.875 -335.938 1210
93.75 -343.75 1173
-125 -195.312 928
-140.625 304.688 1302
0 257.812 1041
-484.375 -406.25 2680
62.5 93.75 970
-46.875 -132.812 1007
-492.188 390.625 1748
-476.562 -382.812 2744
468.75 -62.5 967
-453.125 -257.812 2812
-234.375 -132.812 1063
-70.3125 -54.6875 920
-109.375 367.188 1181
351.562 -54.6875 959
492.188 -195.312 918
-117.188 304.688 1283
-46.875 312.5 1278
-367.188 -132.812 1381
296.875 -39.0625 962
-15.625 320.312 1250
-15.625 273.438 1047
31.25 304.688 1250
250 -195.312 925
421.875 281.25 1381
-148.438 281.25 1038
-210.938 -39.0625 1060
203.125 187.5 1757
195.312 -23.4375 954
-46.875 328.125 1245
-125 343.75 1241
-453.125 -351.562 2767
296.875 -203.125 930
23.4375 85.9375 915
203.125 -23.4375 954
31.25 257.812 1044
31.25 265.625 1047
-140.625 351.562 1210
164.062 -15.625 951
-93.75 -23.4375 930
-70.3125 -195.312 943
15.625 296.875 1283
164.062 -390.625 970
-156.25 281.25 1038
-195.312 335.938 1245
-31.25 -31.25 928
-187.5 -39.0625 1077
-210.938 -46.875 1054
-15.625 351.562 1214
-46.875 359.375 1181
0 328.125 1245
-250 203.125 975
-70.3125 242.188 1022
242.188 351.562 1427
-257.812 -203.125 1097
-148.438 7.8125 964
-281.25 359.375 1189
140.625 226.562 1696
-179.688 375 1177
46.875 265.625 1050
171.875 -437.5 1165
359.375 289.062 1338
-93.75 226.562 1013
-93.75 296.875 1038
484.375 -70.3125 967
257.812 -257.812 1044
-62.5 -164.062 933
-70.3125 437.5 1370
-390.625 265.625 1007
-148.438 -125 989
-70.3125 -23.4375 925
31.25 39.0625 918
-101.562 -210.938 1097
-93.75 23.4375 962
-250 351.562 1223
195.312 414.062 1365
445.312 -351.562 3092
15.625 -54.6875 935
-132.812 414.062 1410
23.4375 351.562 1189
-218.75 375 1173
-179.688 -109.375 998
-218.75 304.688 1038
-54.6875 -195.312 951
328.125 -289.062 1119
-187.5 343.75 1245
85.9375 -406.25 1145
-359.375 265.625 1010
-31.25 85.9375 915
-101.562 296.875 1038
-31.25 289.062 1050
257.812 406.25 1365
109.375 -406.25 998
-109.375 328.125 1245
203.125 -31.25 951
15.625 15.625 956
-93.75 93.75 913
-140.625 367.188 1202
7.8125 85.9375 918
148.438 -7.8125 951
-437.5 -226.562 2883
-54.6875 359.375 1177
-171.875 -226.562 1161
-203.125 312.5 1273
-156.25 -31.25 956
-289.062 382.812 1173
31.25 281.25 1050
390.625 -54.6875 962
-281.25 335.938 1227
-7.8125 359.375 1185
-226.562 375 1177
-195.312 382.812 1169
476.562 -46.875 987
-101.562 375 1181
-93.75 -54.6875 925
242.188 -39.0625 956
-234.375 296.875 1034
-484.375 -460.938 2659
-406.25 85.9375 901
-242.188 375 1202
-54.6875 -46.875 918
476.562 -39.0625 975
62.5 101.562 970
242.188 218.75 1696
351.562 -210.938 938
-148.438 367.188 1202
-187.5 375 1177
148.438 -23.4375 948
-148.438 -15.625 962
289.062 -46.875 956
132.812 -429.688 1141
-468.75 101.562 894
-78.125 -23.4375 928
203.125 226.562 1680
-164.062 375 1177
-460.938 -296.875 2859
-437.5 148.438 948
-468.75 -296.875 2859
39.0625 78.125 915
78.125 78.125 920
265.625 -15.625 970
-210.938 328.125 1250
-156.25 367.188 1206
39.0625 328.125 1219
-171.875 101.562 913
-187.5 359.375 1206
-429.688 398.438 1739
-109.375 54.6875 915
-289.062 375 1181
156.25 -187.5 925
15.625 328.125 1255
-257.812 -226.562 1115
-195.312 328.125 1245
-476.562 -406.25 2701
250 351.562 1427
-109.375 296.875 1044
-7.8125 -23.4375 946
375 -46.875 962
-109.375 351.562 1206
421.875 -70.3125 962
-46.875 -140.625 933
-46.875 335.938 1214
-39.0625 343.75 1214
-93.75 78.125 910
-242.188 257.812 1016
-328.125 78.125 906
-78.125 367.188 1181
-140.625 281.25 1038
-218.75 351.562 1206
-93.75 375 1177
-226.562 179.688 981
-31.25 421.875 1392
-132.812 15.625 948
-54.6875 312.5 1273
-195.312 109.375 910
-109.375 320.312 1245
-460.938 -406.25 2723
-328.125 296.875 1028
-195.312 -39.0625 1084
-164.062 328.125 1232
210.938 39.0625 928
-70.3125 296.875 1264
-78.125 -179.688 943
-234.375 281.25 1031
-226.562 -125 1050
-195.312 93.75 913
-218.75 132.812 964
117.188 78.125 967
-117.188 351.562 1206
-54.6875 117.188 967
-226.562 -39.0625 1063
-101.562 -203.125 938
-31.25 296.875 1288
-39.0625 -7.8125 933
-39.0625 320.312 1245
-39.0625 367.188 1181
421.875 421.875 1307
-437.5 -125 1365
-289.062 312.5 1268
-250 109.375 910
-125 -203.125 1134
-117.188 367.188 1177
-226.562 351.562 1210
-210.938 351.562 1206
-164.062 343.75 1227
148.438 195.312 1748
-500 -398.438 2744
-398.438 85.9375 903
23.4375 335.938 1219
117.188 -429.688 1138
468.75 296.875 1477
242.188 -195.312 925
23.4375 312.5 1250
414.062 289.062 1376
-445.312 -289.062 2883
-132.812 343.75 1227
15.625 85.9375 918
179.688 -257.812 1025
-54.6875 335.938 1245
414.062 31.25 943
-23.4375 289.062 1050
-296.875 359.375 1202
-125 31.25 951
-109.375 -195.312 933
-421.875 -210.938 3010
23.4375 -78.125 951
-296.875 382.812 1173
62.5 250 1047
46.875 351.562 1185
328.125 335.938 1354
15.625 -375 1206
-7.8125 -78.125 935
-328.125 289.062 1022
-281.25 382.812 1165
70.3125 343.75 1126
-93.75 -156.25 930
273.438 -335.938 1013
453.125 -62.5 970
-250 156.25 970
-78.125 320.312 1241
-140.625 -132.812 975
15.625 351.562 1185
39.0625 -31.25 1022
-242.188 289.062 1034
-140.625 -109.375 962
-304.688 382.812 1173
-78.125 -187.5 943
-281.25 -156.25 1415
-78.125 281.25 1044
62.5 -164.062 906
-117.188 343.75 1206
-468.75 -453.125 2680
164.062 -406.25 967
-125 187.5 992
-414.062 85.9375 901
476.562 -226.562 951
117.188 -437.5 1141
210.938 -382.812 984
250 187.5 1776
101.562 -15.625 943
-54.6875 -187.5 954
-242.188 203.125 987
-31.25 343.75 1219
-101.562 304.688 1273
-93.75 -234.375 1090
-148.438 250 1025
-93.75 -187.5 933
-171.875 312.5 1278
-101.562 132.812 973
-453.125 132.812 940
-132.812 273.438 1038
203.125 -382.812 981
-31.25 367.188 1181
375 -62.5 956
-343.75 101.562 903
7.8125 304.688 1268
-273.438 312.5 1264
-484.375 -62.5 1189
-218.75 328.125 1232
164.062 70.3125 973
421.875 234.375 1421
-179.688 62.5 906
-117.188 320.312 1245
-179.688 109.375 962
-203.125 328.125 1236
78.125 -437.5 1145
-7.8125 328.125 1219
195.312 -31.25 951
23.4375 304.688 1255
-343.75 78.125 901
-15.625 -39.0625 935
-140.625 343.75 1206
-250 328.125 1241
-179.688 312.5 1278
-468.75 -351.562 2789
85.9375 31.25 915
15.625 304.688 1259
-203.125 234.375 1010
-335.938 78.125 901
-484.375 -445.312 2680
312.5 -39.0625 962
257.812 -31.25 959
93.75 7.8125 940
-15.625 359.375 1185
-117.188 101.562 959
62.5 351.562 1189
-203.125 335.938 1232
-250 296.875 1031
203.125 406.25 1359
-218.75 -39.0625 1073
39.0625 226.562 1031
7.8125 93.75 967
203.125 -343.75 995
-101.562 328.125 1245
-132.812 328.125 1245
31.25 78.125 918
-289.062 359.375 1202
-195.312 359.375 1206
234.375 -257.812 1038
-320.312 328.125 1236
156.25 -445.312 1153
-289.062 296.875 1038
-195.312 -70.3125 1057
-312.5 429.688 1185
-39.0625 312.5 1227
210.938 -23.4375 954
78.125 -171.875 896
-187.5 62.5 908
-109.375 281.25 1044
-375 289.062 1025
156.25 -281.25 1010
-148.438 320.312 1245
476.562 -250 956
406.25 289.062 1381
-54.6875 -132.812 935
-242.188 281.25 1031
-375 265.625 1013
-85.9375 54.6875 910
-226.562 328.125 1227
-187.5 289.062 1038
7.8125 289.062 1283
367.188 -195.312 906
-187.5 -195.312 938
-117.188 -195.312 930
-148.438 289.062 1038
125 0 948
-39.0625 273.438 1047
312.5 328.125 1359
-62.5 0 975
-148.438 273.438 1038
-132.812 -171.875 915
-421.875 -187.5 2958
289.062 7.8125 928
-250 203.125 962
-125 343.75 1206
-179.688 351.562 1210
-210.938 359.375 1210
-312.5 382.812 1169
-46.875 46.875 910
-85.9375 343.75 1206
-125 367.188 1177
-453.125 -367.188 2789
-171.875 328.125 1241
-93.75 343.75 1210
335.938 -210.938 925
-234.375 -210.938 1115
-187.5 335.938 1232
-210.938 328.125 1241
93.75 -179.688 908
-203.125 382.812 1169
-164.062 289.062 1038
-421.875 398.438 1731
-39.0625 85.9375 913
203.125 -250 1034
-203.125 -117.188 1004
-468.75 -460.938 2680
-93.75 367.188 1177
125 -367.188 984
-15.625 -140.625 962
-23.4375 359.375 1185
-101.562 0 935
218.75 -390.625 981
296.875 -390.625 1067
132.812 304.688 1210
-234.375 351.562 1206
-171.875 85.9375 910
156.25 -429.688 978
-93.75 242.188 1025
-257.812 203.125 981
-187.5 312.5 1273
304.688 -31.25 978
367.188 15.625 935
-296.875 312.5 1264
-62.5 -195.312 948
-265.625 -109.375 1241
-382.812 85.9375 898
-46.875 312.5 1255
-23.4375 335.938 1214
-335.938 117.188 901
-445.312 -312.5 2859
-117.188 54.6875 910
125 -257.812 1067
-226.562 117.188 959
-78.125 -117.188 920
-179.688 375 1173
93.75 -398.438 1138
-273.438 257.812 1016
-210.938 335.938 1232
-273.438 70.3125 906
140.625 -15.625 951
-132.812 367.188 1177
109.375 -328.125 1019
-101.562 93.75 913
-101.562 -195.312 930
-164.062 62.5 908
-429.688 -226.562 2908
-234.375 335.938 1232
0 257.812 1044
-46.875 343.75 1210
265.625 351.562 1445
156.25 -23.4375 948
242.188 31.25 928
125 351.562 1193
-70.3125 265.625 1038
-179.688 195.312 967
-476.562 -273.438 2859
-390.625 125 896
-39.0625 70.3125 915
273.438 54.6875 981
-421.875 85.9375 896
-164.062 -187.5 915
-187.5 304.688 1283
226.562 -257.812 1034
54.6875 -335.938 1214
-226.562 281.25 1034
117.188 -453.125 1141
-93.75 -85.9375 920
-85.9375 367.188 1177
7.8125 328.125 1227
179.688 -187.5 908
-367.188 265.625 1010
-15.625 -70.3125 928
-140.625 273.438 1038
179.688 -421.875 970
70.3125 -328.125 1206
265.625 -203.125 925
-39.0625 367.188 1181
125 421.875 1232
78.125 367.188 1165
132.812 281.25 1601
7.8125 -85.9375 940
148.438 -429.688 975
-78.125 273.438 1038
-437.5 -273.438 2908
-250 375 1173
-484.375 390.625 1739
273.438 -31.25 962
23.4375 46.875 913
31.25 359.375 1185
101.562 -7.8125 948
-109.375 93.75 913
-281.25 335.938 1219
-62.5 -171.875 933
39.0625 351.562 1185
-156.25 289.062 1038
468.75 -273.438 951
-31.25 -156.25 930
-367.188 289.062 1025
23.4375 78.125 918
-171.875 -179.688 923
-382.812 289.062 1028
-54.6875 265.625 1041
93.75 -406.25 1138
304.688 23.4375 930
187.5 -23.4375 956
-117.188 -187.5 928
-46.875 359.375 1181
-171.875 351.562 1214
-242.188 312.5 1268
-257.812 281.25 1031
-179.688 304.688 1278
93.75 -351.562 1169
-320.312 382.812 1173
-125 15.625 946
-351.562 78.125 901
-132.812 -23.4375 930
273.438 -375 995
-289.062 335.938 1193
156.25 -15.625 956
-156.25 335.938 1241
-109.375 328.125 1245
70.3125 179.688 1010
-242.188 375 1173
187.5 -250 1031
-125 320.312 1245
-226.562 375 1173
-109.375 -179.688 930
0 -62.5 930
23.4375 -62.5 948
-187.5 375 1173
-148.438 -70.3125 967
-195.312 289.062 1038
335.938 -54.6875 954
-242.188 351.562 1202
23.4375 335.938 1219
289.062 -46.875 956
101.562 -304.688 1255
203.125 -359.375 992
187.5 -187.5 903
242.188 203.125 1785
-85.9375 -54.6875 923
132.812 23.4375 918
7.8125 62.5 915
-179.688 -187.5 930
-257.812 -195.312 1028
-109.375 -234.375 1108
46.875 62.5 918
429.688 -203.125 908
-7.8125 -54.6875 930
-351.562 -117.188 1292
-117.188 351.562 1210
-359.375 289.062 1028
101.562 414.062 1181
-78.125 -210.938 938
15.625 -54.6875 928
195.312 39.0625 925
-484.375 -375 2744
-437.5 -265.625 2908
-62.5 359.375 1177
-257.812 70.3125 903
-351.562 289.062 1028
234.375 -195.312 906
-62.5 367.188 1177
-125 54.6875 910
-148.438 -187.5 925
-140.625 -23.4375 956
281.25 179.688 1776
-156.25 -187.5 923
437.5 -226.562 940
-257.812 -101.562 1057
-234.375 -46.875 1077
15.625 328.125 1219
289.062 -203.125 913
-203.125 359.375 1206
179.688 -164.062 898
-250 281.25 1031
-210.938 359.375 1210
7.8125 -109.375 946
-187.5 351.562 1206
-453.125 414.062 1705
-93.75 304.688 1273
148.438 -242.188 1028
-242.188 187.5 987
-234.375 375 1173
187.5 -242.188 1031
-62.5 335.938 1214
484.375 -250 956
-23.4375 -226.562 992
78.125 70.3125 918
-320.312 375 1177
-445.312 -304.688 2859
117.188 406.25 1223
-164.062 70.3125 906
-7.8125 7.8125 956
-242.188 328.125 1236
-429.688 85.9375 901
-101.562 343.75 1210
-62.5 265.625 1041
7.8125 -125 951
359.375 7.8125 930
-304.688 296.875 1034
-93.75 -156.25 923
-109.375 7.8125 928
-15.625 335.938 1214
85.9375 -156.25 894
-39.0625 343.75 1210
-46.875 335.938 1214
-250 -117.188 1101
-195.312 -117.188 1004
23.4375 359.375 1185
-109.375 304.688 1273
460.938 -226.562 935
-304.688 85.9375 901
-117.188 375 1177
-54.6875 335.938 1214
-125 -187.5 925
-148.438 367.188 1177
265.625 -179.688 901
-70.3125 -125 923
-117.188 328.125 1241
-273.438 320.312 1223
15.625 7.8125 951
148.438 -187.5 915
-39.0625 46.875 913
-226.562 351.562 1206
31.25 312.5 1250
-195.312 62.5 908
375 31.25 938
125 -179.688 896
-257.812 109.375 908
414.062 -70.3125 959
-132.812 187.5 995
-140.625 367.188 1177
-335.938 -179.688 1464
148.438 0 946
296.875 23.4375 930
-54.6875 359.375 1181
-39.0625 320.312 1245
250 -273.438 1034
140.625 -156.25 896
460.938 7.8125 938
-234.375 -187.5 1004
-265.625 -179.688 1073
210.938 -273.438 1028
304.688 -281.25 1112
484.375 -226.562 928
-125 351.562 1202
-31.25 0 970
187.5 -421.875 970
-46.875 320.312 1250
-195.312 335.938 1232
-78.125 -132.812 989
-179.688 320.312 1236
429.688 -70.3125 962
390.625 31.25 935
-70.3125 -179.688 943
-343.75 117.188 903
-132.812 117.188 964
-304.688 359.375 1202
-23.4375 -7.8125 984
476.562 -62.5 964
15.625 351.562 1189
-93.75 320.312 1250
-78.125 -54.6875 920
171.875 -429.688 978
-312.5 359.375 1202
-226.562 -132.812 1057
203.125 15.625 920
-85.9375 7.8125 967
7.8125 351.562 1185
140.625 406.25 1219
328.125 -54.6875 954
250 -351.562 1004
39.0625 359.375 1185
-7.8125 234.375 1028
437.5 -203.125 908
-171.875 109.375 964
179.688 -343.75 992
-117.188 -117.188 940
-70.3125 0 975
-234.375 351.562 1206
218.75 281.25 1586
-70.3125 -164.062 925
-85.9375 281.25 1038
-210.938 195.312 992
-85.9375 -23.4375 930
-195.312 101.562 913
-226.562 -125 1087
15.625 335.938 1219
-257.812 375 1173
-273.438 296.875 1031
-31.25 367.188 1181
140.625 421.875 1227
-250 289.062 1031
-203.125 335.938 1232
-54.6875 -203.125 951
31.25 109.375 973
15.625 39.0625 913
-273.438 375 1177
-468.75 390.625 1739
-281.25 375 1169
-453.125 -359.375 2789
171.875 390.625 1232
132.812 421.875 1227
0 -46.875 938
-85.9375 -179.688 943
-218.75 359.375 1206
-210.938 -132.812 1022
-265.625 375 1173
-265.625 70.3125 903
156.25 78.125 984
429.688 -31.25 959
85.9375 -7.8125 948
445.312 -46.875 978
-437.5 125 898
140.625 -242.188 1031
-132.812 343.75 1206
351.562 250 1464
-39.0625 304.688 1219
-195.312 -31.25 1057
-70.3125 375 1173
85.9375 -171.875 896
125 414.062 1223
-46.875 273.438 1044
-265.625 289.062 1031
15.625 -265.625 1165
-132.812 -187.5 923
-218.75 328.125 1232
-210.938 382.812 1169
-195.312 375 1177
-234.375 281.25 1034
-226.562 328.125 1227
-23.4375 367.188 1181
-62.5 281.25 1044
-218.75 382.812 1169
460.938 -78.125 962
-234.375 320.312 1259
-39.0625 -62.5 918
-15.625 234.375 1028
-343.75 398.438 1105
-281.25 257.812 1013
-164.062 289.062 1038
242.188 -39.0625 954
-93.75 367.188 1177
46.875 335.938 1219
187.5 -31.25 951
242.188 -367.188 992
375 335.938 1376
-156.25 -117.188 995
-242.188 281.25 1031
312.5 195.312 2078
-460.938 -414.062 2701
-257.812 296.875 1031
-171.875 289.062 1038
-179.688 328.125 1236
132.812 -15.625 948
140.625 23.4375 918
0 351.562 1185
257.812 -398.438 984
-226.562 382.812 1173
0 -78.125 933
-101.562 -109.375 925
-250 351.562 1206
-281.25 320.312 1219
375 -62.5 956
-257.812 289.062 1031
-15.625 -31.25 938
-156.25 351.562 1206
226.562 -382.812 987
15.625 304.688 1259
281.25 -46.875 959
54.6875 250 1047
93.75 -15.625 946
23.4375 -7.8125 973
15.625 312.5 1250
-382.812 250 1001
-156.25 304.688 1268
-328.125 382.812 1157
-93.75 -195.312 935
0 312.5 1250
-195.312 351.562 1206
421.875 -46.875 984
39.0625 328.125 1223
-46.875 312.5 1255
-281.25 304.688 1034
70.3125 210.938 1025
-125 375 1177
375 234.375 1470
-171.875 359.375 1169
101.562 -15.625 946
-312.5 117.188 901
-226.562 359.375 1206
-187.5 101.562 913
0 335.938 1219
-187.5 195.312 970
125 -343.75 995
171.875 -414.062 964
93.75 -7.8125 948
-101.562 78.125 913
-15.625 -78.125 930
-359.375 117.188 901
-218.75 -46.875 1057
-500 -179.688 2198
359.375 -23.4375 951
195.312 226.562 1680
-390.625 289.062 1025
117.188 429.688 1197
-70.3125 -54.6875 918
-39.0625 296.875 1219
-242.188 351.562 1202
-195.312 312.5 1273
195.312 -31.25 951
-281.25 312.5 1264
-437.5 -164.062 1433
-218.75 351.562 1193
-117.188 -171.875 940
-23.4375 273.438 1038
164.062 -429.688 978
-70.3125 265.625 1038
187.5 -429.688 978
-7.8125 265.625 1041
-101.562 304.688 1273
117.188 7.8125 935
218.75 -250 1038
-171.875 -54.6875 1038
156.25 0 946
-132.812 304.688 1273
-15.625 -148.438 981
93.75 -289.062 1219
-210.938 304.688 1278
-179.688 101.562 913
476.562 -78.125 962
-31.25 234.375 1028
343.75 -54.6875 959
-93.75 242.188 1025
-484.375 -453.125 2680
-296.875 359.375 1202
7.8125 328.125 1227
-31.25 335.938 1219
453.125 -226.562 933
-101.562 296.875 1273
-132.812 351.562 1202
-296.875 367.188 1202
-179.688 -54.6875 1101
328.125 109.375 1713
-468.75 -453.125 2680
-437.5 109.375 896
-257.812 312.5 1264
-218.75 335.938 1236
-62.5 320.312 1245
-54.6875 46.875 910
-390.625 265.625 1013
-453.125 109.375 896
85.9375 -375 1153
39.0625 265.625 1047
-62.5 -195.312 948
-101.562 367.188 1181
-62.5 -187.5 954
-109.375 375 1177
-328.125 70.3125 906
-54.6875 312.5 1259
-46.875 343.75 1210
234.375 -382.812 987
-46.875 -117.188 925
-140.625 343.75 1206
70.3125 187.5 1013
-257.812 351.562 1206
-242.188 375 1173
390.625 226.562 1458
-39.0625 367.188 1181
210.938 281.25 1586
93.75 -453.125 1141
164.062 -398.438 964
242.188 -382.812 989
-85.9375 -117.188 920
-132.812 367.188 1177
-289.062 257.812 1013
429.688 46.875 1013
-132.812 320.312 1245
-187.5 312.5 1273
148.438 -281.25 1010
-226.562 -187.5 989
304.688 -398.438 1067
320.312 375 1365
-367.188 132.812 951
70.3125 343.75 1134
-273.438 351.562 1202
-312.5 351.562 1227
-132.812 -203.125 923
-156.25 273.438 1038
-429.688 -148.438 1421
-460.938 -289.062 2883
460.938 -62.5 962
-195.312 437.5 1370
-31.25 -31.25 928
-70.3125 343.75 1210
171.875 -187.5 906
23.4375 289.062 1292
171.875 -15.625 959
-406.25 -250 2958
312.5 46.875 981
343.75 -46.875 959
-445.312 125 898
23.4375 -109.375 956
203.125 281.25 1586
-234.375 328.125 1236
-320.312 117.188 891
492.188 421.875 1264
39.0625 351.562 1185
-54.6875 289.062 1044
-39.0625 -132.812 935
-156.25 -93.75 1013
-273.438 117.188 951
23.4375 359.375 1185
-210.938 335.938 1232
-109.375 0 933
132.812 -460.938 1149
-453.125 390.625 1739
-164.062 171.875 987
-54.6875 335.938 1214
250 -335.938 1007
-125 328.125 1241
250 7.8125 925
148.438 195.312 1748
78.125 31.25 915
-31.25 -125 938
-7.8125 15.625 948
46.875 -31.25 1004
-78.125 265.625 1038
234.375 -39.0625 951
367.188 289.062 1338
62.5 -265.625 1145
367.188 382.812 1343
-31.25 -78.125 925
195.312 187.5 1757
328.125 265.625 1410
125 -265.625 1050
-31.25 -132.812 948
304.688 -39.0625 959
171.875 -203.125 946
171.875 -375 975
-156.25 -7.8125 967
-62.5 312.5 1245
-125 -54.6875 933
226.562 351.562 1452
382.812 -39.0625 975
-85.9375 273.438 1038
414.062 -351.562 1387
195.312 406.25 1365
-148.438 343.75 1210
-7.8125 257.812 1041
-85.9375 -218.75 1077
-78.125 359.375 1177
54.6875 351.562 1185
-273.438 289.062 1031
-265.625 93.75 903
257.812 -203.125 920
46.875 -39.0625 1016
-203.125 375 1169
-117.188 304.688 1273
-296.875 117.188 951
-140.625 -39.0625 930
23.4375 265.625 1050
-93.75 281.25 1038
156.25 -242.188 1028
-484.375 -359.375 2789
226.562 -257.812 1034
-250 351.562 1206
210.938 -359.375 992
-195.312 -125 1007
-210.938 -117.188 1028
23.4375 281.25 1292
398.438 -343.75 1322
-109.375 296.875 1273
31.25 -23.4375 992
281.25 -289.062 1123
31.25 328.125 1223
179.688 -382.812 975
367.188 -62.5 956
-187.5 304.688 1283
-117.188 281.25 1044
-226.562 289.062 1034
414.062 -54.6875 964
-250 281.25 1031
