ply
format ascii 1.0
comment Created by Open3D
element vertex 2402
property double x
property double y
property double z
end_header
304.688 39.0625 728
-140.625 7.8125 781
-203.125 -93.75 933
476.562 304.688 640
226.562 296.875 670
-156.25 242.188 710
210.938 296.875 672
-359.375 39.0625 819
265.625 101.562 742
-335.938 203.125 736
343.75 296.875 653
187.5 281.25 671
85.9375 -195.312 835
-203.125 -101.562 938
148.438 281.25 675
117.188 -328.125 2908
304.688 289.062 657
-31.25 -15.625 761
-78.125 62.5 809
320.312 289.062 657
351.562 -304.688 2744
-125 -179.688 727
242.188 195.312 708
-78.125 265.625 704
-406.25 382.812 975
367.188 296.875 650
320.312 62.5 719
-429.688 398.438 1025
-156.25 -78.125 728
-500 -390.625 2116
-460.938 382.812 933
-93.75 -148.438 701
-171.875 -62.5 741
-39.0625 -93.75 714
-335.938 -468.75 2723
273.438 171.875 686
-320.312 -437.5 2835
-195.312 -70.3125 736
93.75 375 790
-195.312 234.375 714
-125 -140.625 703
-101.562 -109.375 708
-312.5 -390.625 2908
-62.5 257.812 698
-109.375 -140.625 700
-132.812 -125 703
195.312 -312.5 2883
453.125 304.688 642
-492.188 -398.438 2116
468.75 -289.062 2659
-85.9375 257.812 701
-390.625 101.562 802
-312.5 -398.438 2883
-468.75 -398.438 2116
367.188 398.438 762
210.938 -125 767
-375 -78.125 925
-187.5 -31.25 761
296.875 39.0625 728
-125 -265.625 860
-39.0625 -296.875 835
234.375 -179.688 817
62.5 -265.625 821
-164.062 -54.6875 744
-46.875 429.688 778
-15.625 -304.688 841
179.688 296.875 679
-39.0625 -125 700
-359.375 -164.062 1259
-296.875 62.5 815
304.688 78.125 731
281.25 109.375 716
-476.562 320.312 833
-7.8125 54.6875 805
296.875 273.438 666
7.8125 265.625 690
7.8125 -62.5 730
-31.25 -375 841
-164.062 -78.125 730
-62.5 -46.875 744
-367.188 85.9375 813
39.0625 437.5 764
-109.375 31.25 792
0 265.625 691
203.125 -320.312 2835
-437.5 -320.312 2226
-312.5 -351.562 2933
-421.875 -257.812 2365
-85.9375 421.875 780
-46.875 289.062 717
468.75 296.875 641
117.188 -250 827
109.375 273.438 678
265.625 85.9375 734
468.75 304.688 637
-351.562 23.4375 825
289.062 164.062 701
265.625 289.062 661
476.562 296.875 640
-421.875 -234.375 2398
-7.8125 -148.438 694
203.125 296.875 670
382.812 296.875 647
296.875 304.688 659
-382.812 -62.5 925
-62.5 265.625 698
-375 -62.5 915
-273.438 226.562 723
117.188 289.062 678
-85.9375 -46.875 741
273.438 226.562 690
-320.312 -398.438 2835
359.375 -242.188 1041
-179.688 0 773
62.5 -234.375 831
132.812 -85.9375 792
-195.312 -62.5 741
-23.4375 -257.812 843
-31.25 62.5 805
-320.312 -421.875 2835
7.8125 7.8125 767
-125 -125 700
437.5 304.688 642
343.75 78.125 713
265.625 -312.5 2812
281.25 304.688 661
-85.9375 -164.062 708
-93.75 7.8125 774
-359.375 46.875 815
-328.125 -468.75 2723
382.812 70.3125 755
109.375 -125 773
-445.312 -125 975
-328.125 62.5 1016
281.25 289.062 658
-109.375 -109.375 707
-359.375 421.875 1016
7.8125 39.0625 789
-23.4375 257.812 694
179.688 289.062 670
351.562 54.6875 713
-351.562 210.938 739
195.312 -125 762
0 54.6875 800
-70.3125 -62.5 730
187.5 296.875 672
273.438 296.875 659
195.312 296.875 670
-476.562 265.625 862
273.438 218.75 694
-85.9375 62.5 809
250 203.125 704
-46.875 62.5 805
265.625 164.062 686
-382.812 -101.562 956
484.375 296.875 641
-117.188 -148.438 701
-500 242.188 827
125 -164.062 825
-367.188 203.125 807
-78.125 -85.9375 717
296.875 164.062 700
-164.062 242.188 710
54.6875 281.25 683
-171.875 250 714
453.125 296.875 642
335.938 296.875 653
-125 -148.438 703
39.0625 273.438 687
-265.625 234.375 723
476.562 359.375 671
-429.688 359.375 943
148.438 -7.8125 839
164.062 382.812 783
-273.438 218.75 723
-304.688 -359.375 2908
-7.8125 -117.188 700
-117.188 -125 698
39.0625 382.812 789
93.75 -132.812 774
359.375 164.062 717
257.812 203.125 704
-109.375 62.5 811
-109.375 70.3125 803
234.375 390.625 774
-140.625 -312.5 860
492.188 296.875 636
-23.4375 -296.875 837
-117.188 78.125 802
-132.812 250 707
-93.75 -109.375 706
-250 429.688 962
265.625 70.3125 736
-101.562 -140.625 698
-421.875 109.375 794
453.125 -226.562 1019
140.625 281.25 675
-429.688 -46.875 989
-70.3125 -93.75 714
-109.375 -328.125 843
62.5 -257.812 827
289.062 304.688 659
-125 -257.812 858
109.375 289.062 679
15.625 265.625 690
-54.6875 437.5 781
320.312 70.3125 716
-312.5 218.75 730
132.812 -7.8125 839
429.688 304.688 642
226.562 101.562 764
7.8125 -226.562 871
437.5 296.875 643
460.938 304.688 640
281.25 296.875 658
445.312 312.5 641
-93.75 -125 697
242.188 109.375 757
-492.188 -15.625 882
-93.75 -54.6875 738
468.75 312.5 637
101.562 281.25 678
-23.4375 -281.25 839
335.938 125 711
-312.5 -343.75 2958
203.125 320.312 690
-195.312 320.312 803
-132.812 -140.625 700
-320.312 -445.312 2744
-367.188 -31.25 885
117.188 -257.812 823
-54.6875 62.5 805
78.125 273.438 680
7.8125 -328.125 845
281.25 226.562 690
-171.875 31.25 835
-273.438 -343.75 3037
-234.375 226.562 717
156.25 -7.8125 839
351.562 -242.188 1044
-203.125 -93.75 722
320.312 109.375 711
-15.625 382.812 790
296.875 226.562 687
-101.562 -148.438 701
-367.188 -242.188 2984
265.625 109.375 723
-476.562 -398.438 2103
-46.875 257.812 694
273.438 132.812 713
195.312 -23.4375 845
-187.5 398.438 790
226.562 93.75 769
296.875 234.375 684
460.938 296.875 642
156.25 -117.188 761
-492.188 234.375 827
-445.312 359.375 946
273.438 304.688 662
-78.125 -101.562 710
414.062 398.438 722
328.125 70.3125 713
-203.125 234.375 714
-101.562 429.688 778
406.25 398.438 723
-148.438 -148.438 704
-70.3125 -31.25 749
-109.375 -140.625 698
-187.5 320.312 798
-85.9375 265.625 704
312.5 398.438 769
-179.688 320.312 796
242.188 375 736
46.875 281.25 687
234.375 93.75 736
-109.375 -164.062 710
31.25 273.438 687
476.562 390.625 700
-117.188 -164.062 710
-156.25 242.188 708
351.562 117.188 717
132.812 -132.812 761
109.375 -328.125 2908
62.5 -242.188 829
-46.875 375 794
-7.8125 -46.875 739
132.812 -304.688 2933
-351.562 171.875 747
-109.375 -85.9375 717
-117.188 -140.625 698
-296.875 -343.75 3064
-93.75 -140.625 697
-78.125 -39.0625 746
-85.9375 -140.625 697
335.938 70.3125 711
-375 414.062 1016
234.375 289.062 663
-171.875 -171.875 725
15.625 -15.625 755
132.812 281.25 675
-70.3125 257.812 697
414.062 304.688 643
-273.438 234.375 727
70.3125 273.438 682
312.5 289.062 655
343.75 156.25 723
250 289.062 662
-156.25 -70.3125 733
-367.188 140.625 821
265.625 296.875 661
-46.875 -62.5 730
-117.188 250 704
62.5 -117.188 867
-328.125 125 783
140.625 -117.188 761
-125 -164.062 711
-226.562 242.188 720
-93.75 -31.25 752
-39.0625 257.812 694
289.062 289.062 658
-234.375 390.625 798
-70.3125 62.5 805
78.125 -132.812 785
-304.688 -343.75 3037
171.875 289.062 671
421.875 304.688 643
265.625 203.125 704
171.875 296.875 675
-164.062 -171.875 723
210.938 289.062 666
148.438 335.938 714
-460.938 -304.688 2271
453.125 312.5 641
312.5 296.875 655
70.3125 -164.062 807
-46.875 -125 697
460.938 312.5 640
-101.562 -125 698
-281.25 -343.75 3037
117.188 -265.625 819
484.375 312.5 636
-70.3125 -343.75 837
148.438 -125 761
-171.875 23.4375 789
-367.188 125 803
-109.375 250 704
-250 226.562 722
7.8125 -78.125 719
23.4375 -289.062 851
-359.375 187.5 746
265.625 46.875 796
148.438 -117.188 761
-62.5 257.812 697
39.0625 281.25 688
-70.3125 265.625 698
125 281.25 676
-7.8125 265.625 691
-109.375 -125 698
-117.188 62.5 811
226.562 289.062 663
-101.562 -179.688 723
-242.188 -343.75 3010
320.312 31.25 728
-140.625 -140.625 703
218.75 289.062 664
421.875 296.875 644
-117.188 -109.375 708
328.125 296.875 654
-312.5 -31.25 1097
-234.375 -93.75 943
-39.0625 -15.625 759
148.438 281.25 674
-195.312 -62.5 741
320.312 304.688 654
-179.688 250 714
351.562 46.875 714
-140.625 421.875 787
-85.9375 -164.062 708
-187.5 -31.25 761
-281.25 218.75 723
148.438 382.812 783
398.438 304.688 646
320.312 101.562 714
421.875 312.5 643
93.75 -148.438 783
-250 382.812 798
320.312 398.438 767
281.25 390.625 741
304.688 453.125 738
406.25 312.5 644
-265.625 -343.75 3037
-296.875 -312.5 3064
-85.9375 -148.438 700
-78.125 -54.6875 736
156.25 273.438 675
437.5 312.5 642
203.125 -210.938 841
93.75 -171.875 837
-101.562 -164.062 708
-343.75 250 750
-460.938 -312.5 2256
-15.625 39.0625 790
0 289.062 704
-78.125 265.625 700
414.062 382.812 704
-54.6875 429.688 774
0 265.625 690
164.062 289.062 672
156.25 281.25 672
492.188 296.875 636
429.688 312.5 643
320.312 203.125 671
-7.8125 -109.375 704
-62.5 437.5 789
62.5 273.438 682
335.938 398.438 736
85.9375 273.438 680
-7.8125 437.5 773
-203.125 -93.75 722
171.875 460.938 749
-54.6875 -125 697
-62.5 -7.8125 764
-31.25 -125 696
-234.375 234.375 717
164.062 -117.188 759
7.8125 265.625 690
-93.75 62.5 809
-242.188 226.562 720
-210.938 390.625 792
-148.438 62.5 815
-93.75 257.812 700
429.688 296.875 644
320.312 117.188 708
-437.5 226.562 802
-70.3125 78.125 796
62.5 -234.375 831
-476.562 164.062 802
-15.625 273.438 694
-85.9375 257.812 698
-62.5 62.5 807
-289.062 -343.75 3037
351.562 398.438 764
445.312 398.438 717
-132.812 62.5 811
171.875 -320.312 2883
85.9375 -242.188 817
335.938 78.125 713
-328.125 39.0625 975
-164.062 -62.5 738
-125 -304.688 851
234.375 109.375 757
-210.938 234.375 716
-398.438 343.75 819
-429.688 -296.875 2271
273.438 -250 1060
101.562 289.062 680
289.062 46.875 728
-195.312 234.375 713
-101.562 -140.625 698
125 -171.875 827
-117.188 -265.625 854
54.6875 273.438 683
273.438 234.375 687
-312.5 -359.375 2908
-109.375 -140.625 698
320.312 70.3125 716
-289.062 218.75 725
-101.562 -78.125 723
46.875 -54.6875 878
328.125 109.375 716
78.125 -195.312 827
-468.75 -343.75 2184
-164.062 62.5 815
-375 -85.9375 938
296.875 289.062 655
-78.125 257.812 698
257.812 296.875 662
273.438 148.438 710
-117.188 0 773
-148.438 -250 885
-234.375 -343.75 3010
414.062 312.5 643
23.4375 281.25 691
289.062 78.125 734
23.4375 382.812 789
250 164.062 687
-140.625 250 707
156.25 -117.188 761
257.812 148.438 710
70.3125 -148.438 792
140.625 -117.188 761
-85.9375 -179.688 720
218.75 390.625 776
414.062 296.875 644
320.312 296.875 654
-117.188 250 704
23.4375 273.438 688
390.625 312.5 647
-101.562 62.5 809
296.875 156.25 704
218.75 -210.938 831
-7.8125 273.438 693
-320.312 101.562 789
140.625 281.25 675
-500 250 871
-375 -62.5 915
46.875 390.625 783
132.812 281.25 675
-70.3125 257.812 697
-125 -210.938 889
367.188 304.688 648
-125 -140.625 700
359.375 -242.188 1041
398.438 421.875 749
-320.312 -437.5 2812
-171.875 39.0625 829
164.062 281.25 672
-140.625 -171.875 720
492.188 -54.6875 854
-359.375 0 841
-421.875 406.25 1034
-179.688 0 773
-179.688 -171.875 725
445.312 296.875 642
-242.188 -54.6875 903
296.875 296.875 655
398.438 296.875 647
-156.25 -171.875 723
343.75 78.125 713
-70.3125 -382.812 835
93.75 281.25 679
-343.75 203.125 736
109.375 -179.688 823
-304.688 -351.562 2958
375 304.688 647
-78.125 -101.562 710
460.938 304.688 640
-242.188 328.125 821
-203.125 -343.75 2984
328.125 398.438 767
-23.4375 273.438 697
-320.312 -445.312 2744
31.25 281.25 690
-304.688 -367.188 2908
195.312 -320.312 2859
-109.375 -109.375 707
70.3125 -218.75 829
109.375 289.062 679
-289.062 39.0625 833
195.312 289.062 668
390.625 398.438 728
-257.812 -343.75 3010
-140.625 -140.625 703
15.625 7.8125 767
-500 -218.75 1343
-7.8125 -140.625 693
179.688 -218.75 851
382.812 304.688 647
-328.125 429.688 1007
-367.188 39.0625 813
281.25 -250 1057
-203.125 234.375 714
367.188 132.812 706
304.688 296.875 655
351.562 54.6875 713
-296.875 210.938 728
-148.438 -171.875 723
-320.312 -429.688 2812
-468.75 -335.938 2212
-93.75 -164.062 708
-78.125 62.5 807
468.75 296.875 641
296.875 70.3125 727
-125 250 706
453.125 296.875 642
-187.5 242.188 711
-312.5 210.938 730
-343.75 -7.8125 843
-343.75 -437.5 2767
101.562 -328.125 2908
0 -117.188 698
54.6875 -148.438 796
-351.562 218.75 739
109.375 -15.625 845
78.125 -265.625 811
359.375 398.438 764
117.188 -257.812 823
289.062 453.125 738
-125 62.5 811
250 109.375 759
-125 -62.5 733
-296.875 218.75 727
117.188 453.125 755
179.688 296.875 674
-101.562 -109.375 706
-281.25 226.562 723
-117.188 -78.125 725
390.625 296.875 647
-179.688 -78.125 728
-15.625 -257.812 845
476.562 312.5 636
125 -148.438 825
-148.438 -320.312 873
-226.562 -78.125 920
335.938 132.812 711
-70.3125 -156.25 701
-85.9375 -164.062 708
273.438 289.062 659
-500 171.875 839
-31.25 23.4375 783
-343.75 296.875 843
171.875 281.25 671
296.875 148.438 706
-234.375 242.188 720
-39.0625 265.625 696
273.438 117.188 716
-7.8125 -250 849
351.562 -242.188 1044
-39.0625 -46.875 742
296.875 187.5 678
-312.5 -406.25 2859
296.875 46.875 728
-85.9375 265.625 704
78.125 -210.938 835
-375 101.562 803
-460.938 250 798
-312.5 281.25 787
156.25 296.875 678
-421.875 -265.625 2365
203.125 289.062 667
-296.875 39.0625 1034
-187.5 250 716
164.062 296.875 676
242.188 304.688 668
-375 218.75 807
-101.562 7.8125 774
210.938 289.062 666
-476.562 101.562 790
187.5 -257.812 1073
265.625 289.062 661
375 296.875 648
-156.25 242.188 708
437.5 296.875 643
-140.625 -343.75 871
-359.375 218.75 739
-101.562 39.0625 798
39.0625 289.062 696
-476.562 242.188 831
281.25 148.438 710
-15.625 -31.25 747
-375 210.938 805
359.375 93.75 739
-250 -195.312 1283
382.812 312.5 647
-390.625 -125 975
257.812 289.062 662
-179.688 7.8125 781
-320.312 -453.125 2812
-78.125 -85.9375 717
7.8125 -320.312 845
351.562 304.688 650
367.188 85.9375 744
257.812 304.688 664
-46.875 257.812 694
351.562 312.5 653
226.562 289.062 663
-484.375 234.375 827
-156.25 -328.125 887
-187.5 -23.4375 761
-140.625 257.812 711
-320.312 -460.938 2812
-117.188 -304.688 847
359.375 312.5 652
257.812 179.688 683
-140.625 62.5 813
476.562 304.688 636
-148.438 257.812 713
242.188 296.875 663
-85.9375 -140.625 697
-7.8125 -101.562 710
296.875 93.75 719
-445.312 328.125 827
78.125 -140.625 783
429.688 304.688 642
-335.938 -304.688 3120
85.9375 -171.875 847
335.938 117.188 716
-273.438 -343.75 3037
367.188 312.5 650
273.438 164.062 706
-78.125 -39.0625 746
265.625 171.875 683
101.562 -148.438 774
304.688 93.75 717
304.688 171.875 693
289.062 109.375 711
164.062 453.125 749
156.25 453.125 750
-140.625 -85.9375 720
78.125 281.25 682
273.438 187.5 686
171.875 -117.188 761
-7.8125 265.625 691
-257.812 226.562 722
468.75 304.688 637
-203.125 -93.75 722
70.3125 -210.938 829
-109.375 -93.75 714
-429.688 -414.062 2212
-335.938 15.625 827
-281.25 234.375 728
421.875 -234.375 1031
-218.75 234.375 716
-70.3125 -93.75 714
101.562 -125 774
242.188 203.125 704
351.562 117.188 717
-85.9375 257.812 698
-85.9375 257.812 698
351.562 62.5 711
-15.625 -7.8125 762
-320.312 218.75 731
171.875 296.875 675
-62.5 -125 697
-46.875 265.625 696
281.25 296.875 658
367.188 140.625 706
-62.5 31.25 789
-117.188 -164.062 710
-328.125 31.25 975
195.312 -117.188 762
-343.75 -445.312 2744
195.312 -210.938 845
-109.375 359.375 802
148.438 289.062 675
117.188 -250 827
-39.0625 62.5 805
234.375 289.062 663
-156.25 62.5 815
-476.562 109.375 798
-85.9375 -125 697
304.688 218.75 694
140.625 -109.375 764
117.188 -242.188 827
453.125 304.688 641
-54.6875 -62.5 730
-312.5 -414.062 2908
-39.0625 -101.562 710
-15.625 -70.3125 723
-320.312 226.562 734
-70.3125 -125 698
-125 54.6875 811
335.938 304.688 653
-476.562 273.438 858
-390.625 109.375 798
484.375 -289.062 2579
421.875 304.688 643
-15.625 -304.688 839
70.3125 -320.312 894
460.938 429.688 741
-453.125 257.812 798
-328.125 117.188 787
0 265.625 690
-312.5 226.562 731
-46.875 7.8125 773
187.5 289.062 670
117.188 281.25 676
132.812 -117.188 762
-93.75 -140.625 697
375 312.5 648
-164.062 -171.875 723
234.375 296.875 664
367.188 101.562 744
-148.438 250 708
320.312 70.3125 716
-195.312 -54.6875 746
-257.812 -23.4375 882
265.625 -250 1060
85.9375 -242.188 817
-85.9375 -101.562 710
-492.188 257.812 869
-390.625 -93.75 978
335.938 164.062 720
-320.312 -398.438 2835
-242.188 234.375 720
54.6875 445.312 762
31.25 445.312 769
-359.375 210.938 739
7.8125 54.6875 800
-109.375 -164.062 710
273.438 -250 1060
-312.5 -421.875 2835
320.312 125 706
-109.375 62.5 811
-132.812 78.125 802
54.6875 273.438 683
-85.9375 62.5 809
195.312 -257.812 1070
-500 195.312 835
304.688 195.312 674
164.062 -117.188 759
218.75 289.062 664
-148.438 421.875 790
-54.6875 367.188 798
-23.4375 -78.125 722
-15.625 265.625 693
-101.562 351.562 807
78.125 -187.5 821
-398.438 250 805
-304.688 -375 2908
-281.25 23.4375 841
70.3125 -93.75 847
125 281.25 676
-117.188 -351.562 856
-335.938 132.812 774
414.062 304.688 643
250 304.688 666
-31.25 -78.125 723
-15.625 -23.4375 750
-328.125 210.938 733
85.9375 -125 781
-351.562 164.062 754
-343.75 -7.8125 843
-343.75 148.438 766
46.875 273.438 683
-140.625 -242.188 878
-328.125 -445.312 2744
-210.938 -343.75 3010
226.562 101.562 764
312.5 70.3125 717
-210.938 234.375 716
414.062 -234.375 1031
-54.6875 -85.9375 719
359.375 -304.688 2744
492.188 -31.25 835
-93.75 -23.4375 754
335.938 78.125 713
-367.188 -23.4375 873
109.375 -226.562 827
-187.5 -117.188 706
-500 -398.438 2116
101.562 -15.625 845
-117.188 62.5 811
-304.688 -359.375 2908
257.812 210.938 700
132.812 281.25 675
304.688 46.875 725
15.625 273.438 690
-273.438 218.75 723
23.4375 281.25 691
250 289.062 662
-93.75 265.625 706
226.562 296.875 664
23.4375 437.5 767
0 -109.375 704
-335.938 -367.188 2908
39.0625 273.438 687
-109.375 429.688 792
179.688 -117.188 761
-289.062 375 803
-31.25 273.438 698
-359.375 187.5 746
-23.4375 -62.5 730
-148.438 70.3125 809
148.438 -148.438 815
101.562 281.25 678
-421.875 -226.562 2398
85.9375 289.062 683
242.188 289.062 662
-343.75 156.25 754
343.75 -242.188 1047
-328.125 -328.125 3010
-93.75 -164.062 708
-359.375 -328.125 3238
70.3125 273.438 682
-328.125 -437.5 2744
343.75 398.438 734
-476.562 382.812 1004
-70.3125 -351.562 837
-500 140.625 794
-226.562 -343.75 3010
-375 109.375 802
-445.312 109.375 794
156.25 -320.312 2859
62.5 273.438 682
-117.188 -85.9375 719
132.812 -140.625 821
-296.875 -359.375 3010
-156.25 -320.312 882
-421.875 -273.438 2349
-171.875 -171.875 725
-31.25 -328.125 835
-195.312 242.188 713
312.5 85.9375 723
359.375 296.875 649
109.375 281.25 678
-171.875 242.188 710
0 -23.4375 752
382.812 296.875 647
93.75 -218.75 819
421.875 296.875 644
171.875 -226.562 851
-242.188 226.562 720
210.938 460.938 744
-132.812 -7.8125 769
-78.125 -164.062 707
-273.438 7.8125 858
492.188 304.688 632
-117.188 -148.438 701
398.438 304.688 646
132.812 -218.75 849
-429.688 -328.125 2271
-500 250 871
7.8125 281.25 696
-296.875 54.6875 817
250 132.812 746
273.438 203.125 687
375 296.875 648
234.375 304.688 668
437.5 304.688 642
-15.625 -281.25 841
-492.188 -218.75 1338
-132.812 250 707
-54.6875 375 792
78.125 289.062 684
-382.812 -93.75 943
-296.875 -320.312 3037
289.062 195.312 679
328.125 304.688 654
-492.188 -390.625 2116
-15.625 -312.5 839
-164.062 242.188 710
-382.812 93.75 807
-312.5 93.75 794
265.625 218.75 694
367.188 296.875 648
-85.9375 -117.188 703
250 187.5 684
-179.688 -171.875 725
-437.5 148.438 785
351.562 148.438 717
117.188 -234.375 833
0 -15.625 755
-312.5 -398.438 2835
-351.562 179.688 747
-101.562 -54.6875 739
-23.4375 -296.875 837
351.562 296.875 650
-187.5 -54.6875 746
7.8125 -31.25 749
273.438 296.875 659
320.312 304.688 654
468.75 390.625 704
390.625 85.9375 741
140.625 289.062 675
367.188 31.25 802
195.312 453.125 747
-320.312 210.938 731
85.9375 -132.812 781
-335.938 210.938 734
210.938 390.625 776
-492.188 15.625 856
-132.812 -210.938 901
-125 414.062 783
179.688 460.938 747
-31.25 -46.875 741
-125 -132.812 700
203.125 289.062 667
-101.562 257.812 703
7.8125 445.312 778
-85.9375 257.812 698
210.938 453.125 744
-500 -15.625 882
210.938 -203.125 837
281.25 296.875 658
195.312 289.062 668
-54.6875 257.812 696
156.25 -109.375 762
218.75 -171.875 837
-7.8125 -117.188 700
-85.9375 -85.9375 717
-312.5 -367.188 2908
101.562 -125 774
-265.625 234.375 723
226.562 -203.125 827
320.312 156.25 710
304.688 281.25 661
226.562 187.5 714
132.812 -125 761
359.375 85.9375 741
125 -265.625 817
-23.4375 -54.6875 734
-304.688 -312.5 3064
-203.125 -78.125 920
-39.0625 -39.0625 744
70.3125 289.062 687
-70.3125 7.8125 773
-70.3125 -93.75 714
296.875 109.375 710
-304.688 -320.312 3037
273.438 -312.5 2812
-382.812 -328.125 3238
-242.188 -343.75 3010
-218.75 -343.75 3010
265.625 296.875 661
304.688 101.562 713
-15.625 0 767
7.8125 375 792
117.188 -257.812 823
-171.875 46.875 825
93.75 -156.25 783
-320.312 -312.5 3064
70.3125 281.25 682
-265.625 -7.8125 869
218.75 -320.312 2835
-109.375 265.625 708
242.188 109.375 757
-156.25 -171.875 723
-250 -343.75 3010
351.562 312.5 653
62.5 -234.375 831
132.812 -320.312 2908
-460.938 -414.062 2143
171.875 -125 762
-54.6875 -210.938 867
257.812 398.438 771
-156.25 406.25 789
-93.75 -101.562 710
179.688 390.625 780
-148.438 62.5 815
7.8125 273.438 693
343.75 296.875 652
0 -93.75 711
265.625 226.562 691
-492.188 164.062 845
289.062 156.25 706
328.125 382.812 722
101.562 390.625 781
335.938 148.438 711
-351.562 -328.125 3238
-500 -328.125 3178
-140.625 0 773
-195.312 398.438 792
-62.5 -62.5 730
257.812 296.875 662
-31.25 265.625 694
171.875 289.062 671
210.938 296.875 668
125 -140.625 766
-179.688 7.8125 781
484.375 -62.5 860
-203.125 242.188 714
265.625 85.9375 734
-453.125 -289.062 2286
429.688 304.688 642
351.562 -242.188 1044
-453.125 367.188 973
-101.562 7.8125 774
93.75 281.25 679
-148.438 0 773
-23.4375 265.625 694
242.188 304.688 668
289.062 101.562 713
0 -101.562 710
-179.688 15.625 789
-85.9375 367.188 796
-140.625 -171.875 720
-187.5 -39.0625 754
78.125 -257.812 811
242.188 101.562 736
382.812 304.688 647
-320.312 -406.25 2859
351.562 62.5 711
-382.812 -101.562 956
-343.75 148.438 766
-328.125 54.6875 987
-367.188 109.375 805
-476.562 117.188 790
273.438 -250 1060
148.438 296.875 680
-117.188 429.688 789
-39.0625 273.438 700
343.75 312.5 654
140.625 296.875 680
-367.188 -328.125 3238
-109.375 39.0625 800
-210.938 -109.375 946
-39.0625 70.3125 803
-234.375 -343.75 3010
187.5 -257.812 1073
-296.875 -343.75 3064
70.3125 -210.938 829
-23.4375 -343.75 839
-265.625 -343.75 3037
-117.188 -281.25 849
-320.312 -453.125 2812
39.0625 273.438 687
-382.812 414.062 1019
-281.25 -343.75 3037
62.5 -171.875 819
406.25 -281.25 2744
-375 -328.125 3238
70.3125 398.438 780
62.5 281.25 682
179.688 289.062 670
304.688 398.438 767
-320.312 101.562 789
-125 -156.25 707
-109.375 421.875 781
-54.6875 265.625 697
-85.9375 70.3125 805
-7.8125 265.625 690
-101.562 -164.062 708
-15.625 265.625 690
351.562 70.3125 711
-250 226.562 722
226.562 304.688 666
367.188 164.062 716
-273.438 421.875 962
-156.25 250 708
375 304.688 646
265.625 125 716
23.4375 -203.125 906
78.125 -31.25 860
-109.375 85.9375 796
250 148.438 710
-437.5 132.812 787
140.625 -7.8125 839
187.5 359.375 728
-312.5 -414.062 2812
-312.5 304.688 837
-382.812 85.9375 811
-335.938 -304.688 3208
125 -117.188 762
-23.4375 -421.875 867
-414.062 -328.125 3269
-484.375 -328.125 2256
109.375 -156.25 825
179.688 -257.812 1070
179.688 -257.812 1070
-148.438 -171.875 722
125 -328.125 2908
-23.4375 31.25 785
125 -125 762
312.5 304.688 652
-453.125 359.375 956
-312.5 -429.688 2835
-335.938 -328.125 3037
-351.562 164.062 754
-85.9375 -39.0625 744
234.375 203.125 706
-85.9375 -101.562 707
-250 -39.0625 889
117.188 -250 823
242.188 132.812 744
46.875 273.438 683
-132.812 62.5 811
-257.812 -343.75 3010
335.938 296.875 650
-101.562 -210.938 871
234.375 460.938 741
156.25 460.938 749
250 195.312 684
242.188 203.125 706
-164.062 -101.562 711
-195.312 -46.875 744
-476.562 -320.312 2212
-234.375 -70.3125 915
257.812 125 717
328.125 78.125 711
203.125 296.875 666
-195.312 250 716
-500 187.5 841
-335.938 15.625 827
335.938 312.5 650
320.312 195.312 670
406.25 -234.375 1028
312.5 78.125 717
7.8125 62.5 802
-421.875 -328.125 3269
140.625 -132.812 755
117.188 -242.188 827
-359.375 7.8125 833
367.188 156.25 706
351.562 156.25 722
132.812 -140.625 819
289.062 234.375 684
-78.125 -54.6875 734
-304.688 -367.188 2958
-304.688 -414.062 2908
226.562 390.625 776
117.188 281.25 676
132.812 296.875 678
187.5 406.25 769
-132.812 -62.5 731
320.312 70.3125 713
203.125 -125 762
-421.875 101.562 794
78.125 -171.875 815
-195.312 -85.9375 722
-445.312 -265.625 2333
-359.375 179.688 747
-476.562 -328.125 2212
54.6875 -257.812 829
164.062 -218.75 851
-62.5 -39.0625 746
-7.8125 -171.875 710
46.875 -304.688 862
-492.188 -328.125 3178
320.312 312.5 653
-132.812 250 706
-23.4375 -320.312 837
312.5 70.3125 716
132.812 -132.812 759
-31.25 -320.312 835
0 -7.8125 757
218.75 304.688 668
-15.625 234.375 704
-281.25 218.75 723
234.375 109.375 759
-31.25 -54.6875 731
62.5 289.062 686
-7.8125 -109.375 701
-164.062 -281.25 889
359.375 78.125 714
-171.875 242.188 708
-375 -70.3125 920
109.375 281.25 676
-148.438 -140.625 700
-179.688 242.188 708
242.188 210.938 701
125 -218.75 839
117.188 -164.062 823
93.75 -140.625 773
117.188 -226.562 835
-187.5 -15.625 767
-109.375 257.812 703
-117.188 -23.4375 754
-93.75 257.812 700
-125 23.4375 787
-484.375 -398.438 2103
-117.188 -54.6875 734
-7.8125 -132.812 693
-265.625 226.562 720
109.375 -250 821
-39.0625 54.6875 803
-234.375 -101.562 946
351.562 78.125 711
-437.5 125 787
-109.375 -250 849
-398.438 109.375 796
62.5 -250 827
31.25 273.438 684
109.375 382.812 785
-414.062 250 809
-203.125 -78.125 728
-31.25 -31.25 746
-93.75 46.875 800
-273.438 234.375 725
125 -164.062 823
-242.188 242.188 725
171.875 -101.562 755
179.688 -117.188 759
-203.125 234.375 714
171.875 -109.375 755
-453.125 -296.875 2286
320.312 -109.375 908
101.562 281.25 678
-7.8125 -164.062 704
-70.3125 429.688 776
23.4375 -351.562 854
-320.312 -460.938 2744
-132.812 -171.875 719
125 289.062 675
273.438 171.875 703
-414.062 -250 2398
-312.5 -203.125 1288
265.625 -250 1057
-437.5 -242.188 2381
117.188 -156.25 823
-7.8125 -140.625 693
-257.812 226.562 720
0 273.438 688
296.875 304.688 655
-421.875 335.938 825
257.812 289.062 661
-359.375 210.938 738
250 140.625 741
156.25 -195.312 862
-125 -250 860
453.125 320.312 637
-125 -62.5 731
257.812 156.25 706
-7.8125 -156.25 698
85.9375 -164.062 789
476.562 312.5 634
328.125 312.5 652
-117.188 414.062 781
187.5 289.062 667
320.312 328.125 671
-78.125 -156.25 703
257.812 296.875 661
-289.062 226.562 725
335.938 -242.188 1044
-117.188 -62.5 730
-62.5 304.688 733
-304.688 70.3125 811
367.188 304.688 647
62.5 445.312 761
125 -156.25 823
312.5 148.438 704
-109.375 -164.062 710
273.438 148.438 710
257.812 62.5 787
242.188 296.875 662
-101.562 265.625 706
195.312 460.938 746
281.25 164.062 704
-85.9375 257.812 698
93.75 382.812 785
-304.688 -375 2933
-250 234.375 720
-62.5 265.625 697
-312.5 -453.125 2812
-468.75 -328.125 2212
-468.75 250 827
-203.125 -85.9375 722
125 -7.8125 839
-23.4375 -312.5 835
-46.875 273.438 698
117.188 -328.125 2908
39.0625 -218.75 906
-492.188 226.562 827
-7.8125 -125 693
460.938 312.5 636
203.125 390.625 778
-343.75 -7.8125 845
-85.9375 15.625 780
335.938 156.25 725
414.062 -234.375 1028
85.9375 -234.375 815
-289.062 -343.75 3064
343.75 -242.188 1044
-351.562 203.125 736
117.188 -7.8125 839
54.6875 281.25 682
453.125 312.5 637
-140.625 250 707
-15.625 -203.125 878
-359.375 -414.062 2984
-367.188 -15.625 858
351.562 328.125 663
15.625 281.25 688
-78.125 -31.25 747
-46.875 23.4375 780
-273.438 -343.75 3064
23.4375 273.438 684
15.625 -382.812 869
-304.688 -382.812 2984
-148.438 343.75 811
62.5 -250 827
-414.062 195.312 796
0 -85.9375 714
101.562 -125 769
320.312 296.875 652
7.8125 -23.4375 749
257.812 226.562 693
296.875 62.5 722
-312.5 -375 2933
484.375 -93.75 882
-460.938 -320.312 2212
-15.625 -125 694
101.562 -203.125 819
-335.938 132.812 774
-476.562 226.562 817
7.8125 54.6875 798
-343.75 148.438 766
-93.75 15.625 780
-156.25 351.562 809
273.438 226.562 690
78.125 -257.812 811
343.75 140.625 719
-203.125 -343.75 2984
289.062 93.75 720
-375 -54.6875 910
-312.5 289.062 802
351.562 304.688 649
218.75 460.938 741
-328.125 218.75 733
328.125 296.875 650
-484.375 265.625 864
-23.4375 265.625 693
-203.125 250 719
-210.938 -109.375 710
281.25 39.0625 776
-132.812 -39.0625 747
-156.25 -62.5 734
351.562 164.062 720
-226.562 -85.9375 933
109.375 -62.5 790
226.562 -320.312 2835
195.312 296.875 667
-93.75 -23.4375 752
171.875 -218.75 849
484.375 304.688 635
-101.562 250 701
437.5 312.5 641
85.9375 -171.875 843
-171.875 -171.875 725
-453.125 109.375 796
-414.062 -125 978
234.375 101.562 734
54.6875 289.062 686
125 406.25 773
-375 -62.5 918
85.9375 -132.812 776
-70.3125 437.5 787
171.875 -125 755
312.5 296.875 652
-140.625 15.625 781
-164.062 421.875 794
289.062 304.688 657
-203.125 242.188 714
-351.562 164.062 754
-101.562 -265.625 845
257.812 218.75 697
-203.125 -78.125 728
-382.812 257.812 802
-7.8125 -273.438 843
218.75 -195.312 829
125 296.875 679
-62.5 54.6875 803
-382.812 250 802
164.062 289.062 670
-195.312 -46.875 744
125 -203.125 843
445.312 304.688 641
-492.188 375 992
-500 148.438 946
-398.438 -328.125 3269
-429.688 85.9375 794
242.188 85.9375 734
39.0625 -367.188 875
195.312 -218.75 841
93.75 -164.062 837
273.438 398.438 771
187.5 375 744
-7.8125 -101.562 704
171.875 289.062 668
195.312 289.062 666
-148.438 -289.062 867
-39.0625 -85.9375 716
109.375 -171.875 823
156.25 296.875 674
-156.25 -85.9375 720
-382.812 -85.9375 943
-476.562 125 789
-226.562 390.625 796
156.25 289.062 671
117.188 -234.375 829
492.188 320.312 630
273.438 156.25 706
468.75 320.312 636
304.688 375 716
46.875 -250 878
-70.3125 -148.438 698
-367.188 195.312 807
-7.8125 -85.9375 714
-7.8125 -148.438 694
-273.438 -218.75 2883
328.125 156.25 710
15.625 -265.625 851
39.0625 273.438 684
-148.438 414.062 789
62.5 -226.562 827
257.812 70.3125 783
460.938 304.688 637
-15.625 31.25 783
-367.188 414.062 1016
-179.688 15.625 785
210.938 304.688 670
-312.5 -421.875 2812
62.5 -265.625 811
-343.75 -328.125 3238
226.562 -132.812 767
468.75 398.438 704
70.3125 -195.312 821
7.8125 -46.875 736
335.938 46.875 711
-46.875 -46.875 739
-359.375 179.688 747
250 93.75 733
195.312 343.75 708
-320.312 -437.5 2812
-109.375 39.0625 796
109.375 -39.0625 792
203.125 296.875 666
296.875 78.125 733
-289.062 39.0625 833
-304.688 218.75 728
296.875 -312.5 2789
-23.4375 -85.9375 716
-125 218.75 716
-148.438 296.875 749
-7.8125 -375 851
-7.8125 273.438 690
-304.688 -328.125 3010
-328.125 54.6875 984
-484.375 242.188 831
203.125 304.688 670
-382.812 -398.438 3092
398.438 54.6875 781
171.875 453.125 747
-31.25 265.625 694
-156.25 54.6875 813
312.5 203.125 671
460.938 296.875 642
328.125 78.125 711
-140.625 242.188 707
-85.9375 7.8125 773
93.75 -117.188 776
-93.75 -140.625 697
117.188 289.062 676
234.375 296.875 662
-289.062 218.75 723
-93.75 257.812 700
429.688 312.5 641
-484.375 257.812 837
-460.938 125 789
445.312 320.312 641
476.562 320.312 634
281.25 109.375 713
343.75 54.6875 711
-398.438 242.188 805
0 281.25 693
-476.562 109.375 798
-406.25 250 809
-296.875 -335.938 3010
-304.688 -203.125 1288
-7.8125 -93.75 708
-117.188 257.812 703
93.75 -179.688 833
54.6875 -265.625 811
85.9375 281.25 679
-367.188 132.812 819
62.5 -156.25 798
117.188 296.875 682
-78.125 -156.25 703
-328.125 -460.938 2744
7.8125 281.25 691
257.812 140.625 716
-390.625 -125 973
-62.5 -265.625 839
23.4375 -304.688 849
304.688 460.938 734
-320.312 -468.75 2723
-203.125 -70.3125 733
-359.375 23.4375 825
70.3125 -179.688 819
15.625 273.438 686
304.688 312.5 657
367.188 -304.688 2723
351.562 85.9375 716
171.875 -117.188 759
273.438 304.688 658
-312.5 -414.062 2812
296.875 296.875 655
359.375 171.875 713
-70.3125 359.375 803
414.062 390.625 710
-375 78.125 817
93.75 -125 773
-31.25 281.25 700
-367.188 78.125 819
101.562 -195.312 819
85.9375 -15.625 847
-117.188 -164.062 710
-125 -140.625 698
-46.875 -39.0625 744
-312.5 -406.25 2859
-7.8125 -164.062 704
-132.812 23.4375 787
234.375 210.938 701
179.688 289.062 668
476.562 304.688 636
-484.375 140.625 790
132.812 -328.125 2908
132.812 -328.125 2908
-101.562 -62.5 730
156.25 -156.25 847
335.938 304.688 650
-164.062 250 710
-468.75 -210.938 1328
304.688 70.3125 717
-398.438 406.25 1016
-226.562 242.188 717
-265.625 320.312 827
226.562 203.125 706
312.5 62.5 716
-171.875 46.875 825
-382.812 -93.75 946
437.5 320.312 641
273.438 164.062 704
70.3125 -187.5 819
265.625 101.562 731
-460.938 -437.5 2170
117.188 -242.188 827
-492.188 -117.188 973
-492.188 -437.5 2065
-179.688 -23.4375 762
-343.75 421.875 1013
-390.625 101.562 800
289.062 -312.5 2789
-304.688 312.5 835
273.438 101.562 722
-320.312 -421.875 2812
62.5 -164.062 811
117.188 -312.5 2958
265.625 398.438 771
-257.812 414.062 940
-242.188 -54.6875 903
-359.375 117.188 815
289.062 312.5 661
-109.375 351.562 807
-398.438 250 807
242.188 140.625 741
0 375 794
-257.812 -23.4375 882
-62.5 273.438 701
0 -78.125 717
-7.8125 382.812 790
210.938 -320.312 2835
453.125 304.688 638
140.625 -328.125 2908
304.688 296.875 654
-171.875 54.6875 819
-171.875 -85.9375 722
-453.125 -296.875 2286
-460.938 -328.125 2212
-414.062 78.125 796
-476.562 -31.25 981
-492.188 -398.438 2103
328.125 304.688 650
39.0625 -39.0625 869
343.75 296.875 650
-343.75 62.5 984
421.875 312.5 641
-234.375 -226.562 2908
226.562 109.375 759
-296.875 -203.125 1292
-109.375 -367.188 851
-296.875 -328.125 3010
-218.75 234.375 716
-15.625 375 796
-406.25 -328.125 3238
-70.3125 -148.438 698
414.062 304.688 642
-39.0625 265.625 696
-359.375 31.25 821
281.25 304.688 657
-7.8125 -156.25 698
93.75 281.25 678
-320.312 226.562 733
-7.8125 -78.125 717
85.9375 -234.375 815
-390.625 -328.125 3238
-70.3125 -78.125 720
-117.188 -132.812 698
7.8125 23.4375 774
0 -93.75 707
445.312 -281.25 2701
484.375 320.312 634
101.562 281.25 678
-15.625 -23.4375 749
250 296.875 661
281.25 187.5 686
117.188 -257.812 819
46.875 281.25 683
-39.0625 23.4375 781
179.688 296.875 670
-101.562 -273.438 843
70.3125 -132.812 787
460.938 320.312 637
93.75 -39.0625 802
289.062 296.875 657
421.875 320.312 642
-460.938 382.812 1034
335.938 296.875 650
117.188 -226.562 835
-296.875 -343.75 3010
-429.688 140.625 789
-382.812 -328.125 3269
54.6875 0 839
-39.0625 -312.5 831
-390.625 257.812 802
0 -70.3125 722
375 -304.688 2723
-320.312 -460.938 2744
398.438 -296.875 2723
-320.312 -304.688 3092
281.25 46.875 774
304.688 85.9375 723
31.25 273.438 684
468.75 304.688 637
375 93.75 738
-140.625 250 707
-210.938 -101.562 714
-343.75 210.938 736
117.188 -218.75 839
7.8125 39.0625 787
-148.438 257.812 711
414.062 312.5 642
281.25 312.5 662
-148.438 -140.625 700
-468.75 -351.562 2184
-140.625 429.688 794
62.5 -265.625 811
-195.312 -39.0625 752
-390.625 406.25 1013
-23.4375 -257.812 843
281.25 171.875 698
-414.062 156.25 813
-476.562 -375 2143
70.3125 -234.375 825
-351.562 421.875 1016
-210.938 429.688 1054
320.312 78.125 714
429.688 304.688 641
296.875 148.438 703
187.5 -210.938 845
-101.562 257.812 703
-367.188 -70.3125 920
-304.688 -382.812 2984
-382.812 242.188 809
-476.562 179.688 802
-414.062 -132.812 978
-289.062 -203.125 1288
484.375 304.688 635
148.438 289.062 672
429.688 320.312 642
281.25 226.562 690
328.125 148.438 707
328.125 148.438 707
-210.938 -109.375 710
-304.688 -398.438 2933
312.5 -312.5 2767
-187.5 -7.8125 773
-367.188 -421.875 3010
117.188 382.812 785
-148.438 -85.9375 719
-328.125 -468.75 2723
-234.375 242.188 719
265.625 187.5 683
-335.938 -304.688 3208
437.5 304.688 641
-46.875 -15.625 755
117.188 -210.938 843
320.312 171.875 717
70.3125 -257.812 811
398.438 312.5 642
-203.125 -70.3125 733
-421.875 398.438 1022
-132.812 7.8125 776
-429.688 -304.688 2301
-375 117.188 803
-109.375 -250 849
-312.5 78.125 800
-304.688 -343.75 3010
-171.875 62.5 815
187.5 304.688 672
257.812 234.375 688
-398.438 62.5 802
-304.688 -390.625 2958
-70.3125 -281.25 835
390.625 312.5 643
281.25 242.188 683
421.875 390.625 710
-101.562 -54.6875 738
-468.75 382.812 998
0 -226.562 867
-179.688 23.4375 789
265.625 164.062 704
-414.062 -226.562 2415
203.125 -203.125 839
109.375 289.062 678
-85.9375 -62.5 730
-23.4375 -273.438 839
-312.5 -429.688 2835
351.562 171.875 714
289.062 203.125 678
-421.875 -132.812 978
-453.125 -304.688 2271
-140.625 -62.5 731
-109.375 -15.625 759
492.188 -23.4375 827
351.562 156.25 722
62.5 -226.562 827
328.125 132.812 708
335.938 406.25 762
187.5 296.875 668
414.062 320.312 644
335.938 140.625 707
468.75 398.438 704
-312.5 -382.812 2908
210.938 -210.938 829
-304.688 -437.5 2859
-70.3125 265.625 698
492.188 304.688 634
-445.312 390.625 1034
-78.125 359.375 803
-312.5 429.688 998
0 31.25 783
492.188 -289.062 2579
-210.938 -101.562 714
-406.25 -132.812 978
406.25 304.688 642
-164.062 343.75 813
328.125 140.625 707
-375 250 809
-132.812 250 706
-39.0625 -54.6875 731
-398.438 179.688 802
242.188 156.25 733
148.438 -328.125 2883
-414.062 70.3125 796
-101.562 -164.062 708
140.625 -328.125 2908
-500 -281.25 3178
-320.312 -320.312 3037
-140.625 -93.75 714
-476.562 -398.438 2103
-23.4375 -7.8125 762
-335.938 421.875 1004
226.562 296.875 662
453.125 421.875 746
-296.875 -375 2984
312.5 101.562 713
-429.688 -453.125 2226
109.375 398.438 778
-328.125 -453.125 2744
-312.5 -421.875 2812
-312.5 -375 2933
406.25 -296.875 2680
93.75 -148.438 783
-320.312 -453.125 2744
78.125 281.25 678
335.938 85.9375 716
132.812 -296.875 2958
265.625 218.75 694
382.812 312.5 646
226.562 -320.312 2835
-437.5 -250 2365
0 39.0625 785
-140.625 -85.9375 719
-390.625 -234.375 2958
-460.938 -218.75 1322
-437.5 93.75 798
-335.938 125 780
-23.4375 -296.875 835
-453.125 -359.375 2170
484.375 445.312 725
54.6875 -234.375 827
328.125 -304.688 2767
-304.688 -375 2933
164.062 289.062 670
-54.6875 273.438 701
265.625 304.688 659
312.5 304.688 652
257.812 304.688 661
-468.75 -117.188 973
-281.25 -289.062 3120
-429.688 -132.812 981
-390.625 62.5 803
367.188 406.25 759
-468.75 -125 975
257.812 210.938 700
46.875 289.062 687
125 367.188 754
-460.938 -335.938 2212
-148.438 7.8125 776
304.688 -312.5 2744
-437.5 -125 975
125 398.438 778
-132.812 351.562 809
421.875 304.688 642
281.25 398.438 736
0 0 761
343.75 304.688 647
-218.75 -343.75 3010
-101.562 437.5 794
-359.375 -15.625 854
-273.438 -320.312 3120
390.625 304.688 644
343.75 125 716
-281.25 7.8125 856
-421.875 78.125 794
296.875 62.5 719
-343.75 140.625 771
-320.312 -414.062 2835
218.75 -320.312 2835
-351.562 156.25 817
-23.4375 -414.062 864
234.375 -171.875 807
320.312 296.875 653
-93.75 250 700
320.312 304.688 650
312.5 70.3125 713
-15.625 273.438 691
140.625 289.062 671
-109.375 265.625 701
-312.5 -437.5 2812
7.8125 273.438 687
-320.312 93.75 796
-445.312 -335.938 2212
-445.312 -218.75 1322
-46.875 -304.688 829
117.188 -109.375 762
-320.312 -437.5 2812
250 210.938 700
250 101.562 730
398.438 304.688 644
234.375 -320.312 2812
-31.25 437.5 773
195.312 304.688 666
-492.188 -421.875 2103
-281.25 -203.125 1283
-203.125 398.438 790
-406.25 242.188 805
-148.438 -93.75 713
-304.688 -390.625 2908
-335.938 70.3125 1007
148.438 367.188 739
-445.312 351.562 831
265.625 312.5 661
-304.688 62.5 817
125 -328.125 2908
-468.75 85.9375 789
156.25 -328.125 2883
-421.875 179.688 800
281.25 296.875 655
-468.75 257.812 845
-375 296.875 845
304.688 117.188 706
250 -320.312 2812
273.438 296.875 657
250 85.9375 731
398.438 320.312 642
-414.062 398.438 1013
-390.625 -39.0625 989
-289.062 -351.562 3037
-187.5 421.875 794
195.312 390.625 749
429.688 -296.875 2659
289.062 171.875 696
-453.125 390.625 1041
273.438 117.188 711
23.4375 273.438 684
-78.125 -156.25 701
-500 -398.438 2103
-414.062 -125 978
-406.25 -125 975
375 312.5 646
-289.062 -164.062 1241
-117.188 -31.25 747
-437.5 117.188 792
-78.125 -406.25 821
242.188 -320.312 2812
132.812 -328.125 2908
265.625 179.688 682
414.062 304.688 642
-320.312 -421.875 2835
-500 -445.312 2078
-304.688 -382.812 2933
-179.688 -62.5 734
-429.688 398.438 1031
-273.438 -203.125 1278
-320.312 -468.75 2723
164.062 -328.125 2859
-460.938 257.812 811
250 390.625 741
312.5 156.25 704
-140.625 -39.0625 746
23.4375 390.625 787
-468.75 -359.375 2170
-445.312 -218.75 1322
359.375 125 708
-492.188 226.562 827
-46.875 54.6875 798
343.75 335.938 666
343.75 164.062 720
31.25 -367.188 869
-296.875 -359.375 3010
-375 414.062 1016
382.812 320.312 644
-367.188 117.188 807
195.312 414.062 766
-429.688 -312.5 2286
-320.312 -429.688 2835
-367.188 31.25 817
-70.3125 -85.9375 713
-304.688 -398.438 2883
-421.875 125 789
-367.188 421.875 1013
-148.438 -148.438 706
-31.25 -117.188 696
-453.125 359.375 956
-195.312 -156.25 714
156.25 289.062 668
-437.5 -132.812 978
-101.562 -132.812 694
-398.438 250 803
476.562 312.5 635
-250 -343.75 3037
-320.312 -328.125 3010
296.875 312.5 653
-484.375 -398.438 2103
-484.375 -398.438 2103
-312.5 -367.188 2958
273.438 109.375 714
-437.5 -218.75 1328
-296.875 -351.562 3010
-367.188 148.438 817
-421.875 -281.25 2286
343.75 -304.688 2744
-273.438 -343.75 3064
-500 164.062 841
-273.438 7.8125 856
-445.312 -273.438 2349
-437.5 390.625 1019
390.625 320.312 642
429.688 312.5 637
453.125 312.5 636
328.125 -312.5 2744
171.875 296.875 667
-265.625 406.25 928
-70.3125 -39.0625 741
-296.875 -343.75 2984
-335.938 125 780
-296.875 46.875 825
218.75 -101.562 767
304.688 46.875 723
85.9375 281.25 676
-78.125 257.812 697
-492.188 257.812 869
-273.438 -351.562 3010
164.062 -289.062 2958
179.688 304.688 668
351.562 312.5 647
-320.312 429.688 1001
367.188 312.5 646
-296.875 -312.5 3064
-265.625 -203.125 1278
109.375 296.875 678
250 312.5 662
-429.688 -320.312 2286
-281.25 -351.562 3037
15.625 -289.062 845
320.312 -289.062 2812
7.8125 -335.938 843
351.562 -296.875 2744
320.312 -312.5 2767
492.188 312.5 629
-289.062 -320.312 3092
-453.125 -304.688 2271
460.938 312.5 636
203.125 -320.312 2835
164.062 -203.125 854
210.938 296.875 662
265.625 296.875 658
343.75 -39.0625 851
-445.312 -125 975
-257.812 -203.125 1278
-312.5 78.125 802
-375 39.0625 811
-78.125 7.8125 769
-312.5 -390.625 2908
-312.5 -398.438 2883
-296.875 -406.25 2908
-437.5 -257.812 2349
-304.688 -445.312 2835
257.812 218.75 696
-210.938 -101.562 714
187.5 -257.812 1067
257.812 171.875 682
-437.5 140.625 787
7.8125 0 761
70.3125 281.25 679
-312.5 -437.5 2812
7.8125 31.25 780
117.188 -265.625 805
0 437.5 767
-242.188 390.625 798
335.938 -304.688 2767
-281.25 15.625 849
375 -304.688 2723
-468.75 125 789
-359.375 171.875 752
-460.938 -406.25 2103
-359.375 -15.625 854
-304.688 -351.562 3010
-453.125 -312.5 2256
-429.688 -125 978
312.5 -312.5 2723
-382.812 234.375 809
140.625 406.25 773
281.25 179.688 691
-132.812 -234.375 871
-445.312 -281.25 2317
-78.125 -93.75 710
-437.5 -218.75 1328
-140.625 -31.25 750
281.25 -312.5 2789
-359.375 132.812 819
70.3125 23.4375 823
343.75 171.875 716
-429.688 -39.0625 995
-437.5 -39.0625 992
-351.562 156.25 817
-390.625 -125 973
-234.375 -351.562 3010
-289.062 -351.562 3037
-500 -117.188 967
-31.25 -23.4375 747
-359.375 23.4375 823
-132.812 85.9375 796
132.812 -117.188 759
-7.8125 0 762
85.9375 -54.6875 805
-304.688 -406.25 2883
-460.938 125 787
-179.688 31.25 794
250 304.688 658
-304.688 -421.875 2908
335.938 85.9375 711
437.5 -296.875 2680
484.375 -289.062 2579
-125 -23.4375 752
375 320.312 646
-304.688 -460.938 2789
-101.562 359.375 803
-351.562 -15.625 856
-242.188 429.688 973
-328.125 109.375 789
-304.688 -398.438 2883
-78.125 367.188 798
257.812 -320.312 2812
-429.688 -335.938 2256
-398.438 406.25 1019
-296.875 -359.375 3010
382.812 406.25 723
-171.875 54.6875 819
-414.062 -359.375 3208
156.25 382.812 754
281.25 156.25 706
-445.312 -218.75 1322
-312.5 -445.312 2789
-62.5 -101.562 704
-101.562 -101.562 704
-460.938 -335.938 2212
250 -320.312 2812
-476.562 -406.25 2116
-296.875 -320.312 3064
-250 -351.562 3037
125 -265.625 811
-429.688 -226.562 2398
382.812 -304.688 2723
-320.312 -468.75 2723
-476.562 234.375 821
-492.188 -335.938 3178
-242.188 -312.5 3120
-328.125 39.0625 978
-343.75 140.625 771
328.125 421.875 754
-367.188 187.5 807
-476.562 101.562 790
-31.25 -85.9375 713
382.812 304.688 646
-132.812 -15.625 759
445.312 304.688 641
-265.625 -351.562 3010
-7.8125 -117.188 696
-312.5 -382.812 2933
-210.938 -93.75 716
375 304.688 646
-414.062 -335.938 3238
-414.062 -335.938 3238
-296.875 -367.188 3010
-382.812 406.25 1007
-500 -414.062 2116
218.75 406.25 769
-460.938 -328.125 2226
-500 -335.938 3120
-31.25 -296.875 833
164.062 -328.125 2859
-257.812 -351.562 3010
-406.25 242.188 805
-226.562 -351.562 3010
-328.125 -375 2933
-390.625 406.25 1013
-242.188 -351.562 3010
-210.938 -351.562 2958
312.5 210.938 671
-304.688 -468.75 2789
-429.688 -218.75 1328
-421.875 -218.75 1317
-320.312 -335.938 3010
-46.875 265.625 694
-117.188 265.625 704
-453.125 -125 975
117.188 -250 821
179.688 -257.812 1070
148.438 289.062 670
335.938 -273.438 2835
-367.188 414.062 1013
421.875 312.5 640
-492.188 -328.125 3208
179.688 -328.125 2859
273.438 312.5 659
-320.312 -453.125 2789
-31.25 265.625 691
-359.375 -312.5 3238
-289.062 -367.188 3010
390.625 -304.688 2723
-312.5 -304.688 3092
171.875 304.688 671
265.625 203.125 686
398.438 304.688 644
-312.5 -453.125 2812
-312.5 -460.938 2812
406.25 304.688 643
453.125 445.312 733
-312.5 -406.25 2883
-445.312 93.75 794
320.312 78.125 710
304.688 210.938 671
-484.375 -335.938 2241
-367.188 -335.938 3238
-242.188 -335.938 3064
-203.125 -351.562 2958
335.938 125 714
-398.438 -132.812 978
-476.562 117.188 792
-15.625 -117.188 696
-125 -218.75 875
-195.312 -31.25 752
-367.188 -54.6875 908
-101.562 -31.25 747
-273.438 -351.562 3010
-203.125 -62.5 738
-484.375 -406.25 2116
-437.5 -351.562 2212
296.875 421.875 755
-46.875 -351.562 833
-453.125 -375 2156
304.688 70.3125 716
-203.125 -70.3125 727
-437.5 -31.25 987
-132.812 -7.8125 766
-429.688 390.625 1013
-218.75 -351.562 3010
-304.688 429.688 998
-468.75 -375 2156
62.5 -148.438 789
-242.188 -226.562 2908
-468.75 -406.25 2103
195.312 -257.812 1063
-250 -351.562 3037
-93.75 -31.25 747
-78.125 -54.6875 731
-460.938 359.375 973
39.0625 -226.562 889
-304.688 -414.062 2908
343.75 312.5 647
-281.25 -351.562 3037
-296.875 -414.062 2908
234.375 117.188 755
-406.25 398.438 1010
-164.062 -54.6875 736
101.562 289.062 675
-460.938 171.875 803
-421.875 398.438 1022
-398.438 -335.938 3238
-132.812 -335.938 854
171.875 -328.125 2883
-429.688 226.562 800
-320.312 -445.312 2789
-304.688 -390.625 2908
85.9375 -78.125 829
281.25 171.875 698
-304.688 -406.25 2883
39.0625 281.25 683
-343.75 -335.938 3208
273.438 -250 1057
-54.6875 445.312 776
-414.062 -78.125 989
-312.5 -398.438 2883
289.062 117.188 707
-484.375 117.188 794
-320.312 -437.5 2812
328.125 -312.5 2744
-23.4375 -23.4375 746
-234.375 -351.562 3010
-335.938 -335.938 3010
257.812 296.875 658
-390.625 -335.938 3238
-421.875 -335.938 3208
-343.75 421.875 1010
-226.562 -351.562 3010
-273.438 -375 2984
242.188 304.688 659
-453.125 -312.5 2256
-484.375 -31.25 978
335.938 171.875 716
-406.25 125 792
-414.062 -218.75 1307
-460.938 -343.75 2184
-437.5 -359.375 2184
-468.75 132.812 787
242.188 312.5 662
125 -304.688 2958
-500 -359.375 2016
-226.562 -218.75 2883
265.625 -320.312 2789
-367.188 210.938 738
-257.812 -351.562 3010
-375 46.875 809
218.75 296.875 661
-328.125 -335.938 3010
-460.938 -335.938 2212
-445.312 390.625 1034
289.062 304.688 655
-398.438 109.375 796
-484.375 257.812 841
-375 -335.938 3269
101.562 -335.938 2908
-406.25 406.25 1028
414.062 312.5 641
257.812 312.5 662
-289.062 -328.125 3092
-476.562 -335.938 2184
-429.688 -328.125 2256
-304.688 -359.375 2984
-312.5 -453.125 2812
203.125 296.875 663
-242.188 -343.75 3037
304.688 304.688 652
453.125 -296.875 2659
367.188 320.312 647
406.25 320.312 641
476.562 -148.438 933
-304.688 -367.188 2984
-296.875 -375 3010
-296.875 -367.188 3010
296.875 304.688 653
54.6875 -289.062 869
-375 156.25 811
-328.125 101.562 789
187.5 -257.812 1067
359.375 320.312 647
132.812 289.062 671
-414.062 242.188 805
-398.438 242.188 805
-359.375 15.625 833
351.562 320.312 647
421.875 -296.875 2659
-312.5 -468.75 2789
-492.188 218.75 829
-265.625 -351.562 3010
335.938 312.5 648
-257.812 -31.25 887
187.5 -328.125 2835
-437.5 -218.75 1328
-203.125 -351.562 2958
-406.25 -218.75 1307
-281.25 -367.188 3010
54.6875 -242.188 825
437.5 312.5 638
328.125 78.125 706
-296.875 -328.125 3010
-304.688 62.5 819
390.625 406.25 719
-367.188 226.562 738
-312.5 -429.688 2812
-367.188 187.5 746
-312.5 -445.312 2767
-242.188 -351.562 3010
-210.938 -351.562 2958
-453.125 -39.0625 989
-117.188 -304.688 841
-390.625 78.125 813
-289.062 -351.562 3010
-398.438 78.125 805
-445.312 -320.312 2256
148.438 445.312 750
382.812 78.125 749
-78.125 -31.25 742
-273.438 0 862
-164.062 54.6875 809
101.562 -78.125 803
-242.188 -203.125 1268
-445.312 117.188 792
109.375 -335.938 2908
