ply
format ascii 1.0
comment Created by Open3D
element vertex 2403
property double x
property double y
property double z
end_header
-218.75 70.3125 762
148.438 -101.562 635
-281.25 -203.125 948
-179.688 187.5 827
-93.75 179.688 701
31.25 257.812 657
476.562 -148.438 694
437.5 -203.125 894
367.188 -148.438 700
476.562 -31.25 638
-210.938 62.5 767
195.312 62.5 739
-320.312 -148.438 882
-273.438 -62.5 843
-265.625 -390.625 3037
429.688 -148.438 713
265.625 -289.062 736
148.438 -70.3125 652
-132.812 -31.25 813
-132.812 -109.375 847
-195.312 -382.812 1376
390.625 -109.375 739
203.125 0 710
-328.125 15.625 903
-54.6875 -132.812 1073
-132.812 140.625 720
367.188 -234.375 688
-484.375 -195.312 1189
-375 343.75 1722
460.938 234.375 581
-164.062 -54.6875 887
250 421.875 578
156.25 -187.5 644
195.312 -15.625 690
210.938 -273.438 761
54.6875 -226.562 672
-62.5 203.125 687
421.875 -109.375 734
437.5 -187.5 880
-93.75 -46.875 819
-85.9375 -54.6875 825
242.188 -70.3125 809
93.75 304.688 634
-265.625 70.3125 867
203.125 -382.812 757
-476.562 -31.25 1031
250 -132.812 854
-289.062 -109.375 851
-484.375 -46.875 1044
-195.312 -85.9375 843
179.688 375 600
-179.688 335.938 1483
414.062 335.938 603
367.188 -156.25 698
445.312 23.4375 687
-78.125 359.375 781
281.25 367.188 598
-312.5 -164.062 896
-296.875 171.875 901
304.688 375 595
-101.562 -156.25 998
23.4375 382.812 761
93.75 -195.312 650
421.875 -54.6875 700
-140.625 390.625 1433
382.812 -304.688 739
-226.562 -62.5 843
484.375 343.75 595
-367.188 312.5 1748
-328.125 7.8125 906
414.062 -242.188 776
210.938 -390.625 755
210.938 -265.625 762
437.5 -226.562 910
156.25 15.625 701
171.875 -335.938 776
390.625 320.312 590
242.188 -101.562 831
187.5 -382.812 774
-203.125 39.0625 778
-132.812 -15.625 805
-164.062 101.562 742
351.562 -148.438 703
421.875 -39.0625 635
234.375 -117.188 839
382.812 -70.3125 691
367.188 -164.062 698
171.875 -164.062 630
343.75 -93.75 707
-125 -117.188 851
-265.625 -78.125 851
-23.4375 -101.562 849
359.375 -148.438 700
468.75 203.125 588
-351.562 164.062 1483
-210.938 70.3125 764
23.4375 -132.812 684
351.562 -140.625 703
62.5 437.5 734
-312.5 31.25 871
382.812 -234.375 680
-289.062 -85.9375 856
226.562 -132.812 851
-109.375 -85.9375 1001
250 -164.062 875
335.938 23.4375 675
492.188 -140.625 688
-210.938 -85.9375 841
-343.75 31.25 913
-453.125 -406.25 2984
234.375 0 767
-304.688 31.25 867
414.062 -250 776
343.75 -125 731
429.688 312.5 590
-85.9375 -250 962
-164.062 -242.188 1025
351.562 -54.6875 650
445.312 -125 713
-382.812 132.812 1433
39.0625 265.625 652
179.688 -195.312 653
328.125 -179.688 710
242.188 406.25 585
-156.25 109.375 739
226.562 398.438 590
-62.5 -70.3125 833
367.188 304.688 593
-54.6875 195.312 691
343.75 -101.562 706
-218.75 54.6875 773
437.5 -210.938 898
-414.062 31.25 978
-265.625 203.125 887
-101.562 -70.3125 833
-156.25 -62.5 889
-406.25 406.25 1647
-242.188 -7.8125 860
195.312 -250 781
-304.688 -7.8125 867
-304.688 46.875 875
453.125 -39.0625 632
-367.188 242.188 1833
335.938 31.25 675
-421.875 31.25 984
-164.062 7.8125 792
-359.375 -468.75 3120
-117.188 -31.25 811
445.312 62.5 723
-320.312 -109.375 856
367.188 218.75 621
-242.188 -398.438 3092
-320.312 -15.625 875
-195.312 -23.4375 851
-125 -85.9375 933
7.8125 242.188 666
125 -54.6875 675
429.688 -164.062 711
179.688 -281.25 778
171.875 -312.5 776
-54.6875 -78.125 835
-296.875 39.0625 869
-109.375 -93.75 1001
-304.688 54.6875 875
414.062 -226.562 684
351.562 375 566
-234.375 -359.375 1349
203.125 -304.688 755
429.688 -46.875 697
421.875 234.375 591
-406.25 39.0625 975
-218.75 226.562 849
484.375 257.812 584
460.938 296.875 590
171.875 39.0625 710
39.0625 281.25 647
132.812 -46.875 674
335.938 351.562 571
437.5 296.875 594
257.812 421.875 579
460.938 320.312 581
203.125 -296.875 759
-218.75 -54.6875 841
-70.3125 -250 1189
328.125 320.312 588
-171.875 15.625 789
406.25 -187.5 698
-312.5 -23.4375 873
-289.062 -54.6875 845
23.4375 -164.062 662
-156.25 -406.25 1398
-250 7.8125 854
-304.688 156.25 901
-23.4375 273.438 717
320.312 -226.562 755
125 328.125 622
15.625 -132.812 688
226.562 -421.875 757
429.688 -54.6875 700
-226.562 -203.125 1034
-234.375 85.9375 773
39.0625 -210.938 663
-46.875 -85.9375 843
203.125 -7.8125 690
-312.5 23.4375 869
-312.5 -148.438 885
492.188 -351.562 2398
-328.125 23.4375 903
-125 156.25 714
-281.25 -187.5 943
-242.188 62.5 774
265.625 -148.438 864
-312.5 62.5 882
-203.125 242.188 843
195.312 -390.625 769
-78.125 -218.75 1157
492.188 -46.875 643
-101.562 -39.0625 817
382.812 375 590
-500 304.688 1748
46.875 -218.75 667
-203.125 -210.938 1034
85.9375 296.875 636
117.188 320.312 625
-390.625 289.062 1785
171.875 31.25 707
398.438 -210.938 691
445.312 -31.25 635
398.438 265.625 593
62.5 414.062 742
140.625 343.75 616
476.562 328.125 602
250 -140.625 856
218.75 414.062 585
-109.375 156.25 713
-437.5 203.125 1883
-250 -7.8125 860
15.625 -171.875 664
-296.875 -101.562 847
70.3125 289.062 642
-273.438 -31.25 841
62.5 -54.6875 711
-54.6875 -148.438 1087
-171.875 101.562 744
351.562 -78.125 708
273.438 -414.062 725
-70.3125 -164.062 1101
359.375 -171.875 697
-367.188 -273.438 1255
132.812 15.625 714
484.375 -109.375 682
-273.438 46.875 860
54.6875 273.438 648
210.938 390.625 593
164.062 414.062 638
-109.375 414.062 1404
-210.938 234.375 845
-265.625 -31.25 839
-132.812 -39.0625 819
257.812 437.5 573
359.375 -312.5 731
-140.625 -15.625 805
-70.3125 -281.25 1223
234.375 -93.75 827
-31.25 210.938 683
-492.188 -187.5 1177
-414.062 -242.188 1227
-273.438 -203.125 959
359.375 -23.4375 648
132.812 -117.188 631
-289.062 -187.5 933
-179.688 23.4375 785
343.75 328.125 588
468.75 -156.25 698
-70.3125 187.5 694
-54.6875 -93.75 845
62.5 39.0625 759
250 414.062 582
187.5 -265.625 781
-210.938 46.875 774
226.562 -437.5 769
-250 -257.812 1001
-78.125 296.875 805
-62.5 -78.125 835
367.188 312.5 593
23.4375 -171.875 661
375 -242.188 688
312.5 312.5 587
328.125 -398.438 733
453.125 -46.875 632
179.688 382.812 597
-54.6875 218.75 686
-164.062 -7.8125 803
242.188 -343.75 736
187.5 375 600
-382.812 382.812 1671
93.75 -15.625 719
484.375 -31.25 640
437.5 351.562 595
-54.6875 -101.562 849
-179.688 195.312 864
406.25 -195.312 694
-296.875 -179.688 915
54.6875 -226.562 672
-500 359.375 1696
-195.312 -234.375 1031
-250 -414.062 3120
351.562 -93.75 707
203.125 -359.375 755
421.875 -125 730
-140.625 -7.8125 802
429.688 -78.125 711
62.5 281.25 646
250 -132.812 854
39.0625 -179.688 652
406.25 -273.438 761
-218.75 -375 1365
179.688 437.5 641
23.4375 -156.25 667
-429.688 -421.875 2933
-148.438 117.188 734
-195.312 -296.875 1013
250 -156.25 869
320.312 460.938 561
460.938 226.562 581
7.8125 -125 698
-85.9375 -179.688 1031
-375 351.562 1713
31.25 -62.5 725
-304.688 -15.625 869
-257.812 -62.5 841
250 -203.125 790
445.312 218.75 586
117.188 -15.625 703
-273.438 -218.75 959
-265.625 -7.8125 862
343.75 -156.25 714
-132.812 -15.625 805
-78.125 -140.625 989
179.688 -343.75 767
421.875 -117.188 731
382.812 -109.375 739
-359.375 273.438 1794
210.938 -46.875 688
-132.812 250 835
-164.062 -46.875 887
31.25 -39.0625 744
367.188 382.812 588
437.5 -179.688 711
-281.25 -203.125 948
320.312 304.688 587
-304.688 46.875 875
-93.75 343.75 789
187.5 -273.438 776
-187.5 93.75 749
23.4375 -148.438 674
-39.0625 390.625 762
296.875 343.75 608
281.25 429.688 574
195.312 -367.188 761
101.562 -171.875 638
367.188 -304.688 733
70.3125 304.688 636
250 -117.188 841
343.75 -117.188 736
359.375 -70.3125 701
-195.312 -289.062 1013
-500 296.875 1766
-117.188 140.625 720
289.062 460.938 563
429.688 -46.875 697
-437.5 7.8125 998
257.812 -390.625 738
-140.625 -54.6875 823
226.562 -117.188 841
-335.938 -328.125 2883
179.688 -359.375 773
-140.625 -70.3125 954
171.875 -164.062 630
-335.938 -320.312 2789
210.938 -70.3125 670
125 453.125 723
335.938 335.938 579
453.125 265.625 585
437.5 257.812 586
492.188 -39.0625 643
-85.9375 -70.3125 835
-312.5 -140.625 878
421.875 -46.875 697
-375 164.062 1489
468.75 -85.9375 707
-218.75 23.4375 789
460.938 343.75 574
78.125 -398.438 2958
437.5 -218.75 906
289.062 -140.625 711
203.125 -70.3125 670
-140.625 -414.062 1410
375 328.125 590
445.312 54.6875 728
-289.062 -132.812 869
-437.5 -421.875 2984
218.75 -390.625 750
453.125 445.312 557
234.375 -445.312 767
-101.562 156.25 711
-218.75 -203.125 1034
-289.062 -328.125 1312
-351.562 234.375 1843
-265.625 -54.6875 841
-320.312 -468.75 3037
-218.75 62.5 769
-296.875 -46.875 845
179.688 -382.812 781
-312.5 -23.4375 873
492.188 242.188 583
-85.9375 398.438 1312
375 -54.6875 693
351.562 -132.812 703
85.9375 -140.625 644
31.25 -85.9375 708
382.812 -242.188 680
-156.25 -31.25 811
453.125 -93.75 720
39.0625 -468.75 2301
23.4375 -140.625 678
-273.438 195.312 889
382.812 -210.938 687
31.25 -78.125 714
320.312 -304.688 730
-39.0625 210.938 683
31.25 -390.625 2503
375 -78.125 696
406.25 -93.75 750
421.875 -281.25 774
-312.5 -453.125 3064
62.5 -382.812 2485
-117.188 -132.812 851
375 -93.75 703
-296.875 -31.25 880
-250 -250 1001
132.812 -54.6875 671
-460.938 -210.938 1193
-70.3125 -93.75 845
320.312 312.5 587
-273.438 -78.125 851
421.875 -101.562 738
-226.562 218.75 858
179.688 -250 800
-93.75 281.25 815
-328.125 23.4375 903
179.688 390.625 597
-148.438 125 730
226.562 -101.562 831
-359.375 281.25 1785
343.75 -101.562 706
39.0625 -421.875 2415
234.375 23.4375 757
-140.625 -101.562 841
-31.25 218.75 678
429.688 -156.25 711
312.5 -312.5 728
-101.562 -148.438 998
0 437.5 754
-320.312 -304.688 1283
-70.3125 -62.5 825
453.125 39.0625 736
-343.75 -312.5 2789
-117.188 -85.9375 1001
406.25 -132.812 733
226.562 39.0625 750
62.5 -429.688 2415
-304.688 -171.875 908
-218.75 -367.188 1359
-117.188 -93.75 1001
-320.312 46.875 885
-257.812 -343.75 1328
210.938 -62.5 666
-125 -23.4375 809
-296.875 54.6875 871
281.25 453.125 565
476.562 351.562 594
-101.562 -195.312 923
-500 289.062 1776
23.4375 -171.875 661
31.25 -23.4375 754
-179.688 -398.438 1387
468.75 343.75 597
101.562 -23.4375 707
-343.75 -289.062 1273
242.188 -46.875 796
-312.5 54.6875 880
-179.688 23.4375 785
-54.6875 -85.9375 843
-320.312 -15.625 875
-312.5 -7.8125 869
23.4375 -164.062 662
-218.75 -54.6875 841
-375 -15.625 1007
101.562 -93.75 663
171.875 -328.125 778
367.188 -62.5 698
109.375 312.5 630
-109.375 -85.9375 1001
31.25 -54.6875 733
187.5 -281.25 773
-367.188 -460.938 3149
-46.875 398.438 774
23.4375 -179.688 658
265.625 -382.812 733
-335.938 359.375 1688
312.5 -273.438 736
-109.375 -132.812 992
-367.188 -85.9375 1063
-148.438 -54.6875 896
-187.5 -85.9375 858
-101.562 164.062 708
429.688 -70.3125 706
296.875 453.125 565
437.5 265.625 594
-312.5 242.188 1601
-39.0625 -85.9375 843
-62.5 -70.3125 833
484.375 -70.3125 690
117.188 -132.812 632
70.3125 -31.25 720
320.312 382.812 590
367.188 320.312 593
382.812 -203.125 691
101.562 -195.312 649
445.312 0 642
-93.75 0 792
70.3125 351.562 679
359.375 335.938 588
-257.812 -250 989
-164.062 -93.75 841
437.5 195.312 596
179.688 -203.125 653
257.812 -179.688 798
85.9375 -7.8125 730
382.812 -226.562 680
218.75 -281.25 754
-398.438 210.938 1883
429.688 -148.438 713
39.0625 -210.938 663
429.688 -140.625 717
-351.562 -312.5 2789
-242.188 -281.25 1010
-203.125 -296.875 1013
375 -226.562 686
46.875 -210.938 662
101.562 -187.5 646
46.875 -117.188 678
437.5 -195.312 887
218.75 -320.312 746
398.438 242.188 606
-203.125 -218.75 1034
250 -125 845
7.8125 242.188 666
421.875 -218.75 686
367.188 -101.562 703
382.812 -85.9375 691
-281.25 -328.125 1312
-70.3125 -78.125 835
250 -117.188 841
-70.3125 179.688 697
-281.25 -46.875 843
250 -437.5 733
-125 -117.188 851
171.875 -171.875 635
414.062 -265.625 783
453.125 -31.25 632
382.812 359.375 595
39.0625 0 771
195.312 -250 781
-132.812 -70.3125 964
-242.188 -62.5 841
109.375 -195.312 649
-242.188 -164.062 1004
312.5 -171.875 710
164.062 351.562 610
-46.875 414.062 1283
-62.5 -273.438 1210
218.75 -46.875 688
218.75 -414.062 764
187.5 39.0625 710
-234.375 -406.25 3092
-359.375 109.375 948
-195.312 -210.938 1034
-195.312 -39.0625 841
359.375 -406.25 747
-101.562 -39.0625 817
-296.875 93.75 933
375 -156.25 700
-7.8125 -156.25 686
-273.438 7.8125 856
328.125 -312.5 728
-164.062 148.438 752
-109.375 -31.25 811
429.688 210.938 594
-375 -31.25 1019
-289.062 -187.5 933
-187.5 31.25 781
148.438 7.8125 698
-304.688 -46.875 845
-250 -273.438 1004
382.812 -218.75 680
273.438 -54.6875 755
-320.312 343.75 1713
-500 250 1823
437.5 -179.688 711
289.062 -70.3125 682
273.438 429.688 575
148.438 -101.562 635
39.0625 -429.688 2415
414.062 -218.75 686
-179.688 -390.625 1387
31.25 265.625 655
-484.375 164.062 1947
39.0625 414.062 746
-492.188 -187.5 1177
-203.125 312.5 1509
-242.188 -351.562 1333
-93.75 -171.875 1034
-265.625 -218.75 967
-132.812 -78.125 964
-289.062 -78.125 854
140.625 -93.75 642
-250 -148.438 995
-257.812 -421.875 3208
382.812 -234.375 680
-296.875 -351.562 2908
-296.875 -62.5 849
343.75 468.75 556
250 -109.375 835
-242.188 -218.75 1022
406.25 -125 736
453.125 296.875 590
-476.562 -390.625 2984
101.562 -15.625 711
-210.938 70.3125 764
437.5 -203.125 894
-109.375 -125 992
-62.5 -265.625 1202
414.062 281.25 592
39.0625 -203.125 661
-171.875 234.375 843
39.0625 15.625 773
296.875 -343.75 728
367.188 328.125 589
-101.562 -125 992
406.25 -343.75 752
-304.688 31.25 867
101.562 -62.5 686
132.812 62.5 742
351.562 343.75 572
-195.312 -85.9375 843
445.312 -289.062 2503
-367.188 -273.438 1255
-234.375 -46.875 839
-312.5 -156.25 891
234.375 -343.75 738
203.125 -398.438 767
-179.688 203.125 860
101.562 -156.25 635
31.25 -93.75 703
0 -117.188 708
429.688 226.562 590
-109.375 148.438 716
218.75 -195.312 819
273.438 -250 746
23.4375 -187.5 658
226.562 -195.312 815
203.125 382.812 596
367.188 -85.9375 701
460.938 226.562 581
-46.875 -101.562 849
-468.75 -203.125 1193
-179.688 -46.875 880
31.25 257.812 657
-125 320.312 803
429.688 -132.812 722
140.625 335.938 619
359.375 -132.812 701
-164.062 -39.0625 811
-62.5 -101.562 849
-203.125 -93.75 835
-312.5 -101.562 849
-62.5 335.938 785
-414.062 -242.188 1227
-62.5 -257.812 1197
437.5 -171.875 711
210.938 -31.25 683
-304.688 -312.5 1292
289.062 351.562 604
101.562 445.312 728
210.938 -406.25 767
445.312 -296.875 2579
-140.625 312.5 811
-31.25 210.938 683
460.938 -46.875 632
-382.812 390.625 1663
234.375 406.25 586
-226.562 -281.25 1013
429.688 -39.0625 636
-304.688 46.875 875
414.062 -328.125 759
242.188 -31.25 787
117.188 -54.6875 678
-39.0625 203.125 687
187.5 -375 769
-156.25 -23.4375 809
375 265.625 595
-226.562 85.9375 766
359.375 328.125 589
-62.5 -46.875 817
406.25 -210.938 687
78.125 296.875 638
23.4375 -179.688 658
0 234.375 670
-78.125 -210.938 1145
-226.562 289.062 1529
320.312 468.75 557
-500 265.625 1813
445.312 257.812 584
-304.688 -468.75 3037
-23.4375 429.688 1322
304.688 468.75 559
-156.25 7.8125 792
484.375 -31.25 640
93.75 39.0625 755
398.438 -101.562 749
445.312 -218.75 906
-226.562 23.4375 785
140.625 15.625 710
-195.312 39.0625 776
445.312 -210.938 898
429.688 250 587
-203.125 23.4375 787
421.875 -242.188 925
-101.562 -93.75 1001
101.562 -46.875 693
-7.8125 234.375 670
406.25 -109.375 744
-281.25 -31.25 841
328.125 468.75 557
-203.125 -85.9375 841
-70.3125 -70.3125 831
265.625 -179.688 800
312.5 -296.875 730
-257.812 132.812 906
-281.25 234.375 1594
398.438 -273.438 755
-70.3125 -234.375 1169
0 421.875 749
-101.562 359.375 794
-265.625 -70.3125 847
421.875 -109.375 734
85.9375 -23.4375 717
421.875 -93.75 742
406.25 -117.188 739
-187.5 85.9375 752
148.438 -109.375 629
-265.625 -46.875 841
31.25 -85.9375 708
-171.875 289.062 827
414.062 257.812 597
187.5 -265.625 781
203.125 15.625 727
-320.312 -148.438 882
406.25 -203.125 690
93.75 -187.5 646
39.0625 -7.8125 762
296.875 445.312 568
187.5 -367.188 767
-234.375 7.8125 851
109.375 320.312 625
406.25 -218.75 684
390.625 359.375 595
437.5 335.938 581
242.188 -23.4375 781
-195.312 85.9375 754
445.312 -46.875 700
375 320.312 594
-78.125 171.875 703
-93.75 164.062 707
-226.562 -289.062 1010
460.938 304.688 586
351.562 -85.9375 708
-242.188 -265.625 1013
-304.688 -156.25 898
-320.312 -7.8125 873
-85.9375 -156.25 1001
-242.188 -140.625 987
429.688 -242.188 925
-39.0625 -85.9375 843
-101.562 -148.438 998
414.062 -210.938 686
-203.125 -375 1365
453.125 273.438 591
46.875 -179.688 650
375 -70.3125 696
375 -15.625 641
-390.625 -445.312 3092
-343.75 -70.3125 1050
-500 273.438 1794
359.375 -70.3125 701
-78.125 -54.6875 825
-187.5 7.8125 794
-125 -62.5 827
93.75 304.688 634
-257.812 398.438 1655
468.75 242.188 581
-187.5 -210.938 1034
359.375 -164.062 698
437.5 242.188 585
109.375 -15.625 708
226.562 -351.562 741
-359.375 281.25 1785
-109.375 -78.125 1034
234.375 -351.562 738
-148.438 -93.75 841
234.375 -437.5 767
414.062 -218.75 686
390.625 265.625 593
328.125 367.188 571
-117.188 148.438 716
132.812 -125 629
39.0625 0 771
62.5 23.4375 769
148.438 367.188 607
429.688 -46.875 697
101.562 -195.312 649
78.125 -125 657
304.688 -257.812 739
273.438 -359.375 730
218.75 453.125 613
-85.9375 187.5 697
-257.812 -375 2984
-156.25 -93.75 841
312.5 -304.688 730
54.6875 -351.562 2560
414.062 -78.125 711
351.562 -156.25 704
179.688 -351.562 771
484.375 257.812 584
-296.875 -39.0625 845
437.5 -171.875 711
-148.438 0 796
-367.188 242.188 1833
-218.75 -367.188 1359
-179.688 101.562 746
-226.562 242.188 862
429.688 -125 725
250 -289.062 738
234.375 31.25 752
-117.188 -23.4375 807
375 234.375 619
390.625 -281.25 747
-257.812 -7.8125 862
242.188 437.5 577
-187.5 -296.875 1013
179.688 -7.8125 678
-453.125 -296.875 2859
304.688 328.125 588
250 -367.188 734
398.438 281.25 590
359.375 -140.625 701
398.438 343.75 601
-273.438 -195.312 964
296.875 437.5 570
242.188 -195.312 798
320.312 23.4375 676
-367.188 320.312 1739
78.125 -132.812 653
-218.75 -85.9375 841
210.938 62.5 738
437.5 70.3125 719
226.562 398.438 590
-140.625 -62.5 948
-234.375 93.75 781
-23.4375 218.75 678
343.75 -148.438 717
132.812 23.4375 719
-335.938 -78.125 1050
-250 -265.625 998
31.25 -117.188 690
351.562 304.688 599
156.25 -164.062 630
39.0625 -460.938 2317
-117.188 -125 851
-281.25 -328.125 1312
468.75 187.5 664
226.562 -445.312 769
23.4375 367.188 769
367.188 -140.625 700
-93.75 -203.125 925
250 -93.75 825
210.938 -39.0625 687
476.562 203.125 589
375 351.562 600
289.062 -250 744
-312.5 78.125 940
-140.625 -445.312 3178
-320.312 -140.625 878
375 382.812 587
351.562 -125 704
406.25 -15.625 637
78.125 -31.25 717
453.125 -31.25 632
-453.125 -406.25 2984
-46.875 203.125 687
-210.938 23.4375 789
-375 359.375 1688
414.062 -62.5 701
-328.125 -296.875 1278
-445.312 -218.75 1206
242.188 -15.625 778
164.062 359.375 607
398.438 -109.375 741
-156.25 -54.6875 891
382.812 -171.875 700
406.25 -187.5 698
-226.562 93.75 773
437.5 -78.125 713
-375 351.562 1713
-171.875 -93.75 841
46.875 265.625 652
31.25 -132.812 680
-156.25 7.8125 792
234.375 -171.875 880
328.125 375 572
132.812 328.125 622
234.375 -429.688 764
-101.562 -140.625 995
-125 -78.125 964
289.062 -226.562 757
148.438 343.75 614
437.5 -156.25 708
-78.125 -273.438 975
382.812 -179.688 697
-62.5 -273.438 1210
250 -101.562 831
-234.375 78.125 769
359.375 390.625 585
179.688 -289.062 774
281.25 15.625 761
390.625 242.188 609
-101.562 -62.5 827
39.0625 -437.5 2381
-164.062 -398.438 1392
93.75 0 730
-164.062 218.75 851
242.188 -140.625 856
335.938 -179.688 716
445.312 -203.125 891
-312.5 -156.25 891
-203.125 -257.812 1022
-304.688 -7.8125 867
-429.688 -421.875 2933
414.062 -203.125 690
343.75 31.25 710
-179.688 -289.062 1013
39.0625 -445.312 2365
250 414.062 582
320.312 453.125 563
429.688 -54.6875 700
-421.875 -234.375 1223
226.562 -93.75 827
421.875 265.625 595
242.188 -85.9375 819
-281.25 -195.312 943
132.812 15.625 714
-351.562 179.688 1509
-156.25 117.188 734
-242.188 -351.562 1333
265.625 429.688 576
390.625 281.25 590
437.5 -164.062 708
250 -148.438 860
109.375 -85.9375 662
-179.688 93.75 747
257.812 -140.625 858
226.562 437.5 588
406.25 -171.875 708
31.25 -125 683
-46.875 382.812 769
218.75 -414.062 764
-468.75 -23.4375 1028
-195.312 -70.3125 849
-101.562 171.875 704
429.688 335.938 602
414.062 -70.3125 707
-492.188 257.812 1823
296.875 335.938 590
156.25 -148.438 624
195.312 375 600
-328.125 140.625 923
-335.938 203.125 1579
-46.875 -78.125 835
-203.125 70.3125 762
-7.8125 -109.375 717
187.5 -289.062 769
351.562 -359.375 731
-359.375 257.812 1813
250 -406.25 741
406.25 281.25 590
-500 -179.688 1173
218.75 398.438 590
-70.3125 296.875 805
-70.3125 -62.5 825
54.6875 273.438 648
-109.375 -31.25 811
343.75 -109.375 742
-257.812 -250 989
382.812 -187.5 693
304.688 -171.875 878
-289.062 265.625 1564
492.188 -31.25 643
7.8125 312.5 720
-195.312 39.0625 776
281.25 -359.375 730
367.188 -156.25 698
-187.5 -78.125 854
257.812 -15.625 778
-242.188 -359.375 1349
-281.25 -367.188 2958
468.75 39.0625 734
117.188 320.312 625
-335.938 -304.688 1283
-226.562 -406.25 3092
195.312 7.8125 701
-500 304.688 1748
195.312 46.875 749
171.875 -164.062 630
320.312 -406.25 723
367.188 390.625 585
359.375 367.188 567
492.188 312.5 606
39.0625 -31.25 744
-304.688 -164.062 906
375 226.562 620
414.062 -210.938 686
437.5 -195.312 887
-203.125 46.875 773
15.625 250 661
39.0625 406.25 747
-148.438 -46.875 823
-54.6875 -85.9375 843
-304.688 -312.5 1292
304.688 -281.25 733
250 -210.938 780
289.062 445.312 569
390.625 -7.8125 638
-85.9375 164.062 706
226.562 -132.812 851
62.5 7.8125 754
445.312 -31.25 635
62.5 -226.562 672
367.188 -78.125 700
203.125 -406.25 774
468.75 320.312 607
335.938 -398.438 734
-242.188 -390.625 3092
171.875 359.375 607
234.375 -242.188 762
234.375 -78.125 815
31.25 -101.562 698
445.312 -210.938 898
-23.4375 242.188 671
-148.438 132.812 727
-62.5 -257.812 1197
414.062 -203.125 690
445.312 187.5 594
468.75 234.375 581
359.375 -148.438 700
85.9375 -281.25 1210
-109.375 164.062 708
250 -242.188 755
-140.625 125 728
187.5 375 600
-70.3125 -234.375 1169
-125 -203.125 918
-101.562 328.125 794
-164.062 15.625 790
257.812 -156.25 869
-93.75 289.062 811
203.125 78.125 730
-351.562 -281.25 1264
156.25 -132.812 621
203.125 -390.625 762
-304.688 0 864
250 -85.9375 819
429.688 -78.125 711
421.875 -382.812 2541
453.125 62.5 722
-210.938 -70.3125 845
250 -437.5 733
-320.312 46.875 885
218.75 54.6875 741
-500 281.25 1785
203.125 -242.188 780
7.8125 242.188 666
-117.188 -85.9375 1001
-289.062 0 858
484.375 -148.438 691
-187.5 -46.875 841
382.812 -195.312 686
312.5 453.125 564
390.625 375 589
437.5 23.4375 680
164.062 -179.688 638
-164.062 -7.8125 803
398.438 460.938 556
-101.562 -117.188 992
460.938 23.4375 690
359.375 375 591
210.938 -273.438 761
-320.312 0 871
-46.875 -125 858
218.75 -250 767
31.25 -132.812 680
406.25 -101.562 746
375 -85.9375 698
-226.562 -359.375 1349
-85.9375 -187.5 1031
-359.375 289.062 1785
429.688 -132.812 722
-328.125 -320.312 1283
-85.9375 -226.562 943
351.562 351.562 568
195.312 -382.812 761
-367.188 289.062 1785
421.875 -101.562 738
195.312 0 701
296.875 460.938 564
-132.812 -101.562 841
445.312 -273.438 2503
-250 -414.062 3120
429.688 -117.188 728
62.5 281.25 646
-500 312.5 1748
31.25 -117.188 690
437.5 -179.688 711
-39.0625 257.812 711
0 234.375 670
-93.75 -62.5 827
445.312 -218.75 906
156.25 390.625 614
-281.25 210.938 1609
312.5 -289.062 731
-179.688 -85.9375 860
-93.75 210.938 722
-78.125 -203.125 1138
-312.5 164.062 903
-351.562 -468.75 3178
343.75 -179.688 700
-359.375 210.938 1873
-210.938 54.6875 773
-382.812 351.562 1713
101.562 -179.688 642
187.5 -367.188 767
-125 132.812 723
-54.6875 375 773
289.062 -375 730
335.938 367.188 569
62.5 -203.125 658
164.062 -62.5 648
-320.312 -7.8125 873
187.5 -7.8125 678
-62.5 -250 1185
-281.25 -85.9375 849
-273.438 -210.938 959
-54.6875 -78.125 835
-437.5 31.25 989
-351.562 117.188 930
328.125 304.688 601
257.812 -164.062 875
39.0625 31.25 766
62.5 31.25 766
-85.9375 -148.438 998
-218.75 -46.875 841
-406.25 -437.5 3064
281.25 -414.062 723
-257.812 -226.562 989
-234.375 -398.438 3092
-351.562 414.062 1632
265.625 421.875 578
54.6875 -171.875 648
-289.062 -23.4375 875
31.25 -140.625 676
-429.688 15.625 992
-93.75 -210.938 925
-289.062 -31.25 845
125 -140.625 629
296.875 -296.875 730
164.062 -156.25 627
-85.9375 -46.875 819
406.25 -273.438 761
398.438 -281.25 754
429.688 -31.25 636
226.562 -421.875 757
-265.625 -335.938 1317
-210.938 62.5 767
382.812 210.938 622
-54.6875 -70.3125 833
-226.562 -70.3125 843
234.375 -437.5 767
218.75 -85.9375 664
-140.625 140.625 722
234.375 398.438 588
429.688 -171.875 714
-445.312 -414.062 3010
-203.125 -375 1365
390.625 296.875 588
-265.625 -226.562 973
132.812 -54.6875 671
-218.75 -265.625 1019
-265.625 -453.125 3120
-210.938 85.9375 757
328.125 -226.562 755
156.25 -93.75 637
437.5 -148.438 708
-62.5 -85.9375 843
-179.688 281.25 829
-140.625 -93.75 841
39.0625 -39.0625 739
421.875 -234.375 920
351.562 -132.812 703
23.4375 257.812 657
359.375 -125 703
148.438 359.375 607
296.875 -335.938 727
-304.688 164.062 903
23.4375 -23.4375 759
304.688 445.312 568
117.188 335.938 620
375 39.0625 698
-234.375 -179.688 1016
-62.5 -140.625 1080
492.188 257.812 610
367.188 -359.375 734
-125 -15.625 805
-265.625 -62.5 843
156.25 -156.25 627
-312.5 -140.625 878
-164.062 -62.5 889
187.5 367.188 603
429.688 -46.875 697
-265.625 -398.438 3120
265.625 -31.25 738
460.938 -93.75 711
242.188 406.25 585
101.562 -195.312 649
445.312 312.5 586
398.438 -62.5 706
484.375 250 582
-343.75 195.312 1543
54.6875 -218.75 667
250 -78.125 815
-109.375 -70.3125 829
218.75 -328.125 744
429.688 -140.625 717
39.0625 -453.125 2349
-289.062 -70.3125 851
-289.062 -335.938 1322
-187.5 101.562 747
-304.688 -23.4375 871
414.062 -195.312 694
343.75 -218.75 696
-78.125 406.25 1343
179.688 -343.75 767
476.562 257.812 582
460.938 -39.0625 632
-289.062 -179.688 933
-46.875 -117.188 858
351.562 -117.188 706
375 -164.062 698
226.562 -203.125 800
375 -62.5 693
70.3125 -335.938 1259
-117.188 265.625 825
445.312 -281.25 2503
-367.188 328.125 1731
31.25 -148.438 670
-320.312 226.562 1609
-320.312 -335.938 2883
210.938 -312.5 750
-31.25 210.938 683
414.062 -203.125 690
140.625 -117.188 629
85.9375 -46.875 701
359.375 359.375 567
109.375 -195.312 649
210.938 -7.8125 710
-382.812 85.9375 954
-15.625 226.562 674
-203.125 46.875 773
242.188 414.062 583
-78.125 -101.562 851
195.312 -367.188 761
289.062 -320.312 728
-62.5 -156.25 1094
-140.625 351.562 1464
-304.688 -164.062 906
62.5 -226.562 672
-312.5 -109.375 851
-117.188 140.625 720
-164.062 -31.25 811
265.625 -281.25 739
-70.3125 -226.562 1165
421.875 257.812 597
257.812 -23.4375 783
195.312 39.0625 749
-46.875 -140.625 1080
-109.375 -109.375 992
-281.25 -195.312 943
-109.375 -117.188 992
-164.062 -398.438 1392
78.125 289.062 641
-156.25 -15.625 805
-46.875 226.562 682
179.688 -351.562 771
257.812 -140.625 858
-46.875 195.312 688
-46.875 -93.75 845
-343.75 421.875 1624
-187.5 -85.9375 858
437.5 -156.25 708
31.25 -125 683
250 -70.3125 811
-257.812 -132.812 862
351.562 -218.75 691
226.562 -296.875 747
328.125 -343.75 727
-62.5 -78.125 835
281.25 -78.125 686
-85.9375 -93.75 849
-70.3125 -23.4375 803
39.0625 -54.6875 723
-70.3125 -125 989
117.188 -195.312 650
140.625 335.938 619
-101.562 -140.625 995
-289.062 -320.312 1302
414.062 -78.125 711
382.812 382.812 586
-164.062 -15.625 807
31.25 -70.3125 719
-414.062 -429.688 3064
257.812 -335.938 731
-93.75 -39.0625 815
382.812 -148.438 723
-500 296.875 1766
-320.312 -93.75 849
445.312 335.938 578
-187.5 -382.812 1376
-351.562 -78.125 1054
46.875 -210.938 662
406.25 -351.562 754
476.562 0 642
-132.812 148.438 717
125 335.938 619
0 0 785
257.812 -429.688 730
250 -62.5 805
-234.375 -171.875 1010
367.188 -289.062 734
382.812 -171.875 700
351.562 -125 704
-312.5 -15.625 871
242.188 -375 736
226.562 -335.938 741
-46.875 -109.375 854
-195.312 23.4375 787
335.938 -148.438 713
148.438 -23.4375 680
375 -54.6875 693
132.812 -171.875 636
179.688 -164.062 630
195.312 -375 761
-250 -242.188 1001
-15.625 -101.562 723
406.25 -62.5 701
-382.812 398.438 1655
-234.375 85.9375 773
-39.0625 203.125 687
39.0625 -46.875 733
203.125 46.875 747
429.688 -125 725
-117.188 -23.4375 807
-101.562 -179.688 903
-140.625 -296.875 1004
-7.8125 226.562 672
93.75 -140.625 641
437.5 -46.875 698
453.125 281.25 597
-210.938 -62.5 843
-46.875 -46.875 817
-289.062 -7.8125 860
-328.125 -296.875 1278
-117.188 -101.562 998
-164.062 -296.875 1010
382.812 281.25 590
468.75 335.938 600
-234.375 -156.25 998
351.562 328.125 589
-210.938 70.3125 764
-218.75 85.9375 761
375 -148.438 700
226.562 46.875 746
-304.688 85.9375 935
-210.938 54.6875 773
-265.625 -210.938 967
179.688 -335.938 767
-382.812 -31.25 1019
382.812 -226.562 680
-257.812 -242.188 989
-242.188 -148.438 992
179.688 -117.188 616
-70.3125 304.688 802
179.688 -195.312 653
54.6875 -218.75 667
31.25 -132.812 680
351.562 250 643
234.375 -93.75 827
226.562 -39.0625 790
-210.938 304.688 1516
125 46.875 742
195.312 -257.812 780
-46.875 -125 858
-117.188 -367.188 1333
421.875 289.062 593
390.625 -367.188 747
-179.688 7.8125 794
242.188 -93.75 825
-54.6875 -140.625 1080
367.188 -125 701
171.875 -171.875 635
242.188 0 767
-46.875 -39.0625 811
-273.438 -375 3010
-7.8125 242.188 667
93.75 46.875 750
101.562 312.5 631
429.688 304.688 593
-500 320.312 1748
187.5 -273.438 776
437.5 296.875 594
-242.188 -132.812 860
85.9375 -164.062 640
359.375 -78.125 703
421.875 -226.562 913
289.062 437.5 570
-85.9375 171.875 703
-250 85.9375 783
312.5 343.75 581
-281.25 -179.688 946
171.875 -179.688 640
-164.062 15.625 790
257.812 -132.812 851
164.062 351.562 610
-179.688 -296.875 1013
351.562 -93.75 707
375 218.75 620
-125 -117.188 851
7.8125 390.625 759
-148.438 -296.875 1007
382.812 -218.75 680
320.312 -171.875 710
328.125 382.812 590
-195.312 78.125 755
398.438 -39.0625 636
-39.0625 328.125 790
-117.188 -117.188 851
335.938 375 569
101.562 304.688 632
367.188 -148.438 700
-476.562 -195.312 1189
-281.25 351.562 1705
54.6875 -195.312 655
414.062 -195.312 694
-320.312 375 1671
359.375 273.438 599
-281.25 -15.625 867
-281.25 -85.9375 849
-23.4375 -23.4375 802
-70.3125 -15.625 798
148.438 15.625 706
312.5 460.938 562
-117.188 406.25 1415
-78.125 171.875 703
367.188 -179.688 696
-265.625 382.812 1671
367.188 234.375 623
468.75 234.375 581
375 -156.25 700
242.188 -125 847
320.312 -187.5 798
39.0625 -468.75 2301
171.875 -156.25 625
31.25 -148.438 670
414.062 -187.5 694
109.375 -85.9375 662
-492.188 -31.25 1057
234.375 -421.875 754
335.938 468.75 557
-70.3125 179.688 697
218.75 -367.188 746
367.188 335.938 589
234.375 -210.938 789
-46.875 -132.812 1073
375 312.5 593
-226.562 -367.188 1359
359.375 -117.188 704
382.812 234.375 615
-304.688 -31.25 875
-320.312 -132.812 873
445.312 -203.125 891
-304.688 -101.562 849
-406.25 210.938 1883
210.938 70.3125 734
39.0625 -62.5 720
460.938 296.875 590
46.875 -117.188 678
140.625 -46.875 671
-54.6875 312.5 796
179.688 -296.875 773
460.938 -367.188 2541
-62.5 -70.3125 833
210.938 406.25 588
109.375 312.5 630
250 -54.6875 800
-164.062 -93.75 841
414.062 -93.75 747
7.8125 -445.312 3149
140.625 398.438 646
-179.688 -210.938 1034
-179.688 -210.938 1034
445.312 -187.5 880
367.188 -257.812 691
-296.875 328.125 1739
195.312 -328.125 759
-367.188 187.5 1572
7.8125 429.688 744
351.562 -109.375 706
-117.188 148.438 716
-304.688 -23.4375 871
460.938 -39.0625 632
-234.375 398.438 1655
-234.375 -257.812 1019
-226.562 -46.875 839
-281.25 109.375 920
195.312 -382.812 761
85.9375 296.875 636
328.125 -320.312 727
460.938 46.875 730
-445.312 -218.75 1206
-78.125 -187.5 1031
70.3125 289.062 642
78.125 -39.0625 713
-62.5 -250 1185
-109.375 156.25 713
78.125 320.312 634
-296.875 -93.75 849
-148.438 -406.25 1404
242.188 7.8125 766
179.688 -164.062 630
367.188 -132.812 701
421.875 -93.75 742
-101.562 -132.812 992
-250 -125 860
-78.125 125 725
-31.25 -382.812 1333
-23.4375 398.438 759
382.812 -132.812 728
-320.312 15.625 871
421.875 -250 776
-375 171.875 1915
-265.625 179.688 882
429.688 -109.375 731
367.188 -70.3125 698
-179.688 179.688 827
-109.375 296.875 809
-296.875 54.6875 871
-257.812 -218.75 989
-179.688 -85.9375 860
-500 328.125 1731
375 257.812 598
-296.875 -171.875 915
382.812 -210.938 687
460.938 -46.875 632
210.938 -296.875 754
-93.75 -156.25 1001
31.25 -164.062 661
445.312 -195.312 885
-328.125 -85.9375 1063
234.375 406.25 586
109.375 -15.625 708
39.0625 382.812 761
-46.875 -375 1333
-250 265.625 1557
-62.5 -62.5 827
234.375 -445.312 767
-210.938 -31.25 843
125 -125 632
375 -234.375 687
437.5 -140.625 711
-31.25 -78.125 835
-281.25 -23.4375 867
359.375 -257.812 691
-265.625 -335.938 1317
242.188 -429.688 734
-375 78.125 946
-320.312 -117.188 858
-218.75 -62.5 843
-257.812 -367.188 2984
445.312 250 583
390.625 -109.375 739
54.6875 406.25 747
-148.438 117.188 734
62.5 -15.625 738
375 328.125 590
-312.5 -23.4375 873
320.312 -250 744
-132.812 -101.562 841
195.312 -390.625 769
-382.812 -101.562 1077
-140.625 132.812 725
-320.312 0 871
367.188 328.125 589
257.812 -125 845
359.375 343.75 573
-171.875 -85.9375 841
437.5 -46.875 698
-132.812 -203.125 1025
-46.875 -140.625 1080
-23.4375 -93.75 843
-296.875 -54.6875 847
210.938 0 710
-234.375 -62.5 843
-468.75 -203.125 1193
304.688 -335.938 727
375 289.062 590
203.125 -390.625 762
359.375 -140.625 701
-125 -31.25 813
429.688 -85.9375 714
-78.125 -195.312 1034
218.75 -54.6875 803
-210.938 70.3125 764
265.625 -320.312 730
460.938 304.688 586
-179.688 31.25 781
-257.812 -78.125 851
265.625 -195.312 792
382.812 -320.312 739
429.688 -101.562 733
242.188 15.625 761
-398.438 7.8125 989
484.375 328.125 601
468.75 226.562 582
-289.062 -179.688 933
7.8125 -117.188 706
-156.25 -187.5 1013
-296.875 -164.062 915
-281.25 -187.5 943
117.188 -85.9375 659
406.25 343.75 601
85.9375 -101.562 666
-46.875 -117.188 858
-351.562 226.562 1853
375 320.312 594
31.25 -171.875 657
-46.875 203.125 687
-226.562 -187.5 1022
-351.562 203.125 1586
39.0625 -78.125 710
-359.375 289.062 1785
296.875 -328.125 727
-421.875 -421.875 3037
257.812 -421.875 730
-62.5 304.688 802
242.188 -320.312 734
289.062 -148.438 860
-320.312 39.0625 887
195.312 -351.562 759
226.562 -78.125 813
-304.688 -148.438 889
39.0625 -54.6875 723
484.375 250 582
31.25 -179.688 655
437.5 -164.062 708
390.625 -85.9375 690
-351.562 242.188 1833
-437.5 -320.312 2883
-312.5 -15.625 871
39.0625 -70.3125 714
414.062 250 601
-46.875 -109.375 854
-54.6875 195.312 691
-218.75 -46.875 841
-226.562 -359.375 1349
-117.188 -109.375 851
179.688 -328.125 767
-320.312 46.875 885
-289.062 281.25 1785
-210.938 -476.562 3365
-132.812 -296.875 998
210.938 -234.375 783
46.875 265.625 652
-265.625 -234.375 975
-289.062 156.25 894
-156.25 109.375 739
195.312 -265.625 773
179.688 31.25 707
-257.812 125 910
429.688 -117.188 728
-171.875 23.4375 785
375 273.438 594
367.188 320.312 593
328.125 -304.688 730
-382.812 78.125 954
320.312 320.312 586
-140.625 117.188 733
-421.875 23.4375 987
-125 -109.375 851
406.25 335.938 603
437.5 304.688 591
-218.75 -203.125 1034
429.688 -62.5 701
-304.688 31.25 867
-492.188 257.812 1823
179.688 -304.688 773
-132.812 -70.3125 964
-273.438 7.8125 856
320.312 -39.0625 666
-218.75 -289.062 1013
453.125 -39.0625 632
257.812 -109.375 835
179.688 -156.25 625
-265.625 -62.5 843
445.312 -210.938 898
171.875 375 600
445.312 -187.5 880
234.375 -203.125 796
445.312 -179.688 711
250 -218.75 773
250 -46.875 796
226.562 -398.438 749
445.312 -343.75 2598
203.125 -359.375 755
234.375 -382.812 742
-93.75 156.25 710
-93.75 -39.0625 815
62.5 304.688 638
-195.312 -382.812 1376
351.562 -148.438 703
-218.75 78.125 761
-304.688 7.8125 864
-234.375 -164.062 1004
-273.438 -46.875 841
-31.25 -85.9375 841
101.562 -54.6875 690
-125 -296.875 998
-132.812 -7.8125 800
-164.062 -85.9375 841
226.562 -218.75 783
31.25 257.812 657
148.438 -109.375 629
476.562 429.688 560
421.875 -273.438 774
390.625 359.375 595
429.688 -218.75 908
-492.188 -23.4375 1038
445.312 -218.75 906
23.4375 -132.812 684
-218.75 -187.5 1022
-320.312 15.625 871
-296.875 -210.938 946
-296.875 -23.4375 871
-265.625 -226.562 973
234.375 -375 741
390.625 -218.75 679
-7.8125 226.562 672
390.625 -125 731
109.375 -195.312 649
242.188 -445.312 736
-359.375 242.188 1833
78.125 31.25 762
257.812 -117.188 841
-140.625 -62.5 948
156.25 -187.5 644
39.0625 257.812 655
23.4375 375 764
-171.875 -296.875 1013
-187.5 273.438 837
195.312 -31.25 676
242.188 23.4375 755
265.625 -78.125 815
-46.875 -101.562 849
460.938 -31.25 632
156.25 -101.562 631
406.25 242.188 606
-484.375 -382.812 2958
273.438 429.688 575
85.9375 -132.812 648
453.125 320.312 581
179.688 -171.875 635
-312.5 -304.688 1283
250 -140.625 856
-320.312 7.8125 871
-164.062 109.375 739
-289.062 -171.875 930
-234.375 281.25 1536
-78.125 187.5 696
-242.188 -62.5 841
164.062 -156.25 627
-171.875 -46.875 880
-195.312 265.625 841
-242.188 -273.438 1010
171.875 -62.5 647
54.6875 281.25 647
250 -39.0625 792
-289.062 -320.312 1302
54.6875 273.438 648
-492.188 -375 2680
453.125 -31.25 632
-210.938 -54.6875 841
-187.5 -382.812 1376
171.875 -179.688 640
226.562 -273.438 750
-70.3125 -54.6875 823
289.062 -367.188 730
-132.812 -62.5 948
-23.4375 406.25 759
-210.938 54.6875 773
218.75 62.5 738
-70.3125 -226.562 1165
273.438 453.125 567
-109.375 -93.75 1001
218.75 -242.188 771
-132.812 -46.875 823
437.5 -156.25 708
-148.438 -31.25 813
-156.25 117.188 734
-140.625 0 796
171.875 70.3125 734
-304.688 62.5 878
492.188 -148.438 847
187.5 -359.375 764
250 429.688 575
-273.438 -203.125 959
-335.938 117.188 923
-304.688 39.0625 873
179.688 -375 778
-382.812 62.5 954
484.375 351.562 593
-54.6875 -70.3125 833
367.188 -70.3125 698
-250 -257.812 1001
218.75 -39.0625 687
195.312 70.3125 734
-367.188 328.125 1731
-304.688 23.4375 867
-101.562 -85.9375 843
-343.75 7.8125 913
-429.688 -226.562 1210
7.8125 437.5 742
-320.312 -312.5 1283
-250 -343.75 1328
-257.812 -242.188 989
-101.562 -31.25 811
-296.875 54.6875 871
39.0625 -62.5 720
359.375 -78.125 703
-62.5 -242.188 1177
-226.562 93.75 773
437.5 -132.812 717
-320.312 -132.812 873
476.562 15.625 747
-359.375 296.875 1766
218.75 406.25 587
-304.688 70.3125 885
210.938 15.625 731
320.312 -281.25 733
218.75 -273.438 755
-304.688 15.625 864
39.0625 -85.9375 704
-367.188 335.938 1722
218.75 -382.812 749
-203.125 -31.25 843
-304.688 -164.062 906
-46.875 195.312 688
-492.188 265.625 1823
-171.875 -390.625 1376
-70.3125 -218.75 1157
-23.4375 218.75 678
343.75 335.938 573
-320.312 39.0625 887
-148.438 7.8125 792
-54.6875 -78.125 835
187.5 -351.562 764
-296.875 0 860
226.562 -414.062 755
-203.125 23.4375 787
210.938 -281.25 755
-375 367.188 1688
304.688 -296.875 730
-242.188 -257.812 1013
-15.625 406.25 755
31.25 -179.688 655
-265.625 -54.6875 841
-117.188 -203.125 923
375 -78.125 696
390.625 296.875 588
-429.688 101.562 2028
-234.375 -234.375 1028
-460.938 -398.438 2984
15.625 -125 693
445.312 -171.875 711
-203.125 257.812 847
414.062 257.812 597
281.25 -398.438 728
-382.812 171.875 1926
-210.938 -367.188 1354
203.125 -250 774
296.875 351.562 604
62.5 -109.375 674
273.438 -367.188 730
429.688 312.5 590
367.188 -171.875 696
164.062 -187.5 643
-414.062 -250 1241
-15.625 234.375 671
187.5 367.188 603
468.75 218.75 585
390.625 312.5 589
-304.688 31.25 867
375 304.688 591
-289.062 39.0625 867
-476.562 -195.312 1189
414.062 343.75 600
351.562 -101.562 706
132.812 328.125 622
390.625 -257.812 757
-351.562 265.625 1794
-117.188 -78.125 1038
156.25 343.75 614
390.625 -226.562 679
359.375 304.688 596
93.75 -195.312 650
390.625 -203.125 696
-234.375 -281.25 1013
85.9375 320.312 629
203.125 -390.625 762
-62.5 437.5 1387
15.625 250 661
39.0625 -93.75 698
54.6875 -93.75 688
250 -429.688 734
0 265.625 666
203.125 -289.062 761
179.688 359.375 606
437.5 257.812 586
-281.25 -78.125 851
-320.312 31.25 887
179.688 -312.5 773
-218.75 296.875 1523
-429.688 -257.812 2744
429.688 -93.75 736
437.5 -140.625 711
101.562 335.938 623
265.625 -23.4375 736
-187.5 195.312 864
140.625 -203.125 654
359.375 -31.25 647
-109.375 -85.9375 1001
359.375 -132.812 701
351.562 351.562 568
-187.5 -15.625 858
7.8125 242.188 666
171.875 -156.25 625
-500 -15.625 2212
-304.688 -23.4375 871
-226.562 -375 1359
320.312 -31.25 667
-179.688 31.25 781
437.5 210.938 590
421.875 281.25 593
375 281.25 592
117.188 -195.312 650
-101.562 335.938 792
-375 31.25 975
-85.9375 164.062 706
-210.938 265.625 849
-445.312 0 1004
-289.062 -460.938 3010
-85.9375 -406.25 1376
328.125 312.5 588
445.312 -203.125 891
351.562 31.25 703
218.75 -429.688 762
-46.875 -117.188 858
46.875 -210.938 662
421.875 -218.75 686
-46.875 -93.75 845
257.812 -148.438 862
39.0625 -78.125 710
312.5 -304.688 730
242.188 -109.375 835
-117.188 156.25 713
-359.375 -281.25 1264
-453.125 -210.938 1193
-93.75 -132.812 989
-265.625 -218.75 967
406.25 -218.75 684
320.312 460.938 561
-156.25 -46.875 894
-46.875 -132.812 1073
210.938 382.812 596
78.125 -62.5 696
257.812 414.062 581
343.75 -398.438 738
390.625 -195.312 703
-375 -453.125 3120
-242.188 203.125 864
343.75 359.375 568
445.312 -226.562 910
-164.062 132.812 731
343.75 23.4375 658
-195.312 70.3125 759
93.75 -132.812 644
335.938 328.125 589
-78.125 -179.688 1031
-7.8125 437.5 754
-312.5 132.812 910
492.188 304.688 600
-132.812 125 728
78.125 304.688 635
179.688 -171.875 635
-156.25 -7.8125 802
351.562 -398.438 741
-125 132.812 723
-437.5 -226.562 1210
-281.25 -187.5 943
460.938 -31.25 632
-93.75 -109.375 992
-85.9375 179.688 700
-296.875 -7.8125 860
210.938 -304.688 752
-500 -375 2680
195.312 -335.938 759
-335.938 140.625 923
125 -195.312 649
125 351.562 615
187.5 0 686
-445.312 15.625 1007
414.062 -117.188 734
-273.438 -328.125 1307
468.75 304.688 612
-296.875 -15.625 867
39.0625 -398.438 2467
257.812 -109.375 835
-70.3125 -156.25 1094
-335.938 -289.062 1268
414.062 -218.75 686
304.688 453.125 565
429.688 -39.0625 636
179.688 -156.25 625
78.125 289.062 641
-85.9375 -218.75 943
460.938 273.438 591
-39.0625 -78.125 835
437.5 -226.562 910
-296.875 39.0625 869
-164.062 101.562 742
359.375 -398.438 744
398.438 359.375 595
85.9375 -46.875 701
242.188 421.875 578
-179.688 -390.625 1387
304.688 -70.3125 674
195.312 375 600
125 -46.875 678
-156.25 375 1439
250 -328.125 734
-203.125 70.3125 762
-93.75 -148.438 998
-312.5 -140.625 878
39.0625 265.625 652
-156.25 15.625 790
484.375 335.938 598
-62.5 -62.5 827
-117.188 140.625 720
359.375 -85.9375 706
-250 140.625 898
-109.375 -23.4375 805
414.062 -195.312 694
-125 351.562 1181
-257.812 187.5 878
-289.062 171.875 896
429.688 -109.375 731
460.938 -46.875 632
195.312 39.0625 749
398.438 304.688 589
125 328.125 622
375 -62.5 693
414.062 218.75 598
31.25 -148.438 670
-187.5 85.9375 752
414.062 -343.75 764
78.125 351.562 667
-390.625 382.812 1680
351.562 -109.375 706
85.9375 -31.25 711
242.188 31.25 752
296.875 -132.812 711
414.062 -93.75 747
382.812 234.375 615
-218.75 -70.3125 845
414.062 -140.625 723
-101.562 203.125 722
414.062 -132.812 727
-320.312 210.938 1586
-7.8125 289.062 714
117.188 -218.75 667
-148.438 -23.4375 809
-359.375 -273.438 1255
218.75 -375 747
-289.062 -140.625 869
437.5 250 585
414.062 -125 731
-328.125 -132.812 869
148.438 398.438 636
-7.8125 226.562 672
93.75 296.875 636
156.25 351.562 611
39.0625 -101.562 694
-101.562 148.438 714
375 -273.438 744
312.5 -390.625 730
-304.688 -156.25 898
-320.312 7.8125 871
234.375 -70.3125 809
-125 -101.562 851
-46.875 -140.625 1080
179.688 -320.312 771
382.812 -70.3125 691
-39.0625 203.125 687
242.188 -226.562 767
437.5 -39.0625 635
445.312 -179.688 711
31.25 -179.688 655
296.875 359.375 600
140.625 335.938 619
468.75 -359.375 2541
-187.5 -39.0625 841
187.5 -359.375 764
0 -109.375 713
-93.75 164.062 707
23.4375 273.438 654
-78.125 -242.188 954
359.375 -93.75 706
476.562 343.75 596
445.312 -187.5 880
351.562 -85.9375 708
203.125 375 599
367.188 375 590
453.125 289.062 595
-492.188 273.438 1804
-62.5 -117.188 1063
-320.312 -125 862
234.375 -304.688 742
-148.438 7.8125 792
125 -54.6875 675
359.375 -54.6875 648
320.312 -273.438 734
54.6875 -117.188 674
39.0625 -351.562 1288
453.125 -210.938 898
-320.312 23.4375 889
226.562 54.6875 741
257.812 -93.75 825
414.062 -203.125 690
437.5 -46.875 698
312.5 -335.938 727
-78.125 179.688 698
359.375 367.188 567
39.0625 -93.75 698
-375 375 1680
-54.6875 -132.812 1073
367.188 -46.875 647
-304.688 218.75 1601
54.6875 -210.938 663
320.312 -289.062 731
-500 367.188 1688
-46.875 -109.375 854
437.5 335.938 581
210.938 78.125 730
320.312 -296.875 730
437.5 62.5 725
164.062 351.562 610
359.375 296.875 596
406.25 -39.0625 635
421.875 -210.938 901
148.438 31.25 716
250 -31.25 787
-148.438 -93.75 841
-398.438 46.875 967
-15.625 218.75 676
39.0625 -85.9375 704
218.75 -46.875 688
-281.25 78.125 882
-164.062 273.438 825
-156.25 -296.875 1010
70.3125 -46.875 711
-156.25 -85.9375 923
265.625 421.875 578
93.75 -7.8125 727
460.938 -39.0625 632
-281.25 -78.125 851
46.875 304.688 648
-39.0625 429.688 1312
414.062 -210.938 686
367.188 -164.062 698
218.75 390.625 592
382.812 -85.9375 691
234.375 -437.5 767
445.312 -171.875 711
-148.438 226.562 847
437.5 -171.875 711
-62.5 -242.188 1177
179.688 -125 616
-46.875 -85.9375 843
39.0625 -109.375 690
250 -23.4375 783
445.312 -195.312 885
-257.812 -234.375 989
320.312 -140.625 710
-70.3125 -164.062 1101
-195.312 46.875 773
203.125 54.6875 742
-226.562 -234.375 1028
-296.875 31.25 862
429.688 -242.188 925
429.688 -93.75 736
242.188 406.25 585
492.188 -234.375 908
164.062 -93.75 629
351.562 -93.75 707
-203.125 54.6875 769
382.812 -156.25 719
-70.3125 -210.938 1145
23.4375 -39.0625 749
453.125 312.5 585
-171.875 195.312 867
406.25 -62.5 701
101.562 304.688 632
-78.125 -39.0625 813
179.688 -164.062 630
-468.75 -234.375 2680
-187.5 39.0625 774
46.875 0 762
421.875 -218.75 686
351.562 257.812 608
203.125 -273.438 766
-382.812 125 1410
-304.688 31.25 867
-54.6875 -148.438 1087
351.562 296.875 600
203.125 -367.188 755
390.625 281.25 590
93.75 304.688 634
-54.6875 -265.625 1202
195.312 -375 761
-78.125 -46.875 819
476.562 242.188 581
398.438 328.125 593
359.375 -125 703
414.062 -109.375 739
-210.938 -210.938 1038
406.25 -257.812 764
-39.0625 -93.75 845
437.5 -132.812 717
46.875 7.8125 769
-226.562 -179.688 1016
-148.438 125 730
-85.9375 171.875 703
484.375 250 582
-218.75 85.9375 761
171.875 -343.75 780
265.625 15.625 762
218.75 0 771
-54.6875 -93.75 845
-117.188 -148.438 867
-257.812 -70.3125 847
265.625 -156.25 869
234.375 398.438 588
70.3125 -226.562 671
-93.75 -70.3125 835
-289.062 -31.25 845
468.75 -46.875 640
62.5 -218.75 667
304.688 -320.312 727
-101.562 -125 992
93.75 31.25 754
39.0625 -117.188 683
-382.812 -257.812 1241
-500 343.75 1722
-382.812 15.625 987
226.562 -429.688 762
453.125 -296.875 2560
343.75 -257.812 744
492.188 -62.5 649
132.812 -125 629
398.438 375 589
-7.8125 375 766
-257.812 -7.8125 862
117.188 39.0625 742
195.312 46.875 749
109.375 39.0625 747
351.562 312.5 596
-15.625 46.875 762
-242.188 273.438 1543
39.0625 -218.75 668
-132.812 39.0625 773
-125 -39.0625 819
-195.312 93.75 750
-171.875 226.562 847
-265.625 -218.75 967
453.125 -289.062 2503
210.938 -218.75 800
-7.8125 335.938 785
492.188 -54.6875 646
406.25 187.5 667
156.25 -54.6875 659
367.188 289.062 593
-382.812 414.062 1639
242.188 -132.812 854
437.5 226.562 587
351.562 242.188 646
375 -156.25 700
382.812 265.625 594
148.438 343.75 614
257.812 -85.9375 819
-320.312 23.4375 889
-234.375 -351.562 1333
414.062 -156.25 717
125 -148.438 629
281.25 -421.875 717
-210.938 -85.9375 841
-320.312 -46.875 856
-289.062 -23.4375 875
-484.375 250 1833
-15.625 -46.875 815
382.812 -164.062 701
-343.75 187.5 1536
-328.125 148.438 913
-351.562 218.75 1863
-234.375 -273.438 1013
375 -62.5 693
328.125 23.4375 674
406.25 281.25 590
-367.188 335.938 1722
109.375 312.5 630
453.125 -203.125 891
195.312 -257.812 780
117.188 -109.375 648
-78.125 -156.25 1001
367.188 -148.438 700
492.188 -226.562 908
54.6875 421.875 741
-117.188 -15.625 803
195.312 -273.438 769
-78.125 -62.5 827
468.75 195.312 592
453.125 -218.75 901
-367.188 93.75 946
-179.688 -7.8125 792
-289.062 -62.5 847
93.75 -46.875 704
-304.688 289.062 1776
39.0625 257.812 655
390.625 257.812 599
187.5 -343.75 771
-273.438 -203.125 946
-242.188 -273.438 1001
187.5 -46.875 652
-312.5 54.6875 878
-171.875 289.062 827
195.312 -343.75 764
257.812 -437.5 730
39.0625 -125 684
429.688 289.062 586
210.938 -390.625 764
-109.375 -125 847
-46.875 -70.3125 829
70.3125 46.875 754
203.125 -250 781
-234.375 296.875 1529
351.562 -117.188 728
265.625 -414.062 739
