ply
format ascii 1.0
comment Created by Open3D
element vertex 2364
property double x
property double y
property double z
end_header
109.375 226.562 1038
-484.375 -343.75 2767
-156.25 343.75 1241
-218.75 375 1197
-54.6875 382.812 1177
390.625 -39.0625 973
382.812 -351.562 1427
-390.625 140.625 901
-46.875 -171.875 959
-46.875 23.4375 978
-62.5 375 1181
437.5 -187.5 920
-195.312 351.562 1236
-23.4375 -15.625 938
289.062 -23.4375 970
-39.0625 382.812 1185
101.562 -156.25 908
-62.5 328.125 1245
-46.875 367.188 1185
328.125 257.812 1458
-132.812 -156.25 928
210.938 234.375 1696
-242.188 -62.5 1070
-171.875 -54.6875 1047
-171.875 -171.875 930
-39.0625 109.375 920
-132.812 -156.25 928
-421.875 148.438 896
-148.438 289.062 1038
-85.9375 70.3125 915
-203.125 398.438 1173
70.3125 -148.438 906
179.688 -414.062 1001
-195.312 226.562 967
-85.9375 93.75 915
-164.062 78.125 913
171.875 -359.375 987
-234.375 367.188 1210
398.438 296.875 1343
46.875 265.625 1050
375 -39.0625 973
-125 343.75 1236
148.438 62.5 925
453.125 -62.5 973
-125 320.312 1273
-117.188 359.375 1210
140.625 -359.375 981
7.8125 328.125 1250
-460.938 109.375 898
46.875 359.375 1189
-101.562 296.875 1041
-265.625 -93.75 1105
156.25 203.125 1757
140.625 437.5 1232
46.875 343.75 1223
-453.125 109.375 901
-234.375 -31.25 1073
-46.875 375 1181
-218.75 351.562 1241
117.188 -414.062 989
-39.0625 -70.3125 925
257.812 70.3125 984
-39.0625 375 1185
-476.562 -414.062 2701
0 351.562 1219
-437.5 -195.312 2933
-140.625 -164.062 930
31.25 -390.625 1181
-140.625 0 962
445.312 -335.938 1343
257.812 -273.438 1041
-164.062 359.375 1206
-445.312 -226.562 2883
-250 367.188 1202
-226.562 273.438 1022
148.438 359.375 1210
-226.562 398.438 1165
281.25 -31.25 964
164.062 289.062 1609
-218.75 296.875 1034
-78.125 -101.562 925
359.375 296.875 1338
39.0625 359.375 1189
-468.75 109.375 896
-242.188 85.9375 910
62.5 273.438 1054
-78.125 -187.5 954
-117.188 312.5 1278
242.188 -281.25 1034
234.375 -335.938 1010
7.8125 375 1458
0 -70.3125 940
-46.875 -148.438 938
-484.375 -445.312 2680
-218.75 343.75 1245
-7.8125 351.562 1219
296.875 39.0625 940
-148.438 359.375 1206
-132.812 343.75 1232
-101.562 117.188 915
-226.562 296.875 1034
-234.375 -85.9375 1054
-187.5 343.75 1232
-164.062 296.875 1038
-375 101.562 901
218.75 -367.188 992
132.812 289.062 1624
-78.125 -7.8125 935
-109.375 343.75 1241
39.0625 312.5 1268
-15.625 367.188 1219
-70.3125 351.562 1210
257.812 351.562 1464
-375 117.188 894
328.125 -39.0625 967
54.6875 367.188 1189
-85.9375 -101.562 925
-54.6875 304.688 1063
484.375 -70.3125 973
-445.312 117.188 894
-234.375 390.625 1165
-164.062 -179.688 1165
85.9375 -132.812 898
-335.938 304.688 1022
-39.0625 -125 1016
-140.625 335.938 1236
140.625 242.188 1696
-15.625 -109.375 948
39.0625 54.6875 923
-289.062 328.125 1259
-242.188 367.188 1202
-23.4375 328.125 1250
-46.875 382.812 1177
-164.062 390.625 1177
-117.188 382.812 1181
484.375 -132.812 946
-62.5 109.375 913
414.062 -203.125 938
46.875 312.5 1268
-382.812 140.625 901
195.312 -171.875 920
-468.75 117.188 891
-78.125 -164.062 948
-437.5 148.438 898
-117.188 320.312 1273
-156.25 359.375 1206
-85.9375 109.375 918
54.6875 7.8125 984
-257.812 328.125 1268
-93.75 70.3125 915
-140.625 312.5 1273
460.938 -210.938 943
234.375 -242.188 1047
171.875 -398.438 975
-156.25 -156.25 925
31.25 -398.438 1181
-125 -140.625 946
-476.562 -406.25 2701
-70.3125 328.125 1245
-62.5 382.812 1177
-39.0625 328.125 1250
-148.438 -15.625 951
93.75 70.3125 925
-453.125 -242.188 2767
-93.75 -164.062 935
-265.625 390.625 1161
-117.188 -156.25 933
15.625 328.125 1250
-203.125 -93.75 1063
-117.188 117.188 920
-140.625 148.438 973
-23.4375 -78.125 933
164.062 210.938 1766
-226.562 343.75 1236
-39.0625 289.062 1050
375 7.8125 940
85.9375 70.3125 923
203.125 31.25 933
132.812 -421.875 1153
-7.8125 -93.75 940
-78.125 351.562 1214
-195.312 -171.875 943
-78.125 289.062 1044
93.75 -421.875 1149
-31.25 281.25 1050
-171.875 101.562 913
351.562 343.75 1338
-101.562 -148.438 938
-179.688 304.688 1038
460.938 -234.375 975
-156.25 382.812 1177
218.75 -179.688 928
484.375 -242.188 970
125 210.938 1757
257.812 23.4375 938
-179.688 328.125 1268
-257.812 234.375 998
-296.875 398.438 1169
-171.875 328.125 1268
-101.562 -39.0625 933
-257.812 -148.438 1070
-132.812 31.25 954
39.0625 367.188 1189
-484.375 -460.938 2659
-484.375 -351.562 2767
171.875 85.9375 981
351.562 31.25 940
-70.3125 -93.75 928
234.375 85.9375 1007
39.0625 242.188 1034
31.25 101.562 967
-234.375 375 1206
-195.312 78.125 915
62.5 93.75 925
31.25 312.5 1273
-109.375 335.938 1250
140.625 -226.562 1041
398.438 -39.0625 973
-328.125 406.25 1149
31.25 93.75 923
-265.625 312.5 1022
351.562 -195.312 930
-468.75 -351.562 2767
-62.5 312.5 1283
-476.562 406.25 1731
195.312 -406.25 984
-54.6875 85.9375 915
-7.8125 367.188 1214
117.188 210.938 1748
-203.125 367.188 1210
132.812 -226.562 1054
-312.5 375 1197
-492.188 -93.75 2317
117.188 437.5 1197
156.25 -7.8125 954
-203.125 -7.8125 1050
-117.188 343.75 1241
-210.938 -23.4375 1073
-476.562 -398.438 2723
304.688 203.125 2090
-164.062 -164.062 928
-210.938 218.75 995
-93.75 375 1181
-31.25 -117.188 943
0 375 1458
367.188 351.562 1333
39.0625 -250 1169
343.75 -39.0625 970
-23.4375 375 1189
-437.5 -164.062 2933
-7.8125 335.938 1245
-234.375 296.875 1034
-257.812 390.625 1169
312.5 171.875 1766
-62.5 -109.375 933
15.625 367.188 1193
-320.312 304.688 1025
-476.562 -304.688 2812
-125 -109.375 967
453.125 -46.875 978
-250 -46.875 1130
-15.625 343.75 1219
-7.8125 125 975
-218.75 85.9375 913
-437.5 -179.688 2933
15.625 359.375 1227
273.438 -15.625 967
-7.8125 273.438 1044
234.375 289.062 1601
-453.125 406.25 1731
0 273.438 1047
-210.938 -15.625 1073
-453.125 -265.625 2883
-476.562 109.375 898
-70.3125 281.25 1044
-31.25 250 1028
125 7.8125 959
-132.812 296.875 1041
-70.3125 375 1181
-23.4375 -46.875 928
0 328.125 1250
109.375 0 951
-210.938 351.562 1241
-70.3125 359.375 1210
31.25 343.75 1219
429.688 15.625 948
-125 320.312 1273
367.188 359.375 1333
226.562 -242.188 1047
-171.875 304.688 1038
-218.75 351.562 1241
-226.562 250 962
117.188 93.75 981
-148.438 -164.062 928
351.562 250 1477
218.75 -7.8125 964
140.625 351.562 1202
148.438 289.062 1616
-117.188 390.625 1181
-125 -54.6875 948
-46.875 335.938 1241
15.625 -70.3125 948
-500 -445.312 2639
23.4375 -39.0625 959
-203.125 78.125 915
125 -421.875 1149
-132.812 335.938 1232
31.25 -54.6875 956
-46.875 328.125 1241
148.438 0 956
-140.625 343.75 1236
-46.875 109.375 920
-265.625 328.125 1264
-85.9375 -187.5 938
-367.188 304.688 1019
62.5 289.062 1292
195.312 -15.625 959
-70.3125 -164.062 954
-335.938 140.625 903
445.312 -62.5 973
-476.562 -312.5 2812
242.188 -15.625 967
-156.25 289.062 1034
-398.438 140.625 901
-31.25 -132.812 946
-265.625 406.25 1161
-492.188 -117.188 2212
-140.625 359.375 1210
335.938 296.875 1376
-234.375 218.75 989
-164.062 125 964
312.5 62.5 995
-78.125 375 1181
320.312 132.812 1739
164.062 -359.375 984
367.188 -39.0625 970
-164.062 343.75 1232
-101.562 -132.812 928
-234.375 343.75 1245
-203.125 390.625 1173
179.688 -320.312 1004
-226.562 125 913
328.125 62.5 1001
-382.812 -31.25 1130
-250 367.188 1202
-93.75 351.562 1206
312.5 -226.562 1016
-242.188 218.75 981
-31.25 101.562 923
242.188 195.312 1776
-39.0625 -31.25 925
-54.6875 359.375 1210
-78.125 312.5 1278
31.25 375 1193
-78.125 -156.25 943
-164.062 101.562 913
-46.875 359.375 1202
-257.812 406.25 1169
101.562 -250 1138
-203.125 -85.9375 1063
140.625 359.375 1206
289.062 -375 1077
-257.812 367.188 1202
304.688 -343.75 1087
203.125 7.8125 967
62.5 -242.188 1134
-492.188 -187.5 2184
195.312 -7.8125 962
125 23.4375 948
-203.125 375 1210
398.438 257.812 1458
-132.812 -117.188 978
-117.188 335.938 1245
164.062 0 959
-31.25 -125 1007
-70.3125 257.812 1028
445.312 -242.188 984
187.5 -7.8125 959
218.75 -304.688 1019
-414.062 203.125 964
179.688 -367.188 984
273.438 0 970
15.625 320.312 1255
-500 -460.938 2618
-93.75 117.188 964
-226.562 351.562 1236
-367.188 -156.25 1452
-109.375 -156.25 935
-265.625 367.188 1223
-195.312 343.75 1236
-7.8125 328.125 1250
265.625 -335.938 1016
-179.688 -15.625 1063
-164.062 320.312 1273
-390.625 101.562 898
-62.5 359.375 1210
164.062 -382.812 975
179.688 -250 1031
-382.812 101.562 898
-179.688 125 915
-46.875 15.625 935
-7.8125 320.312 1255
0 -54.6875 938
-234.375 -31.25 1073
-62.5 -7.8125 933
-117.188 -187.5 1130
-125 312.5 1288
-460.938 -46.875 1185
-445.312 -234.375 2933
187.5 -234.375 1038
7.8125 335.938 1255
109.375 210.938 1025
101.562 -289.062 1041
-281.25 312.5 1031
-31.25 351.562 1223
296.875 -7.8125 975
-242.188 -171.875 1025
-93.75 -187.5 933
296.875 -210.938 989
54.6875 265.625 1050
-250 390.625 1169
-46.875 289.062 1047
367.188 -46.875 964
39.0625 335.938 1232
250 -242.188 1050
-195.312 328.125 1268
-351.562 265.625 1001
-312.5 398.438 1157
-140.625 289.062 1038
-156.25 359.375 1206
-85.9375 351.562 1210
-406.25 -93.75 1302
-7.8125 281.25 1050
-109.375 289.062 1038
70.3125 125 981
31.25 78.125 920
406.25 -54.6875 970
-445.312 226.562 973
187.5 -335.938 995
-195.312 320.312 1273
-156.25 -39.0625 954
-203.125 328.125 1268
-156.25 398.438 1177
-210.938 367.188 1206
-132.812 390.625 1169
101.562 0 948
-250 -54.6875 1073
-203.125 359.375 1241
414.062 265.625 1433
7.8125 -31.25 938
-453.125 304.688 1013
7.8125 343.75 1227
367.188 296.875 1349
-39.0625 -23.4375 925
-85.9375 375 1181
-242.188 -39.0625 1105
-453.125 -31.25 1149
85.9375 7.8125 956
85.9375 85.9375 918
-15.625 273.438 1044
414.062 -39.0625 975
-54.6875 -46.875 923
234.375 -23.4375 962
-140.625 367.188 1210
-187.5 359.375 1210
-148.438 -93.75 1004
39.0625 359.375 1189
-78.125 -171.875 946
-492.188 -406.25 2701
437.5 -46.875 975
-85.9375 -7.8125 933
359.375 -46.875 967
-39.0625 312.5 1586
-117.188 359.375 1210
250 -390.625 992
-117.188 31.25 943
-85.9375 257.812 1025
7.8125 -7.8125 956
7.8125 -257.812 1210
289.062 -93.75 940
62.5 -281.25 1236
-54.6875 367.188 1185
46.875 320.312 1259
-31.25 7.8125 935
-187.5 304.688 1034
289.062 195.312 1776
-125 382.812 1173
-125 125 964
328.125 -234.375 1038
7.8125 -54.6875 940
-7.8125 -54.6875 935
-156.25 335.938 1255
187.5 46.875 930
-210.938 328.125 1268
-421.875 -203.125 3010
-460.938 -312.5 2835
-453.125 -257.812 2883
62.5 359.375 1197
-140.625 335.938 1236
-265.625 390.625 1161
-445.312 -242.188 2933
-210.938 375 1206
-195.312 -101.562 1004
273.438 -273.438 1044
-195.312 -15.625 1070
226.562 -226.562 1038
-62.5 328.125 1245
-398.438 148.438 901
-187.5 -93.75 998
-164.062 117.188 915
-78.125 328.125 1255
-500 -320.312 2156
-343.75 304.688 1022
265.625 -242.188 1054
-242.188 343.75 1245
257.812 -281.25 1041
-242.188 296.875 1031
-156.25 -46.875 954
-234.375 398.438 1165
-78.125 -179.688 946
203.125 -328.125 1007
85.9375 46.875 925
-93.75 93.75 913
-218.75 304.688 1038
-234.375 -78.125 1054
-304.688 93.75 903
-101.562 375 1181
-500 -437.5 2659
-250 218.75 981
-15.625 320.312 1250
281.25 210.938 2090
-39.0625 31.25 967
132.812 234.375 2078
-179.688 296.875 1038
-148.438 125 964
-85.9375 125 967
148.438 -7.8125 954
-492.188 -343.75 2723
-101.562 -156.25 948
-101.562 351.562 1241
-140.625 -171.875 935
250 -179.688 925
-46.875 375 1181
-351.562 140.625 901
-468.75 -273.438 2835
296.875 -187.5 923
296.875 -187.5 923
-15.625 367.188 1219
-242.188 367.188 1202
-46.875 31.25 964
203.125 78.125 984
156.25 -250 1025
-78.125 281.25 1038
-46.875 -117.188 943
-171.875 382.812 1206
-109.375 296.875 1041
-195.312 367.188 1210
148.438 -226.562 1034
250 -257.812 1044
164.062 -226.562 1038
-445.312 -203.125 2908
-164.062 -15.625 967
343.75 -15.625 981
304.688 -382.812 1181
-257.812 390.625 1169
-85.9375 -156.25 948
-109.375 -39.0625 935
-70.3125 23.4375 981
-125 375 1193
70.3125 -312.5 1210
-23.4375 367.188 1219
101.562 -281.25 1041
46.875 343.75 1223
-132.812 375 1206
250 -406.25 989
-101.562 23.4375 938
62.5 335.938 1232
-398.438 125 898
-23.4375 320.312 1250
250 -15.625 970
-242.188 218.75 981
23.4375 242.188 1031
-468.75 -218.75 2579
-125 -125 975
148.438 -335.938 989
-15.625 -125 978
164.062 -414.062 978
-492.188 -414.062 2680
-234.375 125 913
-226.562 343.75 1236
-273.438 390.625 1202
-117.188 296.875 1038
-500 -351.562 2723
-15.625 343.75 1219
132.812 312.5 1214
0 125 975
390.625 -351.562 1427
-31.25 320.312 1250
-359.375 304.688 1022
-242.188 -31.25 1101
437.5 281.25 1398
375 -351.562 1433
328.125 -31.25 970
-54.6875 351.562 1214
-171.875 335.938 1268
31.25 367.188 1193
-257.812 320.312 1022
46.875 359.375 1189
31.25 320.312 1264
-140.625 296.875 1041
210.938 -335.938 1004
-242.188 375 1202
46.875 265.625 1050
-398.438 101.562 898
273.438 -23.4375 967
-117.188 -171.875 933
-257.812 367.188 1202
257.812 203.125 1785
429.688 -46.875 975
328.125 218.75 1705
171.875 -304.688 1007
-234.375 343.75 1245
468.75 -257.812 967
-203.125 125 913
-445.312 406.25 1739
-257.812 148.438 964
-85.9375 289.062 1041
-109.375 39.0625 959
-281.25 390.625 1202
7.8125 -15.625 956
-460.938 -234.375 2701
234.375 46.875 933
-132.812 367.188 1206
-148.438 312.5 1044
343.75 -218.75 984
242.188 -242.188 1050
46.875 312.5 1268
-46.875 -171.875 959
15.625 23.4375 967
132.812 -335.938 992
-62.5 312.5 1283
-132.812 320.312 1268
62.5 -328.125 1197
289.062 296.875 1483
15.625 -15.625 959
-23.4375 62.5 920
70.3125 -421.875 1157
-234.375 85.9375 910
-234.375 85.9375 910
171.875 -414.062 989
328.125 -265.625 1130
-54.6875 304.688 1063
-500 117.188 891
406.25 -31.25 995
140.625 289.062 1624
-70.3125 328.125 1245
-85.9375 312.5 1268
-148.438 367.188 1210
-7.8125 -23.4375 938
-437.5 -203.125 2958
-460.938 -328.125 2812
-7.8125 343.75 1219
-390.625 -140.625 1445
93.75 -156.25 908
-78.125 351.562 1214
-156.25 382.812 1177
-101.562 257.812 1025
-31.25 62.5 920
-242.188 273.438 1019
140.625 -164.062 910
-70.3125 289.062 1047
-476.562 -320.312 2789
234.375 -15.625 967
-320.312 367.188 1206
226.562 289.062 1601
132.812 0 956
-179.688 304.688 1038
-414.062 140.625 901
-195.312 125 915
-15.625 85.9375 918
-164.062 359.375 1206
-234.375 351.562 1241
7.8125 367.188 1193
156.25 -375 978
-54.6875 -156.25 940
460.938 -54.6875 975
203.125 -210.938 1004
-476.562 -414.062 2701
39.0625 265.625 1047
-210.938 390.625 1173
-93.75 -195.312 1097
164.062 -171.875 925
-484.375 109.375 901
-429.688 -156.25 2984
132.812 351.562 1202
-492.188 -70.3125 1232
-218.75 398.438 1165
343.75 -195.312 935
-7.8125 328.125 1250
-140.625 -54.6875 956
-140.625 -132.812 978
171.875 -281.25 1016
-429.688 109.375 896
31.25 265.625 1047
-210.938 320.312 1268
-445.312 -250 2908
-15.625 382.812 1464
-250 367.188 1202
-117.188 382.812 1181
125 -453.125 1169
-85.9375 -70.3125 923
281.25 -31.25 964
-54.6875 375 1181
-62.5 382.812 1177
375 296.875 1410
-117.188 -179.688 933
-226.562 85.9375 913
-273.438 132.812 910
-78.125 375 1181
-70.3125 382.812 1181
250 54.6875 938
-93.75 15.625 940
218.75 289.062 1601
125 -242.188 1057
54.6875 367.188 1189
-218.75 218.75 989
-289.062 312.5 1025
-140.625 390.625 1173
-85.9375 281.25 1038
398.438 -203.125 943
54.6875 312.5 1268
-54.6875 -148.438 935
-70.3125 -7.8125 930
117.188 -414.062 989
-132.812 382.812 1169
406.25 -187.5 920
-171.875 -85.9375 1001
-117.188 179.688 987
-406.25 140.625 901
-484.375 132.812 891
-156.25 78.125 913
335.938 -15.625 984
46.875 -390.625 1169
-148.438 15.625 967
-78.125 15.625 943
390.625 23.4375 943
-23.4375 273.438 1044
-78.125 359.375 1214
-117.188 -62.5 946
-203.125 320.312 1268
-210.938 367.188 1206
-195.312 382.812 1210
-179.688 359.375 1232
203.125 54.6875 933
382.812 -39.0625 973
-132.812 312.5 1273
39.0625 -15.625 1025
-85.9375 -39.0625 928
-164.062 78.125 913
-210.938 382.812 1197
-437.5 109.375 896
429.688 359.375 1370
460.938 -187.5 920
-312.5 93.75 903
328.125 343.75 1359
62.5 0 992
-460.938 -320.312 2812
-148.438 390.625 1177
148.438 203.125 1757
171.875 -421.875 989
179.688 289.062 1609
-15.625 273.438 1044
156.25 429.688 1232
-273.438 343.75 1223
-148.438 242.188 967
-140.625 343.75 1236
-195.312 -85.9375 1060
-265.625 367.188 1223
382.812 -203.125 946
-156.25 289.062 1034
-273.438 367.188 1202
-117.188 -46.875 938
304.688 312.5 1458
242.188 -179.688 925
-7.8125 375 1458
0 -320.312 3037
445.312 -250 1010
39.0625 359.375 1189
140.625 312.5 1210
31.25 359.375 1193
-164.062 335.938 1232
-78.125 289.062 1044
31.25 -23.4375 959
-85.9375 351.562 1210
312.5 -31.25 970
234.375 -179.688 925
-125 31.25 946
250 -398.438 989
-484.375 289.062 2028
-125 -46.875 946
-242.188 296.875 1031
-93.75 375 1181
-62.5 -156.25 940
-195.312 304.688 1034
250 23.4375 938
-31.25 -203.125 984
-109.375 328.125 1273
398.438 -54.6875 967
-234.375 320.312 1038
-148.438 335.938 1268
-85.9375 375 1181
-195.312 343.75 1236
54.6875 -320.312 1214
-171.875 117.188 915
-218.75 390.625 1177
367.188 -15.625 973
-257.812 -179.688 1044
-250 296.875 1031
-500 -367.188 2701
101.562 -164.062 920
54.6875 93.75 925
0 101.562 923
468.75 31.25 954
-437.5 -195.312 2933
-273.438 -179.688 1057
390.625 242.188 1464
343.75 289.062 1365
-101.562 70.3125 915
210.938 -179.688 928
-171.875 -218.75 1161
-78.125 328.125 1255
296.875 -23.4375 970
-15.625 351.562 1219
7.8125 320.312 1250
93.75 7.8125 956
-453.125 -273.438 2883
-54.6875 343.75 1214
-242.188 125 913
23.4375 335.938 1250
-375 304.688 1019
171.875 -382.812 975
-171.875 78.125 913
46.875 367.188 1189
-15.625 328.125 1250
-468.75 -367.188 2767
179.688 39.0625 928
-242.188 343.75 1245
101.562 -437.5 1153
-187.5 304.688 1034
109.375 -164.062 918
-54.6875 -179.688 956
-62.5 -179.688 954
-156.25 359.375 1206
-125 359.375 1210
-156.25 320.312 1264
210.938 -437.5 2984
-257.812 -23.4375 1097
265.625 343.75 1445
148.438 -421.875 1157
210.938 -257.812 1038
-148.438 343.75 1241
-179.688 -171.875 943
406.25 7.8125 946
210.938 -7.8125 967
-132.812 343.75 1232
-226.562 320.312 1038
187.5 -171.875 920
273.438 -31.25 962
-289.062 390.625 1169
-54.6875 328.125 1245
125 -359.375 992
148.438 85.9375 930
484.375 -54.6875 978
-164.062 382.812 1177
-203.125 343.75 1245
-273.438 328.125 1264
-70.3125 304.688 1050
-70.3125 -195.312 954
-187.5 382.812 1206
-156.25 367.188 1206
-23.4375 367.188 1219
-62.5 -7.8125 933
-93.75 31.25 962
257.812 -15.625 970
-265.625 343.75 1241
-31.25 343.75 1250
-445.312 164.062 946
328.125 70.3125 1016
187.5 -406.25 981
-164.062 289.062 1034
-500 -453.125 2639
-250 218.75 981
-140.625 -15.625 943
-250 85.9375 913
-62.5 -195.312 954
-265.625 390.625 1161
31.25 -78.125 962
-242.188 398.438 1173
-296.875 390.625 1197
156.25 -414.062 978
39.0625 70.3125 918
85.9375 -289.062 1268
156.25 203.125 1757
296.875 328.125 1387
320.312 70.3125 1016
-226.562 390.625 1173
-62.5 -39.0625 923
-460.938 -242.188 2767
250 226.562 1688
218.75 -242.188 1044
289.062 -382.812 1189
-250 398.438 1169
-132.812 359.375 1210
-273.438 390.625 1202
31.25 -218.75 1077
203.125 234.375 1696
-257.812 343.75 1241
-429.688 -164.062 2984
-15.625 -23.4375 935
-250 109.375 908
-257.812 296.875 1025
-257.812 367.188 1202
156.25 -265.625 1016
-148.438 289.062 1038
-109.375 70.3125 915
0 -39.0625 935
-78.125 -7.8125 935
-164.062 359.375 1206
-109.375 93.75 915
-289.062 289.062 1019
54.6875 -23.4375 1028
-62.5 -164.062 954
62.5 359.375 1197
414.062 375 1359
-85.9375 23.4375 981
-125 382.812 1173
-437.5 -171.875 2933
132.812 359.375 1202
23.4375 -93.75 959
-85.9375 -164.062 946
203.125 195.312 1776
-203.125 437.5 1392
226.562 -242.188 1047
-7.8125 -39.0625 935
-85.9375 -187.5 938
-164.062 296.875 1038
195.312 78.125 981
406.25 -203.125 938
54.6875 -343.75 1185
-85.9375 328.125 1241
-39.0625 62.5 923
-320.312 328.125 1250
-15.625 320.312 1250
-242.188 351.562 1241
-218.75 328.125 1278
-78.125 281.25 1038
351.562 351.562 1338
-70.3125 312.5 1283
-210.938 -117.188 1031
117.188 -85.9375 918
-382.812 -140.625 1433
179.688 -367.188 984
-382.812 304.688 1019
-468.75 109.375 896
-179.688 -39.0625 1060
-242.188 226.562 967
-54.6875 312.5 1594
-500 125 889
-70.3125 -85.9375 925
-62.5 351.562 1214
-281.25 132.812 908
-140.625 23.4375 964
-31.25 250 1028
85.9375 -421.875 1153
-250 343.75 1245
359.375 -46.875 967
-265.625 296.875 1025
234.375 -312.5 1019
93.75 -382.812 1149
-39.0625 -203.125 984
-445.312 -210.938 2908
101.562 0 948
320.312 -195.312 940
343.75 257.812 1477
-39.0625 101.562 920
-46.875 62.5 920
0 343.75 1219
0 78.125 918
31.25 -210.938 1070
-46.875 289.062 1047
-250 375 1202
-257.812 -78.125 1063
-273.438 367.188 1202
-93.75 335.938 1241
-54.6875 289.062 1050
195.312 234.375 1705
-453.125 -281.25 2883
-62.5 367.188 1210
-171.875 382.812 1206
101.562 15.625 962
-164.062 -242.188 1161
-226.562 375 1206
242.188 -351.562 1004
398.438 296.875 1343
179.688 -273.438 1022
140.625 -226.562 1041
320.312 -39.0625 967
78.125 -132.812 898
-164.062 320.312 1273
484.375 -70.3125 973
359.375 -351.562 1090
-210.938 78.125 918
-179.688 382.812 1202
78.125 46.875 925
31.25 335.938 1219
0 375 1458
-281.25 390.625 1202
-242.188 85.9375 910
23.4375 367.188 1193
39.0625 320.312 1264
117.188 421.875 1181
-70.3125 335.938 1245
31.25 -343.75 1206
421.875 -203.125 938
296.875 15.625 940
218.75 -367.188 992
-70.3125 -39.0625 925
-23.4375 -140.625 948
46.875 320.312 1259
31.25 54.6875 923
-164.062 -195.312 1161
7.8125 343.75 1227
-320.312 132.812 903
39.0625 343.75 1219
23.4375 359.375 1193
437.5 -140.625 935
-148.438 367.188 1210
7.8125 -62.5 946
85.9375 -156.25 908
-54.6875 -109.375 933
-453.125 -250 2812
-125 390.625 1173
-320.312 93.75 903
-148.438 296.875 1041
-117.188 -54.6875 943
-281.25 367.188 1202
78.125 -421.875 1153
-312.5 117.188 903
-195.312 -109.375 1010
-62.5 375 1181
70.3125 -289.062 1255
-54.6875 -195.312 964
-476.562 -312.5 2812
-476.562 -429.688 2680
445.312 -46.875 975
-468.75 -375 2744
195.312 -335.938 1001
-460.938 -328.125 2812
242.188 -375 995
-437.5 -218.75 2958
117.188 226.562 1776
93.75 0 948
117.188 312.5 1572
-70.3125 359.375 1210
296.875 -15.625 975
203.125 -164.062 910
-7.8125 -54.6875 935
-335.938 375 1153
-54.6875 -7.8125 930
70.3125 0 951
445.312 -187.5 920
-70.3125 382.812 1181
-132.812 -46.875 946
39.0625 -375 1177
39.0625 265.625 1047
-179.688 320.312 1273
218.75 39.0625 933
-437.5 406.25 1739
-250 273.438 1016
-476.562 -421.875 2701
-265.625 367.188 1223
39.0625 -390.625 1173
-39.0625 328.125 1250
132.812 39.0625 925
195.312 -171.875 920
242.188 -15.625 967
-31.25 328.125 1250
7.8125 367.188 1193
210.938 -359.375 995
-250 125 910
23.4375 -234.375 1141
-156.25 367.188 1206
54.6875 335.938 1232
39.0625 312.5 1268
335.938 -195.312 940
-242.188 218.75 981
-453.125 -289.062 2859
242.188 -437.5 3010
54.6875 101.562 970
-7.8125 -132.812 981
179.688 -234.375 1038
-117.188 296.875 1038
-148.438 -164.062 928
-445.312 -234.375 2933
-164.062 -54.6875 1038
-78.125 -93.75 925
-226.562 398.438 1165
-421.875 -93.75 1297
-171.875 289.062 1034
-171.875 359.375 1232
-218.75 320.312 1297
-85.9375 281.25 1038
-171.875 -31.25 1087
148.438 46.875 925
-109.375 109.375 918
-343.75 156.25 951
-15.625 281.25 1050
156.25 7.8125 967
-195.312 406.25 1173
156.25 -421.875 1165
-148.438 390.625 1177
-390.625 125 898
-492.188 -109.375 2301
-226.562 -109.375 1057
-492.188 109.375 903
218.75 -273.438 1031
-156.25 343.75 1241
-93.75 351.562 1206
218.75 -296.875 1019
390.625 296.875 1404
-132.812 31.25 954
156.25 -164.062 908
390.625 250 1464
23.4375 93.75 925
-203.125 304.688 1034
-281.25 328.125 1264
210.938 -398.438 981
335.938 328.125 1381
-23.4375 343.75 1223
-132.812 203.125 998
234.375 -437.5 2984
-265.625 195.312 975
203.125 -335.938 1001
-78.125 -39.0625 925
-242.188 375 1202
78.125 -390.625 1153
-125 320.312 1273
62.5 312.5 1264
46.875 343.75 1223
-234.375 351.562 1241
-93.75 281.25 1038
398.438 250 1458
171.875 -375 981
-335.938 390.625 1130
132.812 -437.5 1157
-304.688 148.438 954
-31.25 125 973
-492.188 -421.875 2680
-179.688 -62.5 1050
-257.812 375 1202
54.6875 320.312 1259
-23.4375 -15.625 938
109.375 210.938 1025
-484.375 -210.938 2503
203.125 -250 1038
-85.9375 -140.625 928
453.125 -54.6875 975
109.375 -250 1063
-312.5 343.75 1245
-62.5 15.625 938
117.188 -273.438 1050
414.062 -351.562 3120
-85.9375 375 1181
-15.625 -132.812 995
-62.5 304.688 1057
-429.688 -187.5 3010
429.688 -343.75 3178
-23.4375 -62.5 933
-187.5 296.875 1034
132.812 -429.688 1153
-460.938 210.938 962
46.875 -15.625 1022
281.25 210.938 2090
-85.9375 -171.875 940
-101.562 -39.0625 933
-78.125 359.375 1214
-304.688 335.938 1259
-257.812 343.75 1241
78.125 -281.25 1227
226.562 -15.625 964
-148.438 -93.75 1004
250 -367.188 1001
367.188 -179.688 918
-46.875 101.562 920
-54.6875 375 1181
-156.25 335.938 1255
171.875 -312.5 1004
31.25 242.188 1034
-250 -140.625 1070
171.875 -187.5 956
-132.812 382.812 1169
-23.4375 367.188 1219
203.125 -406.25 984
421.875 -46.875 973
-250 -187.5 1034
140.625 -7.8125 951
-421.875 140.625 896
-179.688 117.188 915
-296.875 390.625 1197
-289.062 390.625 1169
-15.625 343.75 1219
-203.125 390.625 1173
132.812 437.5 1232
-62.5 -109.375 933
312.5 -39.0625 964
-31.25 -210.938 1016
-242.188 -62.5 1070
-445.312 -242.188 2933
-23.4375 320.312 1250
460.938 -304.688 1028
-296.875 132.812 903
-234.375 -62.5 1050
-31.25 375 1189
-101.562 93.75 913
289.062 -187.5 928
-421.875 132.812 898
273.438 -257.812 1041
93.75 -164.062 920
242.188 195.312 1776
242.188 -367.188 998
203.125 -179.688 930
70.3125 -257.812 1185
-54.6875 351.562 1214
-148.438 343.75 1241
437.5 -62.5 967
78.125 351.562 1138
-23.4375 273.438 1044
-15.625 351.562 1219
-93.75 328.125 1241
296.875 62.5 938
-234.375 398.438 1165
-210.938 -23.4375 1073
242.188 23.4375 938
-218.75 -23.4375 1070
187.5 0 962
-101.562 328.125 1241
-203.125 -93.75 1063
273.438 -31.25 962
-109.375 -171.875 935
54.6875 343.75 1223
132.812 234.375 2078
-125 335.938 1245
39.0625 273.438 1050
-218.75 382.812 1185
85.9375 -398.438 1153
-289.062 328.125 1259
-164.062 289.062 1034
-54.6875 382.812 1177
-226.562 367.188 1206
-406.25 101.562 901
-437.5 -203.125 2958
187.5 31.25 933
359.375 250 1477
-85.9375 -46.875 928
-62.5 -210.938 1054
148.438 -203.125 995
-250 351.562 1236
-7.8125 101.562 918
-31.25 15.625 987
62.5 281.25 1050
-156.25 289.062 1034
-85.9375 -171.875 940
31.25 359.375 1193
-476.562 -382.812 2744
226.562 -179.688 930
-234.375 148.438 964
117.188 15.625 956
125 -445.312 1157
7.8125 242.188 1028
-460.938 -320.312 2812
-179.688 -164.062 938
-179.688 359.375 1232
46.875 289.062 1050
-164.062 -156.25 928
-195.312 304.688 1034
-62.5 312.5 1283
343.75 54.6875 946
-218.75 343.75 1245
-85.9375 351.562 1210
117.188 -390.625 987
-78.125 328.125 1255
-218.75 -109.375 1047
437.5 -257.812 1031
429.688 -265.625 1031
-476.562 -414.062 2701
-234.375 390.625 1165
179.688 296.875 1601
-109.375 -164.062 933
23.4375 -78.125 956
-257.812 398.438 1169
-406.25 414.062 1073
257.812 -187.5 938
-132.812 312.5 1273
-140.625 320.312 1264
-31.25 -46.875 925
179.688 -382.812 978
289.062 -218.75 1001
-281.25 390.625 1202
85.9375 -437.5 1153
148.438 -414.062 978
-7.8125 375 1458
-85.9375 -7.8125 933
-164.062 367.188 1206
-281.25 367.188 1202
-46.875 -195.312 964
359.375 -39.0625 970
-414.062 125 896
-109.375 375 1206
-234.375 -31.25 1073
-125 -156.25 930
7.8125 54.6875 925
-375 93.75 908
-7.8125 328.125 1250
164.062 -148.438 906
195.312 -406.25 984
-117.188 351.562 1241
-187.5 78.125 915
-46.875 312.5 1594
281.25 -15.625 967
-343.75 140.625 903
-156.25 -171.875 928
-328.125 382.812 1130
-78.125 -210.938 1077
-242.188 398.438 1173
218.75 -437.5 2958
70.3125 7.8125 973
15.625 54.6875 925
-195.312 359.375 1210
-46.875 281.25 1044
-101.562 -23.4375 930
-375 281.25 1007
-70.3125 109.375 918
-203.125 -23.4375 1080
-328.125 359.375 1149
-226.562 328.125 1273
-265.625 343.75 1241
-70.3125 -7.8125 930
-140.625 398.438 1169
-148.438 -101.562 995
-101.562 109.375 915
164.062 -414.062 978
-31.25 343.75 1250
-437.5 -179.688 2933
-140.625 382.812 1177
-421.875 54.6875 975
-257.812 109.375 906
-226.562 390.625 1173
-304.688 390.625 1197
-85.9375 15.625 943
492.188 -70.3125 973
195.312 31.25 930
320.312 85.9375 1031
-296.875 -140.625 1398
-85.9375 -179.688 938
-70.3125 296.875 1050
-15.625 328.125 1250
-156.25 304.688 1038
-335.938 117.188 901
-210.938 390.625 1173
-78.125 -171.875 946
476.562 -242.188 964
46.875 367.188 1189
-429.688 414.062 1731
-85.9375 328.125 1241
-382.812 140.625 901
-140.625 359.375 1210
203.125 -218.75 1022
15.625 312.5 1288
-218.75 390.625 1177
-468.75 -31.25 1149
-429.688 125 894
78.125 -156.25 908
-62.5 -179.688 954
140.625 367.188 1206
-273.438 273.438 1013
-328.125 93.75 903
-171.875 359.375 1232
-273.438 367.188 1202
-234.375 -171.875 1010
-265.625 367.188 1223
179.688 -195.312 973
312.5 320.312 1445
242.188 54.6875 938
-39.0625 -148.438 940
-7.8125 -23.4375 938
296.875 164.062 1757
210.938 -171.875 918
23.4375 -429.688 1210
-164.062 335.938 1232
-328.125 132.812 903
-148.438 335.938 1268
195.312 195.312 1776
-70.3125 -39.0625 925
-187.5 -15.625 1067
-39.0625 320.312 1250
-375 101.562 901
-179.688 382.812 1202
-171.875 382.812 1206
-62.5 46.875 940
-125 46.875 954
-85.9375 359.375 1210
-31.25 -15.625 933
-210.938 -31.25 1057
-70.3125 312.5 1283
-93.75 312.5 1273
70.3125 -359.375 1165
-445.312 148.438 940
-445.312 -15.625 1112
289.062 -273.438 1130
-132.812 359.375 1210
148.438 -359.375 981
0 343.75 1219
398.438 -54.6875 967
156.25 0 959
-117.188 375 1197
375 359.375 1333
171.875 -7.8125 956
-234.375 382.812 1202
-226.562 125 913
-500 -429.688 2659
226.562 -23.4375 962
171.875 -289.062 1013
148.438 0 956
-367.188 179.688 962
31.25 -406.25 1181
7.8125 31.25 959
265.625 203.125 1785
-195.312 296.875 1034
-187.5 335.938 1241
78.125 -328.125 1189
-140.625 -15.625 943
-250 343.75 1245
-156.25 -93.75 1004
-132.812 320.312 1268
-15.625 320.312 1250
-62.5 -46.875 923
-93.75 351.562 1206
0 359.375 1219
-156.25 390.625 1177
320.312 62.5 1004
-117.188 31.25 943
7.8125 312.5 1250
187.5 -265.625 1025
-140.625 312.5 1273
289.062 375 1415
15.625 320.312 1255
281.25 39.0625 938
242.188 -257.812 1041
-398.438 156.25 948
-242.188 390.625 1173
179.688 -406.25 981
39.0625 -437.5 1197
484.375 -39.0625 995
62.5 7.8125 981
-23.4375 351.562 1223
15.625 93.75 925
-117.188 -171.875 933
328.125 -195.312 940
335.938 -31.25 970
492.188 -54.6875 978
-226.562 320.312 1038
-171.875 289.062 1034
-234.375 367.188 1210
-46.875 343.75 1241
31.25 312.5 1273
218.75 -265.625 1034
-179.688 289.062 1034
140.625 0 956
23.4375 242.188 1031
-78.125 117.188 920
0 281.25 1054
289.062 -23.4375 970
375 296.875 1410
-125 -125 975
-273.438 343.75 1223
-62.5 328.125 1245
-375 -23.4375 1119
-101.562 375 1181
-296.875 390.625 1197
171.875 -367.188 984
-242.188 351.562 1241
187.5 -7.8125 959
164.062 203.125 1766
445.312 -210.938 948
-265.625 375 1202
226.562 -375 992
281.25 218.75 1696
195.312 -7.8125 962
-273.438 390.625 1202
-296.875 273.438 1010
-125 328.125 1273
367.188 296.875 1349
335.938 281.25 1433
46.875 -7.8125 1010
7.8125 101.562 923
375 -39.0625 973
171.875 -398.438 975
70.3125 -437.5 1165
-132.812 335.938 1232
-500 -375 2701
171.875 195.312 1766
54.6875 289.062 1050
-117.188 39.0625 956
-156.25 226.562 967
-210.938 304.688 1038
125 -281.25 1041
23.4375 312.5 1278
117.188 62.5 920
-414.062 101.562 903
-265.625 -171.875 1050
-85.9375 39.0625 956
-390.625 304.688 1019
-109.375 -179.688 933
335.938 257.812 1470
-187.5 382.812 1206
203.125 289.062 1609
179.688 -171.875 918
492.188 -218.75 943
54.6875 351.562 1223
-476.562 -437.5 2680
-140.625 23.4375 964
-179.688 359.375 1232
234.375 -15.625 967
-23.4375 101.562 923
-101.562 179.688 989
132.812 0 956
132.812 -218.75 1041
-93.75 375 1181
-23.4375 343.75 1223
-23.4375 320.312 1250
210.938 -437.5 2984
31.25 320.312 1264
-281.25 343.75 1259
-492.188 -398.438 2701
234.375 -351.562 1004
-132.812 -156.25 928
-226.562 -171.875 998
-54.6875 437.5 1381
-78.125 109.375 920
234.375 -179.688 925
-117.188 125 964
250 -406.25 989
-140.625 125 962
-109.375 359.375 1210
7.8125 -46.875 935
-453.125 -296.875 2859
320.312 78.125 1022
-101.562 -140.625 930
39.0625 -46.875 962
-125 -171.875 933
-226.562 343.75 1236
460.938 -296.875 1025
70.3125 -15.625 948
-39.0625 343.75 1241
390.625 -203.125 940
-421.875 101.562 903
351.562 -46.875 967
-234.375 156.25 964
-187.5 -171.875 943
320.312 93.75 1031
31.25 265.625 1047
-62.5 375 1181
-62.5 351.562 1214
-164.062 -171.875 928
-242.188 -132.812 1070
-250 -179.688 1034
-140.625 375 1210
-117.188 70.3125 915
-226.562 382.812 1206
289.062 -203.125 973
0 320.312 1250
-78.125 289.062 1044
31.25 343.75 1219
-93.75 281.25 1038
23.4375 359.375 1193
265.625 -265.625 1044
179.688 -7.8125 956
-164.062 -93.75 1001
-476.562 109.375 898
265.625 -15.625 967
-93.75 -179.688 933
320.312 320.312 1376
31.25 359.375 1193
-429.688 -164.062 2984
-257.812 85.9375 913
-257.812 125 913
-218.75 367.188 1206
-156.25 335.938 1255
-468.75 -382.812 2744
23.4375 335.938 1250
-117.188 93.75 915
-46.875 -187.5 964
-62.5 289.062 1050
-265.625 296.875 1025
218.75 289.062 1601
476.562 -265.625 995
-125 70.3125 918
140.625 -382.812 973
-23.4375 367.188 1219
-164.062 312.5 1038
78.125 -289.062 1278
-210.938 39.0625 973
-85.9375 289.062 1041
218.75 -242.188 1044
-101.562 -195.312 1105
-140.625 -62.5 970
-429.688 140.625 896
140.625 -7.8125 951
-187.5 -39.0625 1060
-257.812 343.75 1241
-218.75 -31.25 1054
125 359.375 1202
15.625 -39.0625 938
476.562 -70.3125 973
-7.8125 343.75 1219
-476.562 -320.312 2789
-273.438 398.438 1165
-132.812 -70.3125 962
-437.5 414.062 1713
-273.438 296.875 1025
281.25 -187.5 930
343.75 218.75 1543
484.375 406.25 1322
156.25 -226.562 1034
70.3125 0 951
125 429.688 1232
-421.875 125 896
-62.5 31.25 967
-187.5 210.938 995
-101.562 351.562 1241
78.125 -406.25 1153
-203.125 367.188 1210
-179.688 437.5 1398
-39.0625 367.188 1185
-31.25 320.312 1250
-148.438 15.625 967
320.312 210.938 1713
-343.75 132.812 903
-273.438 -437.5 2812
-156.25 343.75 1241
-242.188 320.312 1034
-101.562 -31.25 930
-171.875 320.312 1273
-23.4375 328.125 1250
-23.4375 -210.938 1001
148.438 437.5 1236
203.125 -7.8125 964
-15.625 132.812 978
343.75 -31.25 970
-46.875 85.9375 915
-54.6875 -187.5 956
-250 234.375 970
-54.6875 250 1025
195.312 -179.688 930
-335.938 93.75 906
-101.562 257.812 1025
-335.938 132.812 903
179.688 -15.625 956
-101.562 289.062 1041
-218.75 210.938 989
195.312 234.375 1705
-476.562 -429.688 2680
-85.9375 335.938 1241
-218.75 328.125 1278
-179.688 335.938 1245
-281.25 367.188 1202
-148.438 312.5 1044
39.0625 312.5 1268
-492.188 -429.688 2680
-195.312 382.812 1210
242.188 70.3125 938
-398.438 101.562 898
-250 382.812 1193
-265.625 125 910
-54.6875 62.5 920
-78.125 335.938 1241
-187.5 359.375 1210
-148.438 320.312 1264
-85.9375 -187.5 938
-117.188 359.375 1210
-62.5 -148.438 935
-156.25 312.5 1292
-164.062 343.75 1232
132.812 -7.8125 951
-445.312 -250 2908
15.625 343.75 1223
195.312 -320.312 1010
-148.438 382.812 1181
-148.438 117.188 915
320.312 -31.25 970
-187.5 117.188 915
156.25 -437.5 1169
265.625 328.125 1410
-70.3125 375 1181
-109.375 31.25 943
-125 -54.6875 948
-39.0625 375 1185
328.125 70.3125 1016
-85.9375 46.875 948
-242.188 367.188 1202
-101.562 281.25 1038
-226.562 -31.25 1060
-132.812 296.875 1041
-460.938 -328.125 2812
-281.25 296.875 1025
-54.6875 -179.688 956
-62.5 -187.5 954
-453.125 -281.25 2883
-343.75 93.75 908
-31.25 273.438 1044
414.062 -46.875 973
460.938 31.25 954
125 70.3125 925
-78.125 -164.062 948
-468.75 -390.625 2744
-250 375 1202
-117.188 -179.688 933
-429.688 -156.25 2984
31.25 -429.688 1197
-70.3125 351.562 1210
398.438 242.188 1464
343.75 -351.562 1077
125 0 954
-289.062 296.875 1022
-312.5 390.625 1197
-31.25 343.75 1250
-171.875 335.938 1268
218.75 -351.562 1001
-125 31.25 946
453.125 -281.25 1031
-148.438 289.062 1038
312.5 -195.312 943
-218.75 140.625 962
-78.125 -195.312 954
-117.188 109.375 920
-117.188 289.062 1041
-257.812 195.312 978
-187.5 -109.375 1001
-234.375 328.125 1273
-164.062 335.938 1232
453.125 -289.062 1031
-156.25 320.312 1264
-54.6875 289.062 1050
39.0625 343.75 1219
-500 -335.938 2198
250 -187.5 938
-140.625 382.812 1177
343.75 -195.312 935
-203.125 265.625 1019
250 -343.75 1010
70.3125 85.9375 923
-171.875 359.375 1232
-265.625 343.75 1241
195.312 289.062 1609
-203.125 335.938 1255
-468.75 -273.438 2835
62.5 46.875 930
31.25 -421.875 1193
-296.875 390.625 1197
187.5 -406.25 981
-414.062 406.25 1073
-453.125 -289.062 2859
-351.562 -148.438 1452
-421.875 406.25 1073
-31.25 367.188 1185
-78.125 -70.3125 923
421.875 39.0625 951
328.125 54.6875 946
-164.062 367.188 1206
-437.5 140.625 898
-210.938 359.375 1241
54.6875 312.5 1268
-398.438 140.625 901
273.438 -187.5 933
-70.3125 70.3125 915
171.875 -234.375 1038
-226.562 -109.375 1057
-101.562 -164.062 933
-445.312 140.625 901
289.062 15.625 940
320.312 70.3125 1016
265.625 195.312 1785
-437.5 -93.75 1312
-156.25 367.188 1206
140.625 85.9375 930
-500 109.375 898
-257.812 375 1202
226.562 -179.688 930
148.438 -429.688 1161
-218.75 343.75 1245
-125 -109.375 967
-179.688 320.312 1273
-39.0625 -109.375 943
-62.5 -109.375 933
-460.938 -335.938 2767
-85.9375 -156.25 948
-93.75 335.938 1241
-429.688 101.562 903
-31.25 -85.9375 930
-148.438 359.375 1206
-70.3125 15.625 989
-85.9375 382.812 1181
-257.812 351.562 1232
-234.375 390.625 1165
148.438 -171.875 928
23.4375 -62.5 951
171.875 -171.875 923
296.875 195.312 1785
-78.125 304.688 1050
70.3125 -335.938 1185
-23.4375 351.562 1223
-62.5 -195.312 954
398.438 -203.125 943
132.812 351.562 1202
390.625 -54.6875 967
156.25 -421.875 1165
0 367.188 1219
-257.812 398.438 1169
117.188 226.562 1776
-117.188 -46.875 938
265.625 -7.8125 981
164.062 -164.062 908
265.625 -31.25 962
-78.125 312.5 1278
125 -414.062 984
-101.562 375 1181
-390.625 109.375 894
-468.75 -375 2744
140.625 234.375 2078
-93.75 328.125 1241
-453.125 406.25 1731
-437.5 125 894
-101.562 -54.6875 933
-492.188 -367.188 2701
-257.812 359.375 1227
148.438 203.125 1757
-281.25 375 1202
-203.125 296.875 1034
125 -156.25 906
-250 351.562 1236
31.25 335.938 1219
-54.6875 -156.25 940
195.312 -382.812 984
304.688 203.125 2090
-265.625 85.9375 913
-179.688 382.812 1202
78.125 7.8125 956
85.9375 -164.062 928
-242.188 -39.0625 1105
70.3125 46.875 928
-234.375 367.188 1210
226.562 -23.4375 962
-23.4375 375 1189
39.0625 93.75 923
125 -164.062 915
-390.625 93.75 913
-140.625 359.375 1210
31.25 -54.6875 956
-273.438 351.562 1223
0 281.25 1054
132.812 312.5 1214
-320.312 312.5 1028
187.5 -343.75 992
-304.688 390.625 1197
179.688 289.062 1609
46.875 70.3125 918
132.812 -164.062 915
-85.9375 -78.125 925
-226.562 343.75 1236
-140.625 335.938 1236
-140.625 -39.0625 943
375 -203.125 946
-250 -117.188 1105
109.375 7.8125 956
-171.875 70.3125 920
-125 109.375 918
39.0625 296.875 1292
-31.25 -109.375 943
23.4375 265.625 1047
-31.25 296.875 1054
140.625 359.375 1206
-109.375 375 1206
-109.375 281.25 1038
257.812 -156.25 910
39.0625 320.312 1264
-187.5 382.812 1206
125 -234.375 1077
-492.188 -414.062 2680
-500 -398.438 2723
-203.125 320.312 1268
0 54.6875 925
-179.688 78.125 913
101.562 -414.062 1149
-195.312 210.938 995
54.6875 70.3125 920
-296.875 296.875 1022
-179.688 101.562 913
46.875 359.375 1189
-304.688 273.438 1010
382.812 296.875 1404
-250 398.438 1169
-468.75 -335.938 2789
-39.0625 -15.625 930
-15.625 -23.4375 935
218.75 -15.625 962
-453.125 -250 2812
-273.438 343.75 1223
-70.3125 289.062 1047
-453.125 -257.812 2883
320.312 171.875 1776
-39.0625 273.438 1041
85.9375 0 948
-218.75 359.375 1245
23.4375 359.375 1193
-195.312 359.375 1210
7.8125 343.75 1227
-117.188 -23.4375 933
70.3125 234.375 1034
-39.0625 -101.562 935
-250 390.625 1169
-343.75 117.188 898
460.938 -210.938 943
335.938 343.75 1349
-156.25 390.625 1177
414.062 -187.5 920
171.875 54.6875 925
390.625 234.375 1464
-148.438 -46.875 946
-468.75 -289.062 2835
-164.062 390.625 1177
-54.6875 -85.9375 925
-179.688 289.062 1034
31.25 359.375 1193
-54.6875 281.25 1044
-468.75 -281.25 2835
-15.625 375 1483
-218.75 304.688 1038
-296.875 312.5 1022
-148.438 375 1210
31.25 312.5 1273
-320.312 390.625 1177
-281.25 343.75 1259
-85.9375 -171.875 940
-500 -62.5 1232
-445.312 -257.812 2908
-171.875 367.188 1202
109.375 -273.438 1041
-85.9375 328.125 1241
187.5 195.312 1766
-125 296.875 1041
468.75 -210.938 940
-242.188 210.938 984
-273.438 375 1197
140.625 -140.625 903
93.75 -273.438 1227
156.25 -414.062 978
-281.25 398.438 1165
-437.5 -210.938 2958
-85.9375 359.375 1210
-117.188 -140.625 943
-23.4375 320.312 1250
-195.312 78.125 915
-62.5 281.25 1044
-257.812 78.125 923
-109.375 382.812 1181
-164.062 296.875 1038
-23.4375 281.25 1050
-54.6875 101.562 918
195.312 -304.688 1013
-39.0625 -46.875 925
312.5 -39.0625 964
-234.375 343.75 1245
0 93.75 923
453.125 -335.938 3120
-203.125 359.375 1241
-39.0625 304.688 1601
7.8125 93.75 923
-7.8125 78.125 918
-109.375 203.125 975
-31.25 328.125 1250
250 -328.125 1016
429.688 -210.938 959
-453.125 140.625 898
0 -46.875 935
-46.875 328.125 1241
-85.9375 312.5 1268
-429.688 -179.688 3010
-148.438 382.812 1181
-257.812 210.938 984
132.812 -453.125 1173
39.0625 367.188 1189
-31.25 351.562 1223
-187.5 289.062 1034
-460.938 -312.5 2835
31.25 343.75 1219
-484.375 398.438 1739
-132.812 -109.375 970
-257.812 -85.9375 1101
-39.0625 281.25 1047
203.125 -390.625 984
421.875 15.625 946
-109.375 179.688 989
-445.312 406.25 1739
-195.312 -85.9375 1060
398.438 7.8125 946
-421.875 -23.4375 1126
-109.375 -109.375 967
-382.812 109.375 894
-273.438 296.875 1025
-54.6875 -70.3125 923
-132.812 382.812 1169
-85.9375 304.688 1047
210.938 289.062 1609
-257.812 -156.25 1063
54.6875 359.375 1189
-250 367.188 1202
-265.625 351.562 1227
-500 398.438 1748
-320.312 132.812 903
-140.625 -31.25 940
39.0625 -7.8125 1013
109.375 15.625 962
-54.6875 -46.875 923
-273.438 -187.5 1077
0 -31.25 935
-187.5 359.375 1210
7.8125 78.125 918
-164.062 304.688 1038
39.0625 -7.8125 1013
382.812 -203.125 946
476.562 -242.188 964
-460.938 -343.75 2767
-140.625 203.125 995
-187.5 320.312 1273
140.625 -171.875 930
117.188 109.375 998
437.5 -250 1050
226.562 195.312 1776
78.125 -156.25 908
-39.0625 7.8125 935
-31.25 -132.812 946
179.688 -15.625 956
265.625 359.375 1445
23.4375 335.938 1250
460.938 -62.5 973
218.75 -23.4375 959
-109.375 -39.0625 935
-312.5 390.625 1197
-171.875 335.938 1268
265.625 -31.25 962
-78.125 382.812 1181
414.062 39.0625 954
414.062 304.688 1359
15.625 335.938 1250
398.438 -54.6875 967
-296.875 164.062 962
-132.812 -62.5 956
-39.0625 -23.4375 925
328.125 -31.25 970
382.812 -195.312 928
-85.9375 -54.6875 925
-250 328.125 1268
-250 164.062 970
250 414.062 1365
250 335.938 1470
343.75 7.8125 946
54.6875 -320.312 1214
-468.75 -382.812 2744
-492.188 398.438 1748
468.75 -54.6875 975
265.625 -23.4375 967
-250 210.938 984
203.125 -335.938 1001
-195.312 382.812 1210
-140.625 -148.438 925
-492.188 117.188 891
39.0625 -406.25 1177
375 390.625 1349
-39.0625 117.188 970
304.688 -406.25 3037
46.875 15.625 973
-179.688 367.188 1206
328.125 257.812 1458
31.25 273.438 1050
23.4375 -335.938 1232
-101.562 351.562 1241
-203.125 382.812 1210
-54.6875 335.938 1245
-210.938 304.688 1038
-62.5 117.188 967
93.75 7.8125 956
-70.3125 -109.375 933
-148.438 335.938 1268
-242.188 328.125 1268
-429.688 -171.875 2933
218.75 -179.688 928
429.688 -257.812 1031
46.875 -203.125 1028
234.375 226.562 1696
-93.75 328.125 1241
289.062 -234.375 1044
-312.5 273.438 1010
-156.25 117.188 915
-265.625 -171.875 1050
234.375 0 970
-351.562 93.75 908
-195.312 -78.125 1063
54.6875 296.875 1292
406.25 -54.6875 970
-234.375 242.188 967
-125 117.188 918
-250 195.312 981
390.625 296.875 1404
-476.562 195.312 954
-148.438 312.5 1044
-31.25 320.312 1250
39.0625 15.625 975
-265.625 375 1202
-179.688 335.938 1245
-195.312 343.75 1236
46.875 93.75 967
-117.188 -132.812 933
23.4375 -7.8125 1016
-226.562 304.688 1038
-226.562 -117.188 1054
132.812 -406.25 978
-62.5 -179.688 954
437.5 -62.5 967
179.688 -328.125 1001
421.875 273.438 1410
-421.875 375 1057
140.625 -414.062 975
-85.9375 335.938 1241
125 -226.562 1067
-304.688 140.625 951
-296.875 148.438 954
-421.875 242.188 984
429.688 -62.5 970
-148.438 320.312 1264
367.188 -39.0625 970
-7.8125 320.312 1255
-250 320.312 1034
-140.625 296.875 1041
351.562 -46.875 967
125 -7.8125 948
-179.688 -62.5 1050
328.125 93.75 1713
0 351.562 1219
-46.875 -70.3125 923
-15.625 343.75 1219
484.375 -70.3125 973
375 296.875 1410
-320.312 351.562 1227
-445.312 -242.188 2933
-234.375 375 1206
-156.25 0 967
-117.188 296.875 1038
-164.062 -46.875 1038
-125 289.062 1038
-54.6875 351.562 1214
23.4375 -257.812 1202
-70.3125 -62.5 923
375 39.0625 946
-39.0625 367.188 1185
-273.438 85.9375 913
-234.375 210.938 987
31.25 367.188 1193
-171.875 289.062 1034
242.188 -187.5 938
-242.188 367.188 1202
164.062 -7.8125 956
187.5 78.125 975
-93.75 -171.875 933
-171.875 -93.75 1001
210.938 -242.188 1041
-156.25 320.312 1264
-242.188 125 913
0 273.438 1047
-234.375 125 913
-70.3125 375 1181
-437.5 -23.4375 1126
-453.125 -296.875 2859
-257.812 390.625 1169
-281.25 296.875 1025
210.938 -156.25 908
39.0625 375 1189
-93.75 304.688 1047
-101.562 328.125 1241
-109.375 375 1206
-23.4375 445.312 1365
-93.75 15.625 940
-304.688 320.312 1028
7.8125 -250 1185
132.812 -7.8125 951
343.75 -398.438 3064
-226.562 78.125 923
-312.5 367.188 1223
195.312 -226.562 1044
-101.562 281.25 1038
-468.75 -250 2744
39.0625 296.875 1292
421.875 -289.062 1189
-210.938 328.125 1268
-250 390.625 1169
-93.75 335.938 1241
-476.562 -437.5 2680
15.625 -39.0625 938
7.8125 -273.438 1223
140.625 421.875 1219
-78.125 351.562 1214
-164.062 320.312 1273
-156.25 382.812 1177
-148.438 343.75 1241
-70.3125 -179.688 948
484.375 -218.75 967
-7.8125 367.188 1214
242.188 -7.8125 981
-187.5 335.938 1241
132.812 -171.875 933
257.812 0 970
117.188 0 951
-242.188 320.312 1034
-15.625 -54.6875 935
-93.75 39.0625 959
-210.938 382.812 1197
117.188 429.688 1236
187.5 -179.688 933
468.75 -70.3125 973
-54.6875 15.625 935
320.312 101.562 1713
-70.3125 -164.062 954
-140.625 23.4375 964
-351.562 -164.062 1470
-195.312 117.188 915
-70.3125 -195.312 954
-195.312 359.375 1210
-15.625 351.562 1219
-54.6875 320.312 1523
23.4375 343.75 1219
-195.312 289.062 1034
-281.25 85.9375 913
156.25 -359.375 984
-70.3125 312.5 1283
320.312 -23.4375 973
-109.375 312.5 1278
93.75 -421.875 1149
234.375 -203.125 984
-78.125 375 1181
-62.5 289.062 1050
7.8125 359.375 1223
-117.188 132.812 970
-23.4375 328.125 1250
171.875 -398.438 975
-296.875 273.438 1010
-46.875 -171.875 959
289.062 320.312 1404
-101.562 375 1181
78.125 367.188 1165
-93.75 375 1181
-93.75 -187.5 933
-273.438 -179.688 1057
-132.812 -187.5 1157
-156.25 -179.688 1165
23.4375 375 1193
-367.188 156.25 951
234.375 -367.188 995
187.5 234.375 1713
281.25 187.5 1776
187.5 406.25 1398
398.438 296.875 1343
203.125 -343.75 998
-39.0625 -70.3125 925
453.125 -242.188 984
-70.3125 289.062 1047
195.312 -296.875 1019
78.125 195.312 1016
-132.812 257.812 1022
445.312 -54.6875 975
62.5 -437.5 1169
-54.6875 250 1025
-23.4375 132.812 978
-460.938 -250 2767
-203.125 328.125 1268
148.438 7.8125 964
-187.5 296.875 1034
-437.5 -156.25 2933
-164.062 382.812 1177
-148.438 250 1019
-101.562 -23.4375 930
-140.625 -117.188 984
148.438 -414.062 978
195.312 -257.812 1031
-203.125 -117.188 1016
31.25 265.625 1047
-140.625 -46.875 943
23.4375 335.938 1250
335.938 281.25 1433
-85.9375 109.375 918
-39.0625 -187.5 967
15.625 359.375 1227
-257.812 304.688 1028
-476.562 -328.125 2767
281.25 -406.25 3037
-445.312 171.875 951
-171.875 343.75 1232
-140.625 390.625 1173
476.562 -250 962
-117.188 -468.75 2859
-289.062 156.25 956
-328.125 414.062 1138
273.438 -23.4375 967
0 109.375 967
-320.312 390.625 1177
437.5 -46.875 975
-85.9375 382.812 1181
-210.938 296.875 1034
-78.125 15.625 943
-484.375 -375 2701
132.812 -414.062 978
445.312 -328.125 1302
-281.25 343.75 1259
-484.375 -23.4375 1138
-23.4375 375 1189
109.375 0 951
445.312 -31.25 992
23.4375 359.375 1193
-109.375 281.25 1038
125 -382.812 978
-281.25 304.688 1028
-39.0625 343.75 1241
-250 148.438 962
15.625 -70.3125 948
54.6875 85.9375 925
-132.812 351.562 1232
171.875 -7.8125 956
-7.8125 359.375 1214
-453.125 -273.438 2883
-265.625 390.625 1161
203.125 -156.25 908
-39.0625 273.438 1041
-203.125 390.625 1173
23.4375 312.5 1278
156.25 -367.188 978
-39.0625 320.312 1250
203.125 -406.25 984
-429.688 156.25 946
-421.875 101.562 903
-7.8125 335.938 1245
242.188 -289.062 1031
-242.188 343.75 1245
-7.8125 15.625 978
15.625 335.938 1250
0 242.188 1028
-476.562 -343.75 2789
