ply
format ascii 1.0
comment Created by Open3D
element vertex 2408
property double x
property double y
property double z
end_header
-289.062 -390.625 849
-375 312.5 800
-398.438 273.438 823
-140.625 54.6875 717
-179.688 -250 766
-265.625 -226.562 802
390.625 -148.438 736
414.062 -281.25 653
-218.75 -367.188 928
164.062 -109.375 829
460.938 375 714
-429.688 -234.375 738
-437.5 -250 728
-429.688 -445.312 837
70.3125 226.562 819
-343.75 -398.438 829
-148.438 62.5 730
132.812 39.0625 827
54.6875 312.5 778
-320.312 -265.625 813
421.875 -296.875 642
7.8125 359.375 722
-460.938 -203.125 727
62.5 296.875 783
-406.25 265.625 827
-406.25 296.875 811
-500 -148.438 749
-210.938 -476.562 3064
-304.688 -335.938 796
210.938 -54.6875 967
203.125 -39.0625 956
-500 132.812 727
-218.75 -218.75 746
414.062 -265.625 661
-234.375 -320.312 823
-359.375 -265.625 809
367.188 -62.5 809
203.125 -54.6875 928
-7.8125 375 698
359.375 23.4375 873
148.438 93.75 885
-445.312 -351.562 849
476.562 85.9375 837
-273.438 101.562 696
-54.6875 312.5 611
-398.438 -164.062 789
-187.5 -242.188 761
-257.812 -328.125 906
187.5 0 935
-257.812 -312.5 825
-164.062 -164.062 827
406.25 -218.75 688
-156.25 -164.062 869
203.125 -195.312 889
-101.562 62.5 725
-390.625 -54.6875 821
-242.188 -281.25 835
257.812 -164.062 1047
148.438 7.8125 847
-164.062 62.5 700
101.562 164.062 847
218.75 23.4375 918
-203.125 -445.312 3120
257.812 -179.688 995
-273.438 125 671
140.625 117.188 871
179.688 -15.625 906
195.312 -203.125 860
109.375 171.875 845
171.875 15.625 880
382.812 -117.188 762
-218.75 117.188 708
-179.688 -257.812 769
421.875 -382.812 643
-148.438 39.0625 716
132.812 125 869
-15.625 398.438 700
156.25 -117.188 798
-312.5 398.438 1381
-250 93.75 698
171.875 39.0625 915
218.75 -78.125 981
195.312 -15.625 940
218.75 390.625 727
-312.5 -195.312 747
-492.188 -140.625 754
117.188 125 827
-125 54.6875 714
203.125 -218.75 873
468.75 -320.312 609
-437.5 320.312 823
-296.875 234.375 658
-210.938 265.625 638
-453.125 234.375 849
70.3125 70.3125 706
367.188 -39.0625 821
-281.25 -257.812 809
15.625 179.688 661
445.312 -320.312 620
39.0625 320.312 774
-62.5 343.75 622
218.75 -226.562 880
-304.688 -406.25 841
359.375 7.8125 862
62.5 85.9375 700
15.625 343.75 727
-218.75 -328.125 1025
39.0625 289.062 789
-460.938 -210.938 723
-171.875 -289.062 794
-375 375 1359
-460.938 343.75 1489
226.562 -273.438 915
398.438 -179.688 716
-359.375 -414.062 825
-484.375 281.25 831
85.9375 242.188 811
414.062 -296.875 647
-203.125 -101.562 831
359.375 15.625 871
-234.375 117.188 693
125 117.188 831
-226.562 281.25 659
179.688 23.4375 923
-335.938 -164.062 896
125 54.6875 821
-429.688 -70.3125 798
-289.062 -453.125 856
-257.812 62.5 698
156.25 -23.4375 854
-187.5 -414.062 3092
226.562 -93.75 992
187.5 -15.625 940
93.75 179.688 837
-125 0 761
-320.312 -382.812 835
-468.75 148.438 716
-195.312 -234.375 757
-484.375 328.125 1509
187.5 -187.5 845
-453.125 156.25 710
210.938 -70.3125 978
-281.25 148.438 671
-257.812 -320.312 825
257.812 156.25 841
445.312 -382.812 631
203.125 273.438 783
-218.75 -367.188 928
453.125 -398.438 641
-281.25 132.812 671
429.688 -281.25 643
226.562 -164.062 964
218.75 -85.9375 987
-421.875 312.5 811
117.188 -31.25 754
210.938 -54.6875 967
125 -46.875 762
117.188 70.3125 817
164.062 62.5 898
-242.188 -265.625 847
335.938 -421.875 2522
156.25 78.125 889
-265.625 -343.75 803
117.188 171.875 845
-62.5 335.938 612
-234.375 140.625 698
-195.312 -421.875 3092
-390.625 -148.438 802
-445.312 -406.25 841
-460.938 -85.9375 794
-242.188 62.5 694
-242.188 -257.812 851
-328.125 -273.438 811
-250 62.5 697
70.3125 281.25 792
-195.312 -304.688 807
-296.875 -312.5 800
-242.188 -289.062 833
179.688 0 935
-273.438 -250 811
-257.812 78.125 700
-320.312 -257.812 813
203.125 -46.875 964
414.062 -273.438 657
-101.562 -15.625 766
-382.812 234.375 746
226.562 -101.562 1001
-429.688 -437.5 837
46.875 328.125 771
-265.625 -351.562 878
390.625 -140.625 741
78.125 257.812 803
164.062 31.25 915
-335.938 -250 807
187.5 -164.062 839
148.438 46.875 862
195.312 -15.625 940
93.75 226.562 819
-39.0625 367.188 657
250 -156.25 998
-203.125 -15.625 694
-257.812 -250 849
-39.0625 289.062 618
359.375 0 856
148.438 -15.625 851
39.0625 328.125 771
-15.625 242.188 637
-234.375 109.375 693
156.25 -93.75 792
-382.812 -398.438 823
-273.438 -359.375 867
-218.75 281.25 641
-421.875 -367.188 833
-445.312 -390.625 841
-250 -367.188 887
382.812 -93.75 774
406.25 -210.938 693
-296.875 -367.188 849
-203.125 -476.562 3037
-484.375 273.438 831
23.4375 328.125 725
429.688 70.3125 869
359.375 -7.8125 849
-367.188 -382.812 827
-406.25 -296.875 871
-265.625 -289.062 827
-429.688 -78.125 789
-437.5 -429.688 839
-429.688 -109.375 769
-468.75 -257.812 723
-132.812 15.625 723
195.312 -179.688 847
-367.188 -406.25 825
-429.688 -320.312 858
210.938 -210.938 913
-273.438 257.812 659
382.812 -109.375 764
390.625 -132.812 744
-304.688 101.562 683
-218.75 -210.938 747
54.6875 101.562 696
164.062 -132.812 813
132.812 -62.5 769
250 -140.625 1025
109.375 179.688 839
468.75 390.625 696
93.75 23.4375 728
39.0625 351.562 761
-242.188 23.4375 723
-367.188 -93.75 849
-54.6875 359.375 641
-148.438 -281.25 964
-179.688 -296.875 798
39.0625 343.75 764
351.562 15.625 873
171.875 15.625 880
-500 265.625 837
101.562 15.625 733
-421.875 -382.812 831
179.688 -171.875 837
171.875 -125 819
148.438 85.9375 889
-296.875 -304.688 802
109.375 148.438 854
-304.688 -289.062 802
-421.875 -218.75 757
-476.562 148.438 717
-492.188 -54.6875 841
-23.4375 250 632
-421.875 -54.6875 811
437.5 -320.312 623
-359.375 -390.625 827
-437.5 -257.812 727
-46.875 375 662
-351.562 289.062 813
-171.875 289.062 629
-492.188 273.438 833
109.375 187.5 837
-117.188 320.312 619
54.6875 312.5 778
-320.312 242.188 680
85.9375 242.188 811
-476.562 -257.812 723
-382.812 -78.125 825
-414.062 -54.6875 811
375 -70.3125 792
179.688 0 935
-296.875 -320.312 800
-148.438 109.375 707
-257.812 -210.938 741
62.5 296.875 783
234.375 -109.375 1004
125 31.25 825
164.062 -109.375 829
109.375 -7.8125 742
156.25 -15.625 854
148.438 -101.562 792
-242.188 54.6875 697
85.9375 195.312 835
179.688 23.4375 923
78.125 195.312 835
-398.438 -421.875 823
117.188 171.875 845
54.6875 296.875 785
-476.562 -39.0625 829
460.938 -414.062 653
15.625 398.438 741
492.188 421.875 664
39.0625 132.812 682
-429.688 359.375 1470
-273.438 -265.625 819
-312.5 109.375 682
140.625 85.9375 887
-484.375 -62.5 831
-453.125 296.875 823
453.125 -351.562 614
-359.375 -359.375 833
-312.5 -281.25 805
210.938 -54.6875 967
242.188 -125 1016
-429.688 179.688 700
-7.8125 406.25 738
148.438 101.562 880
-437.5 -421.875 839
101.562 164.062 847
414.062 15.625 823
179.688 -429.688 2701
-296.875 -203.125 746
62.5 273.438 796
187.5 -15.625 940
125 156.25 851
398.438 -171.875 719
437.5 -375 628
-367.188 -273.438 889
140.625 -85.9375 781
-429.688 -234.375 738
-351.562 -343.75 839
-445.312 -398.438 841
156.25 78.125 889
210.938 -234.375 885
-164.062 46.875 710
-460.938 -187.5 727
179.688 -140.625 819
93.75 46.875 722
429.688 -335.938 620
187.5 7.8125 928
140.625 117.188 871
429.688 -304.688 632
-437.5 164.062 704
-242.188 -273.438 843
125 117.188 831
-187.5 70.3125 704
187.5 -156.25 839
164.062 62.5 898
273.438 179.688 827
382.812 -101.562 771
85.9375 226.562 819
-382.812 -132.812 807
234.375 -421.875 2639
23.4375 359.375 757
414.062 -257.812 664
23.4375 382.812 747
140.625 23.4375 841
351.562 23.4375 903
359.375 0 856
-234.375 257.812 643
-273.438 39.0625 754
-179.688 93.75 691
164.062 -429.688 2723
-265.625 -257.812 843
-250 -296.875 829
101.562 203.125 829
70.3125 226.562 819
335.938 -398.438 2579
23.4375 164.062 667
-179.688 85.9375 691
-335.938 210.938 675
78.125 242.188 811
453.125 -406.25 648
31.25 148.438 674
-468.75 -242.188 714
429.688 78.125 864
-304.688 -203.125 747
-359.375 -406.25 825
-265.625 23.4375 727
414.062 62.5 875
-335.938 -234.375 803
-445.312 -359.375 849
-234.375 -265.625 847
406.25 -273.438 661
-265.625 39.0625 704
-187.5 46.875 704
226.562 -93.75 992
-304.688 -335.938 796
125 46.875 821
101.562 7.8125 736
-156.25 -468.75 2984
132.812 31.25 827
23.4375 -273.438 930
406.25 -203.125 696
-281.25 242.188 655
140.625 0 843
195.312 -31.25 954
429.688 -273.438 647
359.375 -23.4375 839
-226.562 -234.375 744
-437.5 -257.812 727
218.75 -70.3125 978
-296.875 -445.312 849
382.812 -140.625 746
-445.312 351.562 1483
195.312 -15.625 940
406.25 -218.75 688
-39.0625 390.625 683
195.312 -203.125 860
210.938 15.625 923
390.625 -171.875 723
-437.5 -54.6875 817
203.125 -195.312 889
70.3125 257.812 803
203.125 -218.75 873
101.562 210.938 827
-132.812 328.125 646
179.688 -218.75 867
-414.062 -203.125 759
453.125 -398.438 641
-390.625 -54.6875 821
31.25 343.75 764
-203.125 -453.125 3092
-187.5 39.0625 701
-398.438 179.688 691
-421.875 -312.5 860
93.75 226.562 819
7.8125 359.375 722
-7.8125 382.812 697
-445.312 -320.312 873
-281.25 -320.312 807
-414.062 179.688 696
0 218.75 646
23.4375 171.875 666
-484.375 140.625 723
-359.375 -351.562 835
398.438 -195.312 706
-304.688 125 682
-367.188 -101.562 854
-414.062 -304.688 864
-265.625 -242.188 805
414.062 -250 668
-109.375 -15.625 766
-375 -78.125 837
375 -62.5 803
148.438 -15.625 851
78.125 54.6875 716
148.438 -23.4375 851
-156.25 -203.125 898
179.688 0 935
429.688 -328.125 622
-234.375 -242.188 819
-46.875 320.312 611
-445.312 -406.25 841
429.688 -289.062 642
-250 250 647
-281.25 -304.688 815
-312.5 -289.062 802
-429.688 171.875 700
117.188 132.812 823
-31.25 273.438 624
-429.688 -437.5 837
445.312 -312.5 623
156.25 -117.188 798
-203.125 -226.562 752
-234.375 -257.812 856
187.5 -140.625 869
-460.938 328.125 1503
171.875 46.875 908
210.938 -203.125 910
-171.875 -257.812 771
148.438 70.3125 896
-421.875 171.875 698
375 -70.3125 792
-234.375 -210.938 746
226.562 -242.188 894
-406.25 -437.5 827
179.688 -164.062 833
-125 39.0625 716
-265.625 85.9375 703
-46.875 304.688 613
15.625 335.938 727
171.875 -148.438 819
492.188 101.562 829
-367.188 -281.25 882
367.188 -23.4375 835
78.125 265.625 802
-218.75 -359.375 915
-460.938 156.25 710
-320.312 218.75 667
-257.812 -335.938 896
-484.375 312.5 1523
445.312 -382.812 631
-445.312 -367.188 847
218.75 -250 898
132.812 101.562 835
-265.625 -250 847
-429.688 -242.188 995
85.9375 39.0625 722
203.125 -46.875 964
-250 -398.438 878
390.625 -125 749
390.625 -140.625 741
-445.312 -398.438 841
-484.375 -109.375 781
-429.688 -375 835
140.625 85.9375 887
-148.438 7.8125 720
-234.375 -375 906
-226.562 -343.75 1047
367.188 -31.25 825
359.375 7.8125 862
-445.312 -171.875 742
195.312 -171.875 847
453.125 -390.625 635
-273.438 -437.5 864
-398.438 195.312 688
-171.875 -468.75 3010
-390.625 359.375 815
-445.312 -375 841
156.25 -7.8125 854
-218.75 125 706
-281.25 234.375 657
-195.312 -476.562 3010
406.25 -210.938 693
-218.75 -218.75 746
-7.8125 226.562 643
109.375 195.312 833
156.25 54.6875 860
70.3125 70.3125 706
-304.688 226.562 663
-500 -343.75 1427
460.938 -281.25 629
-148.438 296.875 623
367.188 226.562 794
-257.812 -328.125 906
-242.188 140.625 698
-39.0625 312.5 613
132.812 140.625 860
390.625 -132.812 744
148.438 101.562 880
125 156.25 851
218.75 -70.3125 978
-382.812 -406.25 823
-351.562 203.125 678
-226.562 109.375 700
-265.625 -367.188 869
-398.438 -171.875 783
-296.875 -312.5 800
-273.438 -257.812 833
179.688 23.4375 923
156.25 85.9375 887
-117.188 -15.625 767
-234.375 148.438 693
140.625 125 867
460.938 -406.25 647
-414.062 -62.5 802
-445.312 296.875 819
421.875 85.9375 860
445.312 -375 627
335.938 -164.062 1034
-187.5 -304.688 807
429.688 -265.625 650
375 -62.5 803
-203.125 -304.688 811
421.875 -281.25 648
-210.938 101.562 698
468.75 85.9375 839
-171.875 70.3125 696
-437.5 -257.812 727
382.812 -93.75 774
-234.375 -250 858
-437.5 -421.875 839
-289.062 132.812 687
-453.125 187.5 731
-242.188 -265.625 847
15.625 343.75 727
-289.062 -289.062 805
242.188 -125 1016
7.8125 398.438 741
109.375 -7.8125 742
203.125 -31.25 954
-437.5 312.5 823
187.5 7.8125 928
-218.75 46.875 698
-437.5 -382.812 839
-492.188 132.812 727
-195.312 -250 762
-250 -312.5 827
-437.5 -125 759
-234.375 250 647
-109.375 78.125 716
-445.312 156.25 710
-218.75 257.812 643
-273.438 335.938 787
-445.312 -382.812 841
210.938 -62.5 975
367.188 31.25 873
234.375 -109.375 1004
-234.375 23.4375 716
-476.562 140.625 720
171.875 46.875 908
-179.688 -125 839
-187.5 281.25 635
468.75 93.75 851
195.312 -195.312 854
203.125 -187.5 847
78.125 218.75 821
-437.5 -335.938 851
-460.938 -156.25 734
242.188 -195.312 987
421.875 -320.312 628
-437.5 -242.188 730
-39.0625 359.375 649
-476.562 156.25 717
398.438 -179.688 716
-390.625 382.812 1452
414.062 -242.188 672
-250 -367.188 887
359.375 15.625 871
-500 -156.25 742
390.625 -125 749
-445.312 -390.625 841
101.562 210.938 827
-242.188 -218.75 746
-320.312 -210.938 747
-382.812 367.188 1328
-132.812 0 761
210.938 -46.875 962
398.438 -164.062 723
-132.812 39.0625 720
-203.125 7.8125 691
164.062 39.0625 913
-257.812 31.25 728
226.562 -265.625 910
406.25 -195.312 700
-367.188 210.938 682
-140.625 -250 935
70.3125 234.375 815
-148.438 23.4375 714
62.5 85.9375 700
-375 -375 827
-414.062 171.875 698
-140.625 93.75 714
179.688 31.25 915
195.312 -7.8125 938
-171.875 85.9375 687
62.5 296.875 783
-132.812 -468.75 2984
46.875 312.5 776
-328.125 -234.375 809
-234.375 -234.375 819
164.062 31.25 915
-140.625 109.375 704
46.875 335.938 767
-140.625 101.562 710
-265.625 78.125 704
-164.062 54.6875 706
-304.688 218.75 666
93.75 54.6875 719
226.562 -85.9375 987
-343.75 -101.562 851
375 -54.6875 807
-54.6875 343.75 627
-250 -343.75 898
-242.188 257.812 644
-226.562 -234.375 744
-250 335.938 781
367.188 -39.0625 821
-117.188 -23.4375 771
367.188 -23.4375 835
171.875 23.4375 923
93.75 210.938 825
-429.688 164.062 706
31.25 367.188 754
-273.438 -281.25 829
-242.188 -382.812 889
187.5 -179.688 845
31.25 312.5 736
-382.812 187.5 687
-289.062 -296.875 805
-39.0625 289.062 618
62.5 109.375 700
156.25 85.9375 887
164.062 62.5 898
-195.312 -460.938 3092
-453.125 -335.938 864
-437.5 -226.562 739
-375 -273.438 889
164.062 -101.562 833
382.812 -85.9375 780
31.25 156.25 672
-242.188 -273.438 843
-257.812 -265.625 841
7.8125 195.312 655
54.6875 109.375 693
-15.625 -343.75 1004
-367.188 195.312 683
312.5 -406.25 2560
-242.188 -296.875 827
-312.5 140.625 704
187.5 -23.4375 948
-453.125 -218.75 727
250 -140.625 1025
148.438 -343.75 2744
-351.562 -335.938 843
93.75 179.688 837
-179.688 -117.188 839
85.9375 234.375 815
117.188 54.6875 817
-281.25 -320.312 807
-437.5 -265.625 1019
-445.312 -375 841
62.5 -375 2835
-359.375 -367.188 831
-445.312 -414.062 841
421.875 -289.062 643
390.625 -117.188 754
-500 -171.875 730
492.188 93.75 819
-54.6875 -382.812 2908
-46.875 351.562 637
0 234.375 632
-226.562 132.812 703
-500 257.812 841
-117.188 0 761
-460.938 148.438 714
-320.312 -257.812 813
-296.875 296.875 769
-421.875 -335.938 843
-429.688 -242.188 995
-250 -351.562 889
70.3125 281.25 792
-367.188 -367.188 829
210.938 -226.562 880
375 -140.625 754
-429.688 -367.188 837
156.25 -109.375 798
-320.312 226.562 666
257.812 -414.062 2639
406.25 -203.125 696
78.125 265.625 802
421.875 -273.438 653
148.438 -93.75 789
-476.562 -62.5 827
-460.938 289.062 825
132.812 140.625 860
-312.5 226.562 666
-273.438 -187.5 744
-328.125 -390.625 835
234.375 -101.562 998
-429.688 -226.562 739
-484.375 -187.5 713
460.938 335.938 733
437.5 -382.812 636
-375 -187.5 925
-250 -289.062 833
-414.062 -312.5 856
-195.312 265.625 638
62.5 281.25 792
-414.062 335.938 1255
226.562 -93.75 992
148.438 -85.9375 783
54.6875 265.625 800
312.5 281.25 771
-429.688 -437.5 837
-429.688 -210.938 752
195.312 -210.938 862
-492.188 46.875 776
-187.5 -445.312 3120
70.3125 265.625 800
-382.812 375 1359
-195.312 -476.562 3010
-148.438 7.8125 720
-429.688 -429.688 835
-156.25 70.3125 730
140.625 -78.125 780
0 375 708
-210.938 54.6875 697
187.5 15.625 925
-304.688 -343.75 790
15.625 398.438 741
-500 -343.75 1427
171.875 -117.188 849
-281.25 -265.625 809
453.125 -390.625 635
210.938 -203.125 910
234.375 226.562 805
-445.312 -359.375 849
187.5 0 935
-421.875 273.438 825
210.938 -210.938 913
484.375 62.5 817
132.812 46.875 827
54.6875 320.312 774
-156.25 62.5 733
367.188 -15.625 839
-328.125 375 1333
148.438 7.8125 847
-390.625 -289.062 873
-437.5 -445.312 839
-484.375 -289.062 1302
-390.625 -156.25 794
382.812 -85.9375 780
179.688 31.25 915
7.8125 203.125 653
93.75 46.875 722
-343.75 -132.812 789
-289.062 -351.562 790
-414.062 367.188 1464
375 -54.6875 807
-148.438 -7.8125 700
367.188 -23.4375 835
320.312 242.188 790
117.188 179.688 839
-359.375 -273.438 894
-421.875 -226.562 757
320.312 -273.438 2503
-468.75 -62.5 821
187.5 -148.438 871
-437.5 265.625 829
-445.312 -382.812 841
54.6875 257.812 802
-7.8125 390.625 707
304.688 257.812 783
-78.125 46.875 728
23.4375 382.812 747
-148.438 -250 938
-265.625 15.625 727
-429.688 250 839
-328.125 359.375 781
210.938 -46.875 962
-242.188 -351.562 901
-195.312 15.625 691
343.75 -46.875 833
359.375 7.8125 862
-367.188 -265.625 901
-414.062 -70.3125 798
-320.312 -351.562 794
-351.562 406.25 1427
171.875 -140.625 819
257.812 -156.25 1038
179.688 7.8125 928
-273.438 101.562 696
-234.375 -226.562 744
-320.312 -226.562 819
-312.5 -210.938 746
187.5 -156.25 839
-156.25 -226.562 918
218.75 -62.5 975
-54.6875 328.125 612
492.188 -15.625 738
-296.875 234.375 658
-351.562 -398.438 825
-296.875 -320.312 800
-7.8125 -343.75 1004
226.562 -85.9375 987
-164.062 -429.688 3120
70.3125 234.375 815
164.062 70.3125 896
148.438 70.3125 896
156.25 85.9375 887
398.438 -226.562 688
390.625 -125 749
414.062 -234.375 676
39.0625 140.625 678
78.125 218.75 821
218.75 -78.125 981
218.75 -218.75 880
-328.125 -226.562 809
93.75 187.5 835
-398.438 -296.875 871
101.562 171.875 843
-421.875 367.188 1464
421.875 -296.875 642
304.688 210.938 809
375 -46.875 807
203.125 -210.938 873
54.6875 0 739
93.75 -46.875 761
406.25 -226.562 684
31.25 304.688 734
-54.6875 -195.312 875
210.938 -62.5 975
101.562 -62.5 767
39.0625 296.875 783
398.438 -140.625 736
-429.688 304.688 813
125 156.25 851
-484.375 -453.125 3433
-328.125 -265.625 811
-265.625 46.875 703
-242.188 -281.25 835
-296.875 -328.125 798
-250 132.812 668
-148.438 -468.75 2984
-273.438 85.9375 703
-54.6875 367.188 652
140.625 125 867
-320.312 390.625 1381
-343.75 421.875 1410
-234.375 414.062 766
140.625 31.25 835
-265.625 23.4375 727
234.375 -109.375 1004
-210.938 7.8125 693
390.625 -109.375 759
-250 31.25 727
468.75 -414.062 650
-187.5 15.625 691
-460.938 46.875 771
148.438 15.625 851
179.688 -132.812 854
39.0625 351.562 761
85.9375 46.875 719
-62.5 -351.562 1019
125 62.5 821
-382.812 -140.625 803
-140.625 -468.75 2984
187.5 -7.8125 938
78.125 -390.625 2908
187.5 7.8125 928
78.125 203.125 831
398.438 -171.875 719
406.25 -195.312 700
148.438 -7.8125 847
-195.312 46.875 704
164.062 -125 811
-476.562 281.25 831
-187.5 -23.4375 700
-296.875 226.562 661
-406.25 375 1458
46.875 125 686
-164.062 -468.75 3010
-320.312 -273.438 813
-492.188 -335.938 1365
-414.062 -85.9375 789
-179.688 23.4375 693
156.25 54.6875 860
0 382.812 711
117.188 62.5 815
-468.75 320.312 1509
242.188 -125 1016
-429.688 -351.562 841
-242.188 -359.375 894
-156.25 101.562 686
-140.625 85.9375 719
390.625 -117.188 754
460.938 -398.438 638
-125 0 761
492.188 -15.625 738
-117.188 23.4375 727
-234.375 85.9375 693
-7.8125 234.375 638
-140.625 62.5 720
109.375 156.25 851
85.9375 250 805
23.4375 171.875 666
-46.875 304.688 613
-437.5 -414.062 837
-195.312 281.25 636
125 54.6875 821
429.688 -343.75 620
-257.812 -335.938 896
-234.375 54.6875 694
-445.312 164.062 707
-203.125 -476.562 3037
125 70.3125 823
-414.062 -210.938 757
-281.25 -179.688 742
382.812 -85.9375 780
-421.875 -445.312 829
406.25 -187.5 704
156.25 0 854
-437.5 -343.75 849
-335.938 -195.312 755
-148.438 -164.062 867
-203.125 101.562 700
-140.625 15.625 722
46.875 281.25 790
117.188 70.3125 817
-406.25 -195.312 771
-39.0625 320.312 625
93.75 234.375 815
195.312 -31.25 954
-468.75 335.938 1496
-445.312 335.938 1227
-398.438 367.188 1302
195.312 -164.062 839
-218.75 -218.75 746
70.3125 289.062 789
15.625 351.562 761
-421.875 -421.875 831
453.125 -382.812 629
-453.125 -335.938 864
414.062 -226.562 679
-328.125 -218.75 757
-171.875 54.6875 704
-367.188 -85.9375 845
226.562 -234.375 894
85.9375 203.125 829
-320.312 -281.25 815
-234.375 -281.25 835
0 210.938 648
460.938 -140.625 698
398.438 -148.438 730
179.688 -156.25 831
-125 -15.625 767
242.188 -117.188 1010
-281.25 -273.438 809
203.125 -23.4375 948
179.688 31.25 915
-320.312 -250 811
-226.562 257.812 642
429.688 -320.312 624
429.688 -320.312 624
-453.125 343.75 1489
-218.75 -359.375 915
-429.688 -250 1001
-62.5 -460.938 2908
-226.562 -328.125 1028
-195.312 7.8125 690
382.812 -78.125 785
-382.812 -62.5 829
62.5 304.688 781
117.188 140.625 860
218.75 -62.5 975
-320.312 -390.625 835
-437.5 -265.625 1019
132.812 31.25 827
31.25 367.188 754
-304.688 -351.562 790
328.125 273.438 774
210.938 -218.75 880
-250 -312.5 827
-273.438 -273.438 819
210.938 273.438 783
382.812 -93.75 774
421.875 -265.625 654
-367.188 -343.75 835
-93.75 62.5 723
-171.875 70.3125 696
250 -132.812 1022
-23.4375 406.25 701
156.25 -23.4375 854
-296.875 -343.75 789
125 46.875 821
-234.375 101.562 696
-500 -250 720
-257.812 -234.375 858
117.188 179.688 839
171.875 23.4375 923
234.375 -101.562 998
-343.75 210.938 676
62.5 250 805
-132.812 62.5 719
-304.688 132.812 707
-453.125 250 841
-187.5 -250 762
-210.938 85.9375 696
171.875 54.6875 903
-476.562 140.625 720
218.75 -210.938 918
-46.875 421.875 731
-281.25 -453.125 862
-234.375 -335.938 918
-484.375 140.625 723
-140.625 23.4375 720
0 218.75 646
109.375 195.312 833
-492.188 -148.438 747
-46.875 359.375 646
125 125 827
359.375 0 856
-429.688 -195.312 755
-257.812 -343.75 891
-54.6875 -375 2908
-421.875 265.625 831
367.188 -15.625 839
460.938 -234.375 652
-429.688 -85.9375 785
-359.375 -281.25 885
-265.625 -359.375 873
125 -382.812 2859
195.312 -7.8125 938
-390.625 218.75 716
-257.812 -226.562 802
-273.438 -304.688 815
437.5 -335.938 618
226.562 -257.812 908
54.6875 320.312 774
-273.438 -257.812 833
-218.75 -351.562 1054
476.562 -125 701
62.5 -242.188 898
375 -46.875 807
-312.5 -273.438 813
-250 -320.312 827
-187.5 273.438 635
-242.188 250 648
-367.188 -242.188 973
-359.375 -390.625 827
-203.125 -226.562 752
-234.375 31.25 706
148.438 -7.8125 847
-390.625 -304.688 856
-234.375 -250 858
-304.688 -218.75 839
429.688 -257.812 657
-265.625 242.188 654
39.0625 351.562 761
351.562 31.25 901
187.5 15.625 925
101.562 171.875 843
-140.625 78.125 722
218.75 -242.188 894
-429.688 -54.6875 815
-367.188 -109.375 860
296.875 -406.25 2579
-445.312 304.688 821
-15.625 250 632
187.5 -171.875 845
429.688 -296.875 640
-367.188 343.75 796
-203.125 -468.75 3064
148.438 109.375 875
-148.438 -179.688 880
132.812 109.375 875
390.625 -117.188 754
-414.062 -359.375 839
-492.188 304.688 1529
210.938 -226.562 871
398.438 -156.25 730
453.125 -382.812 634
-210.938 421.875 747
-351.562 203.125 678
-171.875 -148.438 825
195.312 -23.4375 915
414.062 -250 674
-273.438 -148.438 790
-234.375 -343.75 901
-148.438 85.9375 686
78.125 265.625 802
-226.562 -218.75 746
-445.312 156.25 710
-140.625 109.375 706
-367.188 -335.938 839
-320.312 -218.75 754
-31.25 375 662
54.6875 109.375 688
125 164.062 847
-500 140.625 727
-437.5 -351.562 858
-148.438 -242.188 773
-492.188 265.625 839
195.312 -187.5 843
-398.438 179.688 693
195.312 398.438 725
210.938 -39.0625 956
-429.688 -429.688 843
-414.062 -187.5 764
156.25 93.75 885
-15.625 421.875 731
-398.438 351.562 1288
-445.312 -367.188 858
414.062 -250 674
-375 -125 817
140.625 93.75 843
-210.938 -375 915
242.188 -265.625 915
375 -54.6875 809
-382.812 -414.062 825
-78.125 -453.125 2958
93.75 234.375 817
-148.438 -453.125 3037
-125 -7.8125 764
226.562 -78.125 984
-468.75 -85.9375 807
-171.875 -296.875 794
-234.375 -273.438 843
-445.312 171.875 708
85.9375 250 805
-421.875 -234.375 738
-265.625 -382.812 856
148.438 101.562 878
-484.375 273.438 837
-195.312 -257.812 766
-429.688 164.062 703
-445.312 -93.75 789
101.562 218.75 821
-312.5 -257.812 811
242.188 -179.688 981
437.5 -304.688 630
132.812 -46.875 761
-281.25 -351.562 794
-476.562 -164.062 734
-492.188 132.812 725
93.75 218.75 821
-359.375 195.312 684
-187.5 -453.125 3120
23.4375 390.625 742
-210.938 265.625 641
-484.375 148.438 723
-54.6875 -460.938 2908
-109.375 54.6875 713
-390.625 296.875 809
406.25 -179.688 711
468.75 -414.062 654
-62.5 335.938 610
-234.375 -257.812 851
-460.938 148.438 714
54.6875 117.188 687
132.812 148.438 854
414.062 -234.375 679
421.875 -273.438 654
179.688 39.0625 913
31.25 164.062 667
-437.5 -382.812 847
-31.25 390.625 687
203.125 -23.4375 948
109.375 156.25 798
-304.688 312.5 796
-484.375 156.25 725
-328.125 -187.5 761
-289.062 -304.688 800
-109.375 39.0625 716
460.938 -398.438 643
148.438 78.125 858
101.562 15.625 730
-398.438 -179.688 774
-414.062 312.5 809
-179.688 -242.188 757
-414.062 -328.125 851
7.8125 367.188 704
-242.188 164.062 687
-23.4375 265.625 627
-359.375 -382.812 827
-210.938 62.5 694
-453.125 -210.938 719
-31.25 281.25 621
-187.5 39.0625 704
210.938 -54.6875 923
-414.062 171.875 697
-492.188 -343.75 1381
-7.8125 -343.75 1007
132.812 23.4375 827
187.5 -148.438 823
-242.188 85.9375 697
-187.5 101.562 714
421.875 -257.812 663
398.438 -140.625 738
390.625 289.062 761
-148.438 -187.5 823
171.875 39.0625 910
156.25 62.5 864
406.25 -171.875 716
171.875 54.6875 903
-453.125 -367.188 869
-195.312 54.6875 698
-367.188 195.312 683
-234.375 -117.188 815
-273.438 -335.938 800
-304.688 -367.188 794
140.625 132.812 862
437.5 -312.5 625
195.312 0 935
-132.812 -468.75 2984
390.625 -109.375 762
328.125 250 785
414.062 -218.75 683
-281.25 234.375 655
171.875 -109.375 800
-164.062 -281.25 785
171.875 46.875 908
-148.438 0 696
-390.625 289.062 813
-398.438 -171.875 780
-210.938 -367.188 915
-187.5 -468.75 3037
-382.812 -78.125 819
117.188 -15.625 744
-382.812 187.5 687
15.625 351.562 757
-226.562 -421.875 894
-398.438 -375 831
-257.812 -281.25 831
-351.562 -421.875 825
54.6875 289.062 790
210.938 -195.312 858
195.312 406.25 722
-476.562 -226.562 703
-203.125 -460.938 3092
140.625 15.625 833
-195.312 273.438 635
-226.562 -242.188 823
421.875 -281.25 650
-484.375 -179.688 725
-492.188 320.312 1509
226.562 -226.562 903
-468.75 148.438 716
-257.812 -242.188 837
-289.062 -203.125 744
-218.75 31.25 706
31.25 156.25 670
-234.375 -218.75 742
-148.438 78.125 688
179.688 -125 811
414.062 -226.562 680
-187.5 -234.375 754
-250 109.375 690
-375 -234.375 967
-242.188 -289.062 833
39.0625 328.125 769
-296.875 125 680
-429.688 320.312 817
-343.75 203.125 676
-23.4375 -351.562 1016
54.6875 312.5 776
-46.875 -351.562 1019
242.188 -117.188 970
-179.688 281.25 631
-382.812 203.125 688
367.188 -7.8125 845
70.3125 289.062 789
-429.688 -148.438 752
-156.25 304.688 635
46.875 132.812 679
-46.875 328.125 612
-195.312 -468.75 3064
-320.312 -203.125 754
-437.5 164.062 704
187.5 -7.8125 903
-210.938 117.188 708
-187.5 289.062 638
-62.5 132.812 687
296.875 54.6875 896
46.875 335.938 767
62.5 304.688 781
-460.938 -85.9375 802
-406.25 -46.875 817
234.375 156.25 843
-421.875 171.875 700
210.938 -39.0625 956
414.062 -210.938 691
-421.875 -234.375 738
304.688 -46.875 956
218.75 -62.5 975
398.438 -140.625 738
109.375 0 736
226.562 -78.125 984
-500 -250 720
-484.375 -218.75 703
-460.938 -62.5 827
-218.75 39.0625 700
-242.188 257.812 647
398.438 -132.812 742
117.188 140.625 821
39.0625 335.938 766
210.938 257.812 790
70.3125 101.562 694
-320.312 -242.188 803
85.9375 234.375 813
-289.062 -320.312 800
312.5 -132.812 1019
187.5 15.625 925
-484.375 -171.875 731
242.188 -289.062 923
-320.312 -406.25 833
195.312 -164.062 837
54.6875 320.312 774
-195.312 -445.312 3120
-453.125 296.875 829
46.875 -414.062 2933
-242.188 -453.125 891
421.875 -304.688 638
-406.25 343.75 1278
125 140.625 860
-273.438 -203.125 742
382.812 -70.3125 792
164.062 -93.75 790
-398.438 203.125 708
7.8125 -453.125 2859
164.062 70.3125 896
-359.375 203.125 682
-226.562 125 704
-476.562 -171.875 730
-257.812 -234.375 802
335.938 -93.75 987
-414.062 -312.5 864
-226.562 132.812 701
-156.25 0 696
234.375 -93.75 992
-210.938 70.3125 693
-171.875 23.4375 691
-117.188 -468.75 2933
-484.375 -343.75 1370
359.375 15.625 869
125 39.0625 821
93.75 234.375 817
164.062 -23.4375 851
375 -62.5 805
125 -31.25 752
-39.0625 398.438 688
46.875 -335.938 987
-421.875 -320.312 862
421.875 -335.938 629
-421.875 -445.312 841
-296.875 -335.938 796
-375 -398.438 825
398.438 -148.438 733
460.938 -390.625 638
-93.75 -23.4375 767
421.875 -250 664
179.688 -156.25 825
156.25 -23.4375 849
171.875 -140.625 813
429.688 -304.688 634
164.062 39.0625 871
-500 -195.312 716
429.688 -328.125 625
429.688 -312.5 629
-375 -406.25 825
164.062 -101.562 790
382.812 -78.125 789
-484.375 -109.375 789
-93.75 -359.375 1034
468.75 -406.25 649
367.188 -140.625 757
445.312 156.25 821
-312.5 -210.938 747
-406.25 -304.688 869
-117.188 54.6875 714
125 70.3125 813
179.688 39.0625 913
-156.25 39.0625 708
203.125 -187.5 854
101.562 203.125 829
-281.25 -289.062 805
195.312 -187.5 843
-500 -257.812 725
-476.562 328.125 1503
78.125 85.9375 701
218.75 -234.375 880
-39.0625 296.875 614
390.625 -101.562 767
-187.5 281.25 634
359.375 -7.8125 847
148.438 -7.8125 845
-257.812 -250 845
187.5 -250 889
195.312 0 935
-328.125 -257.812 809
265.625 -164.062 1047
-414.062 -218.75 757
-39.0625 375 661
-164.062 -289.062 789
406.25 -179.688 711
-390.625 -195.312 774
-250 -328.125 803
-351.562 -179.688 915
-226.562 -375 896
85.9375 414.062 728
117.188 -281.25 925
23.4375 335.938 766
-421.875 -54.6875 823
-335.938 210.938 674
187.5 -140.625 815
375 -46.875 811
492.188 398.438 664
62.5 101.562 694
218.75 -54.6875 967
-234.375 -265.625 847
187.5 -171.875 833
203.125 -382.812 2789
132.812 148.438 854
351.562 -31.25 843
320.312 265.625 780
-257.812 250 649
-453.125 164.062 710
156.25 93.75 885
-140.625 414.062 739
-226.562 62.5 693
140.625 -93.75 787
-234.375 -31.25 789
406.25 -187.5 706
140.625 39.0625 831
-468.75 234.375 849
156.25 -101.562 790
-187.5 234.375 649
125 125 829
-359.375 -257.812 992
-70.3125 125 691
-203.125 273.438 636
78.125 78.125 700
15.625 125 683
-242.188 -351.562 889
-335.938 -171.875 829
218.75 -210.938 896
31.25 312.5 776
210.938 -218.75 869
148.438 -85.9375 778
375 -39.0625 815
-414.062 359.375 1477
-187.5 -226.562 752
-398.438 -296.875 875
-367.188 -85.9375 839
-328.125 312.5 800
-31.25 312.5 619
-304.688 -281.25 807
164.062 -117.188 800
312.5 -343.75 2639
-312.5 -390.625 835
-171.875 -250 764
125 93.75 815
-242.188 -281.25 833
-257.812 -351.562 796
-125 -468.75 2984
39.0625 156.25 670
-492.188 -156.25 749
-398.438 187.5 693
46.875 281.25 790
101.562 218.75 821
-132.812 23.4375 720
-414.062 328.125 821
367.188 -15.625 841
203.125 -203.125 858
171.875 31.25 873
367.188 -7.8125 845
398.438 -132.812 742
-453.125 156.25 711
-476.562 140.625 722
179.688 15.625 887
164.062 78.125 889
195.312 -15.625 943
398.438 -140.625 738
-218.75 125 704
-117.188 15.625 728
-226.562 140.625 697
-257.812 117.188 671
-234.375 93.75 696
-296.875 312.5 796
-46.875 179.688 666
-328.125 210.938 671
-296.875 226.562 661
140.625 -62.5 769
148.438 7.8125 843
382.812 -62.5 796
164.062 46.875 869
-445.312 -226.562 727
-164.062 46.875 707
296.875 39.0625 906
-351.562 -359.375 835
406.25 -164.062 720
78.125 273.438 796
218.75 -70.3125 935
468.75 0 778
70.3125 289.062 789
164.062 -15.625 858
132.812 54.6875 821
-312.5 218.75 666
250 -125 1016
-250 -320.312 807
312.5 -421.875 2541
-304.688 -265.625 819
382.812 -70.3125 792
453.125 -375 628
140.625 132.812 862
-242.188 -304.688 827
242.188 -109.375 1007
-359.375 -390.625 825
-289.062 -312.5 800
226.562 -250 894
437.5 -273.438 646
-406.25 179.688 694
-421.875 179.688 700
-171.875 -195.312 796
390.625 -101.562 767
-234.375 156.25 690
-257.812 78.125 706
-304.688 -195.312 747
390.625 -93.75 771
-437.5 242.188 845
-101.562 -7.8125 761
-7.8125 242.188 636
-375 -195.312 930
-140.625 15.625 717
234.375 -250 901
-210.938 -367.188 915
-414.062 250 835
187.5 0 889
171.875 -132.812 811
421.875 -265.625 658
382.812 -54.6875 800
367.188 -132.812 762
242.188 -257.812 918
-125 15.625 727
468.75 70.3125 833
-46.875 312.5 610
-500 304.688 1529
0 367.188 704
-39.0625 382.812 671
78.125 70.3125 704
414.062 -210.938 691
-390.625 187.5 688
414.062 -203.125 694
132.812 140.625 862
203.125 -15.625 946
226.562 -226.562 903
273.438 -312.5 2579
-132.812 54.6875 717
85.9375 257.812 803
-484.375 132.812 725
-500 -148.438 757
-281.25 -343.75 796
453.125 -289.062 630
31.25 320.312 773
70.3125 242.188 811
-437.5 -406.25 843
39.0625 304.688 781
-406.25 171.875 696
-304.688 -250 819
-468.75 281.25 827
210.938 -54.6875 923
-234.375 -289.062 833
85.9375 54.6875 711
109.375 187.5 837
-343.75 -406.25 829
-375 390.625 1381
-437.5 -359.375 856
-375 -70.3125 829
-226.562 -335.938 920
-375 -132.812 817
78.125 226.562 819
179.688 39.0625 913
-468.75 -109.375 780
421.875 -250 664
-328.125 -226.562 769
-273.438 -343.75 796
-460.938 -54.6875 835
62.5 257.812 803
62.5 304.688 781
-406.25 -203.125 769
-250 -335.938 798
-406.25 -359.375 839
125 -23.4375 750
109.375 7.8125 734
-351.562 -273.438 889
-101.562 39.0625 717
-218.75 -218.75 744
-109.375 -15.625 766
-187.5 -476.562 3037
-500 -195.312 716
250 -187.5 984
-304.688 -453.125 843
-117.188 7.8125 754
-500 125 731
140.625 15.625 833
179.688 -125 811
460.938 -390.625 638
171.875 -101.562 827
-390.625 257.812 829
179.688 257.812 794
-195.312 62.5 697
398.438 -125 749
125 46.875 817
-226.562 250 647
437.5 -328.125 620
203.125 343.75 752
-421.875 -421.875 837
-328.125 -234.375 792
187.5 23.4375 920
-265.625 -187.5 742
-226.562 -273.438 843
156.25 62.5 864
-351.562 -281.25 889
-226.562 -250 860
-476.562 273.438 833
234.375 -242.188 915
460.938 -367.188 621
54.6875 273.438 796
-406.25 257.812 833
-437.5 156.25 707
-375 195.312 686
-179.688 46.875 704
-203.125 85.9375 696
-414.062 -421.875 833
-226.562 -226.562 746
226.562 -78.125 984
-421.875 -187.5 757
-148.438 289.062 624
39.0625 148.438 672
375 -31.25 823
468.75 -406.25 649
125 148.438 856
-234.375 -367.188 894
437.5 -265.625 648
-257.812 257.812 643
-156.25 -187.5 823
156.25 93.75 885
156.25 93.75 885
195.312 -15.625 943
-390.625 179.688 691
-437.5 -398.438 845
-437.5 312.5 815
210.938 -46.875 962
-468.75 164.062 717
109.375 179.688 839
101.562 23.4375 727
156.25 85.9375 887
109.375 203.125 829
132.812 31.25 825
-210.938 257.812 644
242.188 -117.188 970
-437.5 -390.625 845
78.125 273.438 796
398.438 -132.812 742
-234.375 -390.625 885
-250 -265.625 839
-242.188 -296.875 829
-406.25 -398.438 827
406.25 -171.875 716
156.25 7.8125 847
-468.75 140.625 720
-164.062 -179.688 817
156.25 -15.625 851
-328.125 226.562 670
-421.875 -437.5 839
210.938 -39.0625 956
304.688 367.188 733
132.812 132.812 864
-414.062 351.562 1273
179.688 31.25 918
-250 -210.938 742
-156.25 7.8125 694
-500 -226.562 707
179.688 46.875 908
-132.812 296.875 620
-273.438 242.188 655
-312.5 -265.625 811
-312.5 390.625 1381
31.25 375 749
31.25 164.062 667
39.0625 296.875 781
-265.625 -281.25 827
187.5 -164.062 829
148.438 23.4375 839
-500 -343.75 1398
-421.875 164.062 703
-320.312 -125 785
-78.125 54.6875 727
-390.625 -429.688 825
-421.875 -328.125 856
148.438 117.188 871
-156.25 54.6875 704
164.062 -15.625 858
85.9375 210.938 825
-351.562 -414.062 825
-476.562 -343.75 1354
164.062 -23.4375 851
-437.5 179.688 714
-367.188 -117.188 823
-484.375 -343.75 1370
-234.375 -273.438 843
195.312 -156.25 854
-265.625 -273.438 813
-328.125 -328.125 796
125 171.875 845
187.5 -140.625 815
-164.062 -273.438 778
-218.75 -343.75 923
-296.875 -343.75 794
-429.688 -125 761
-265.625 101.562 696
-500 -140.625 761
-421.875 -242.188 738
-179.688 -304.688 803
101.562 179.688 789
-210.938 -7.8125 698
125 156.25 851
-234.375 -296.875 829
-195.312 -453.125 3120
171.875 -109.375 800
367.188 0 851
-257.812 -359.375 871
-179.688 -109.375 833
-281.25 226.562 662
70.3125 85.9375 701
-242.188 93.75 697
375 -109.375 774
-437.5 -359.375 856
-109.375 -468.75 2958
179.688 -148.438 821
-226.562 46.875 697
70.3125 93.75 698
-140.625 39.0625 717
257.812 -140.625 1025
-468.75 242.188 845
234.375 -93.75 992
-46.875 367.188 652
390.625 -93.75 771
-460.938 257.812 835
-171.875 281.25 629
203.125 -171.875 871
-320.312 -273.438 809
-242.188 -367.188 885
171.875 31.25 873
390.625 -62.5 787
421.875 -140.625 722
359.375 31.25 901
-453.125 148.438 714
187.5 0 889
-320.312 -187.5 754
-304.688 -210.938 747
-351.562 -406.25 825
125 31.25 823
-390.625 -164.062 792
148.438 78.125 858
210.938 -195.312 858
-367.188 -289.062 875
242.188 -281.25 923
203.125 -15.625 946
-39.0625 -460.938 2908
54.6875 117.188 687
-328.125 -281.25 807
375 234.375 790
-250 31.25 728
382.812 -62.5 796
250 -125 1016
226.562 -70.3125 978
-445.312 -210.938 730
421.875 -242.188 672
-117.188 -7.8125 764
171.875 62.5 898
-31.25 -265.625 930
46.875 320.312 773
273.438 -460.938 2503
109.375 164.062 802
226.562 -85.9375 946
-187.5 -234.375 754
148.438 0 843
179.688 -117.188 829
-273.438 171.875 686
-500 132.812 727
-234.375 -265.625 847
-156.25 289.062 625
-164.062 289.062 627
46.875 343.75 762
218.75 -54.6875 967
-257.812 -242.188 837
-242.188 54.6875 698
195.312 -179.688 837
7.8125 210.938 649
-421.875 -78.125 792
-429.688 -429.688 843
54.6875 304.688 781
-250 -328.125 803
-429.688 -179.688 747
-210.938 -359.375 915
-257.812 85.9375 704
23.4375 179.688 659
-359.375 -375 829
-328.125 -195.312 757
398.438 -125 749
210.938 -31.25 951
-179.688 54.6875 706
-234.375 62.5 693
-382.812 218.75 720
-242.188 250 649
70.3125 273.438 794
-367.188 -414.062 825
-312.5 234.375 668
265.625 -171.875 998
-328.125 -250 803
-62.5 328.125 609
156.25 101.562 880
93.75 195.312 833
-406.25 -195.312 771
406.25 -250 678
-429.688 -421.875 841
-304.688 117.188 680
-31.25 398.438 690
46.875 132.812 679
359.375 -390.625 2541
187.5 23.4375 920
429.688 -289.062 643
218.75 -203.125 896
-390.625 -296.875 871
-414.062 -335.938 847
125 132.812 823
93.75 242.188 811
-171.875 93.75 688
117.188 179.688 841
-437.5 -382.812 847
-500 265.625 841
-250 -218.75 742
148.438 85.9375 845
-179.688 70.3125 704
54.6875 328.125 769
23.4375 390.625 742
-437.5 -335.938 864
-437.5 -218.75 734
-296.875 242.188 663
-187.5 -460.938 3037
-281.25 -296.875 805
-281.25 -289.062 805
-187.5 93.75 698
195.312 0 935
101.562 226.562 817
132.812 117.188 869
-484.375 -46.875 837
-359.375 -93.75 849
171.875 -125 811
140.625 132.812 862
375 -31.25 823
-414.062 367.188 1464
414.062 -203.125 694
-289.062 -117.188 856
-343.75 -398.438 827
-437.5 -406.25 843
179.688 15.625 887
242.188 -109.375 1007
148.438 7.8125 843
-265.625 -257.812 811
132.812 -15.625 754
-54.6875 273.438 625
195.312 7.8125 928
-226.562 257.812 644
140.625 101.562 837
148.438 109.375 878
414.062 -265.625 663
-15.625 242.188 636
-242.188 -320.312 807
203.125 -359.375 2744
140.625 109.375 878
-101.562 -15.625 766
39.0625 -140.625 827
-281.25 132.812 676
-148.438 296.875 623
-187.5 273.438 634
367.188 23.4375 871
320.312 218.75 802
359.375 23.4375 873
156.25 -93.75 789
85.9375 257.812 803
140.625 125 864
-140.625 320.312 648
-312.5 -250 813
-500 -70.3125 839
-179.688 -250 762
-414.062 -367.188 837
-218.75 265.625 641
-343.75 203.125 676
54.6875 273.438 796
117.188 148.438 854
-460.938 -164.062 731
-398.438 -187.5 774
375 -39.0625 815
-234.375 -304.688 825
-359.375 -101.562 849
-109.375 312.5 616
-375 187.5 687
-273.438 -359.375 794
-375 203.125 687
398.438 -125 749
-453.125 289.062 825
414.062 -195.312 698
-351.562 -265.625 889
-250 54.6875 701
429.688 -281.25 647
-382.812 -234.375 970
218.75 -234.375 880
125 70.3125 813
62.5 289.062 789
-414.062 -226.562 749
23.4375 335.938 766
-234.375 -359.375 894
85.9375 171.875 781
-492.188 -171.875 733
-437.5 -375 849
39.0625 304.688 781
437.5 -296.875 634
-242.188 -343.75 894
218.75 -46.875 962
-125 304.688 620
-375 375 1343
289.062 -296.875 2541
210.938 -187.5 871
78.125 273.438 796
218.75 -62.5 975
164.062 -7.8125 864
-257.812 -390.625 862
-164.062 -257.812 769
-382.812 -304.688 858
156.25 -15.625 851
-234.375 23.4375 722
203.125 -31.25 913
-242.188 -312.5 825
468.75 -398.438 641
-117.188 39.0625 716
-218.75 -414.062 903
-210.938 -210.938 746
-414.062 -54.6875 817
375 -23.4375 827
164.062 -85.9375 780
-500 -257.812 725
125 46.875 817
-343.75 414.062 1415
-148.438 -156.25 858
-414.062 -85.9375 787
171.875 39.0625 910
-281.25 -320.312 802
421.875 -234.375 674
164.062 125 864
367.188 15.625 864
132.812 156.25 851
-179.688 101.562 714
93.75 -328.125 973
-257.812 93.75 701
78.125 93.75 701
-234.375 140.625 671
-414.062 -62.5 807
-421.875 -242.188 738
-343.75 -414.062 829
-273.438 -335.938 800
-210.938 -218.75 746
-210.938 -367.188 915
-195.312 93.75 698
-273.438 -328.125 805
23.4375 367.188 754
234.375 -85.9375 989
437.5 -257.812 654
-257.812 -414.062 862
125 171.875 845
367.188 7.8125 858
-257.812 -257.812 841
-382.812 -156.25 792
31.25 375 749
-226.562 23.4375 719
-359.375 195.312 684
-320.312 -273.438 809
453.125 -296.875 627
148.438 117.188 871
7.8125 367.188 704
70.3125 -289.062 938
-234.375 -281.25 837
179.688 46.875 908
-500 296.875 1536
453.125 -312.5 619
93.75 226.562 819
210.938 -31.25 951
148.438 85.9375 845
460.938 -382.812 632
-140.625 125 697
-289.062 -320.312 800
445.312 -281.25 638
78.125 226.562 819
-187.5 85.9375 700
-460.938 -132.812 759
-39.0625 320.312 611
62.5 312.5 778
46.875 289.062 789
39.0625 359.375 757
476.562 -414.062 653
-500 -250 720
226.562 -70.3125 978
-273.438 -265.625 807
-500 -265.625 734
-148.438 62.5 731
-437.5 -367.188 851
187.5 -132.812 811
164.062 54.6875 906
-195.312 -468.75 3064
62.5 257.812 803
-265.625 -289.062 827
15.625 -453.125 2859
406.25 -234.375 683
-226.562 -257.812 854
-328.125 210.938 671
70.3125 242.188 811
-117.188 -468.75 2933
164.062 85.9375 887
101.562 210.938 827
375 -23.4375 827
367.188 0 851
-273.438 -398.438 851
-7.8125 -343.75 1007
156.25 70.3125 864
-218.75 -234.375 819
156.25 101.562 880
468.75 -312.5 612
-437.5 -382.812 847
-437.5 351.562 1477
-195.312 -218.75 752
-453.125 -62.5 825
421.875 -312.5 635
-234.375 -218.75 742
242.188 -101.562 998
203.125 -195.312 854
-257.812 242.188 650
-429.688 -226.562 744
-445.312 359.375 1477
148.438 125 864
398.438 -117.188 752
-421.875 -328.125 856
-398.438 -343.75 839
-109.375 0 759
-382.812 -54.6875 821
-54.6875 343.75 623
101.562 226.562 817
-132.812 101.562 708
-226.562 -250 860
132.812 148.438 854
-250 -335.938 798
226.562 -218.75 906
54.6875 328.125 769
-429.688 -265.625 727
-406.25 -187.5 773
78.125 -445.312 2767
-218.75 -250 858
-414.062 -226.562 749
-234.375 156.25 690
-203.125 -312.5 815
445.312 -304.688 627
46.875 343.75 762
-226.562 140.625 697
164.062 78.125 889
-39.0625 367.188 654
148.438 31.25 839
390.625 -85.9375 774
-304.688 226.562 664
-265.625 -312.5 809
414.062 -218.75 683
242.188 -281.25 923
421.875 -226.562 678
-171.875 85.9375 690
-195.312 -460.938 3092
-140.625 -468.75 2984
171.875 62.5 898
-210.938 -359.375 915
-234.375 -210.938 742
-15.625 257.812 630
-234.375 -351.562 898
-195.312 70.3125 697
-429.688 343.75 1489
-312.5 210.938 670
-382.812 -148.438 803
390.625 -93.75 771
-359.375 210.938 683
-429.688 -421.875 841
218.75 -226.562 880
-242.188 -304.688 827
-375 -70.3125 829
-265.625 109.375 694
-390.625 -171.875 792
203.125 -7.8125 938
-156.25 -281.25 787
-226.562 -312.5 823
-195.312 101.562 701
-210.938 -312.5 819
132.812 156.25 851
-312.5 -257.812 811
-406.25 -70.3125 800
210.938 -210.938 864
-296.875 320.312 794
195.312 7.8125 928
140.625 140.625 860
70.3125 296.875 785
179.688 23.4375 920
-492.188 -343.75 1381
-156.25 -445.312 3092
-31.25 289.062 619
-148.438 -218.75 908
226.562 -242.188 889
-109.375 -15.625 766
218.75 -46.875 962
234.375 -234.375 908
-179.688 -406.25 3010
62.5 109.375 691
265.625 -156.25 1041
-195.312 -101.562 829
-23.4375 273.438 625
140.625 46.875 831
367.188 7.8125 858
-281.25 -203.125 742
109.375 210.938 827
-187.5 15.625 691
-226.562 -320.312 825
226.562 15.625 925
179.688 46.875 908
-85.9375 62.5 722
-406.25 367.188 1464
-296.875 101.562 682
375 -15.625 831
-132.812 -265.625 948
-195.312 -226.562 750
-468.75 -125 771
-164.062 85.9375 686
-132.812 93.75 713
390.625 46.875 864
70.3125 -445.312 2812
140.625 101.562 837
140.625 101.562 837
-226.562 132.812 701
-289.062 226.562 661
-203.125 101.562 700
-406.25 171.875 696
-382.812 328.125 800
-421.875 -218.75 749
234.375 -148.438 970
-281.25 -187.5 741
-140.625 23.4375 716
-312.5 -382.812 837
382.812 -62.5 796
-484.375 132.812 725
-148.438 7.8125 697
-453.125 -218.75 719
-195.312 7.8125 690
250 -117.188 1007
242.188 -250 940
398.438 -117.188 752
-234.375 -273.438 843
171.875 39.0625 910
-500 -265.625 734
367.188 -7.8125 845
-23.4375 398.438 696
-398.438 359.375 1312
-156.25 78.125 688
-421.875 -382.812 837
-140.625 109.375 706
-359.375 312.5 802
-500 125 731
195.312 -148.438 862
140.625 117.188 871
-437.5 156.25 707
179.688 -140.625 815
93.75 195.312 833
171.875 -101.562 827
-70.3125 312.5 610
78.125 281.25 790
-476.562 140.625 722
-375 -140.625 807
234.375 -85.9375 989
-429.688 -335.938 856
-273.438 156.25 693
187.5 23.4375 920
-265.625 125 670
171.875 70.3125 896
-289.062 -328.125 798
-390.625 -296.875 871
125 -23.4375 750
-242.188 -312.5 825
-234.375 -328.125 920
257.812 -132.812 1019
-257.812 -359.375 871
390.625 -85.9375 774
-164.062 -296.875 794
226.562 -250 894
-453.125 148.438 714
-281.25 -296.875 805
-218.75 125 704
54.6875 -335.938 984
-429.688 -265.625 727
406.25 -148.438 728
-203.125 -7.8125 694
-437.5 -375 849
-234.375 -312.5 825
-468.75 140.625 720
156.25 15.625 847
164.062 -109.375 796
476.562 -367.188 618
-179.688 15.625 690
-7.8125 242.188 636
187.5 31.25 915
281.25 460.938 694
54.6875 328.125 769
-476.562 -171.875 730
414.062 -187.5 701
-421.875 -195.312 757
375 -23.4375 827
218.75 -62.5 975
125 132.812 823
234.375 -93.75 992
-203.125 281.25 642
179.688 -117.188 829
-242.188 -320.312 807
7.8125 375 706
-437.5 335.938 1496
-250 -343.75 798
-289.062 320.312 790
78.125 70.3125 704
-78.125 320.312 609
-156.25 281.25 625
-171.875 23.4375 691
-156.25 -125 839
-250 -226.562 800
-320.312 -226.562 802
-398.438 -195.312 774
195.312 -39.0625 915
-187.5 -476.562 3037
93.75 226.562 819
78.125 -78.125 781
414.062 -195.312 698
242.188 -101.562 998
195.312 15.625 925
218.75 -195.312 896
171.875 -125 811
-31.25 367.188 657
-398.438 320.312 805
-445.312 -46.875 827
-242.188 132.812 670
15.625 359.375 755
-226.562 -265.625 849
-445.312 -132.812 752
-257.812 140.625 666
140.625 140.625 860
-109.375 -23.4375 769
-226.562 -289.062 833
148.438 125 864
210.938 -39.0625 956
-242.188 -406.25 873
62.5 101.562 694
-289.062 -335.938 796
-148.438 70.3125 694
-257.812 -265.625 839
-335.938 414.062 1415
406.25 -164.062 720
-382.812 -390.625 825
7.8125 -343.75 1001
226.562 -62.5 973
-460.938 -39.0625 825
-273.438 -343.75 796
-257.812 -250 845
414.062 -242.188 676
-367.188 -125 817
242.188 -109.375 1007
-109.375 54.6875 713
101.562 226.562 817
-421.875 -351.562 847
382.812 -54.6875 800
-148.438 93.75 686
-304.688 -375 841
-281.25 -429.688 847
203.125 -164.062 869
-484.375 -148.438 752
-390.625 179.688 691
187.5 -156.25 827
-148.438 0 696
218.75 -218.75 896
-468.75 328.125 1503
203.125 -7.8125 938
429.688 -273.438 649
-257.812 78.125 706
-351.562 -375 831
-312.5 429.688 1392
-304.688 -281.25 807
117.188 195.312 833
-351.562 -421.875 825
-148.438 101.562 686
148.438 7.8125 843
39.0625 148.438 672
-250 406.25 759
-460.938 148.438 714
-406.25 -210.938 762
109.375 195.312 833
-312.5 -218.75 811
164.062 85.9375 887
210.938 -23.4375 946
476.562 -414.062 653
85.9375 85.9375 720
218.75 -203.125 896
-234.375 -281.25 837
-39.0625 304.688 613
-203.125 -375 915
226.562 -210.938 908
-218.75 109.375 700
445.312 -375 630
375 39.0625 891
-273.438 -273.438 809
164.062 -78.125 773
-414.062 -414.062 833
-210.938 -351.562 1047
46.875 289.062 789
195.312 -7.8125 940
226.562 -78.125 984
390.625 -78.125 783
437.5 -289.062 638
-421.875 164.062 703
164.062 0 871
125 62.5 813
476.562 -406.25 643
-375 -289.062 875
54.6875 -414.062 2933
-359.375 -109.375 856
125 164.062 847
-429.688 164.062 703
132.812 62.5 819
-234.375 -289.062 833
109.375 210.938 827
-398.438 -406.25 825
70.3125 296.875 785
-296.875 -289.062 802
-140.625 7.8125 720
