ply
format ascii 1.0
comment Created by Open3D
element vertex 2385
property double x
property double y
property double z
end_header
-15.625 390.625 1193
343.75 132.812 1757
-226.562 -101.562 1087
226.562 -312.5 1016
-187.5 -140.625 1007
-234.375 -78.125 1115
-234.375 421.875 1165
-484.375 328.125 1959
210.938 406.25 1415
-242.188 31.25 1041
-226.562 257.812 1001
195.312 -117.188 920
-218.75 328.125 1041
445.312 -250 1034
-23.4375 304.688 1054
140.625 -414.062 1169
109.375 382.812 1165
54.6875 -54.6875 962
109.375 -312.5 1193
70.3125 -367.188 1181
-93.75 382.812 1509
-242.188 406.25 1210
-390.625 406.25 1067
101.562 226.562 1034
-125 39.0625 1010
148.438 304.688 1624
-343.75 382.812 1047
-179.688 375 1236
179.688 -234.375 1038
-226.562 39.0625 1025
-234.375 398.438 1202
-242.188 164.062 962
-7.8125 -171.875 975
46.875 -78.125 959
46.875 -85.9375 967
273.438 -156.25 930
-54.6875 359.375 1550
296.875 328.125 1421
54.6875 -78.125 967
-156.25 -7.8125 1097
164.062 -132.812 918
-234.375 359.375 1283
375 -23.4375 984
0 -179.688 992
-312.5 156.25 908
-23.4375 23.4375 948
-148.438 156.25 970
-226.562 328.125 1038
125 359.375 1138
15.625 367.188 1227
453.125 -257.812 1044
-195.312 132.812 915
210.938 -226.562 1050
-312.5 335.938 1031
187.5 15.625 970
-54.6875 101.562 923
-46.875 -109.375 935
-289.062 132.812 908
226.562 7.8125 973
-210.938 -31.25 1087
62.5 -46.875 962
-101.562 15.625 964
-54.6875 406.25 1177
-148.438 367.188 1241
-195.312 250 973
-500 7.8125 1138
281.25 -132.812 928
210.938 -140.625 923
453.125 -148.438 940
46.875 -93.75 973
-218.75 -93.75 1119
-7.8125 -70.3125 938
132.812 93.75 935
93.75 0 1038
31.25 -70.3125 948
-62.5 -164.062 946
242.188 429.688 1370
15.625 -101.562 964
179.688 -140.625 925
93.75 78.125 928
101.562 132.812 989
148.438 -351.562 1007
226.562 -210.938 1057
265.625 7.8125 981
78.125 0 1044
85.9375 117.188 930
109.375 359.375 1169
460.938 273.438 1550
-179.688 398.438 1197
-140.625 -156.25 951
-70.3125 46.875 946
257.812 210.938 1804
-148.438 -85.9375 1010
85.9375 15.625 1013
187.5 23.4375 973
328.125 15.625 978
257.812 -203.125 1047
125 445.312 1202
-46.875 -148.438 951
226.562 15.625 975
304.688 85.9375 1004
-242.188 398.438 1206
31.25 -296.875 1404
492.188 328.125 1359
46.875 -7.8125 946
-101.562 343.75 1594
125 -351.562 1169
-101.562 234.375 975
187.5 -257.812 1028
132.812 -390.625 1165
320.312 15.625 981
-109.375 15.625 967
-195.312 156.25 964
-93.75 218.75 1001
-70.3125 -132.812 959
-179.688 421.875 1452
-93.75 -140.625 935
-335.938 179.688 954
-406.25 375 1034
54.6875 -31.25 954
-171.875 -140.625 981
62.5 -31.25 959
-7.8125 -125 948
125 375 1149
132.812 351.562 1138
-226.562 421.875 1169
390.625 156.25 1766
0 15.625 943
-296.875 312.5 1019
-164.062 421.875 1445
-7.8125 93.75 925
-132.812 15.625 1050
-148.438 -117.188 987
-85.9375 15.625 940
-304.688 375 1149
-70.3125 7.8125 938
0 -93.75 975
125 -429.688 1173
265.625 -382.812 1004
-226.562 -23.4375 1145
117.188 -453.125 1181
-375 312.5 1007
-46.875 406.25 1177
281.25 218.75 2116
-93.75 226.562 1004
187.5 62.5 940
-234.375 -46.875 1197
-54.6875 382.812 1509
-210.938 -70.3125 1067
250 218.75 1794
296.875 -31.25 970
-312.5 429.688 1087
101.562 23.4375 992
-62.5 62.5 967
-7.8125 375 1197
445.312 23.4375 962
-257.812 429.688 1169
460.938 265.625 1557
-265.625 414.062 1173
-15.625 -62.5 938
93.75 367.188 1202
-414.062 195.312 951
-226.562 164.062 964
-234.375 406.25 1202
-171.875 296.875 1028
85.9375 -351.562 1181
-156.25 414.062 1458
-85.9375 -109.375 954
-15.625 -7.8125 933
-62.5 -7.8125 943
85.9375 359.375 1227
179.688 -226.562 1038
257.812 -296.875 1031
265.625 -312.5 1028
-132.812 7.8125 1063
-453.125 320.312 1981
-46.875 -171.875 956
351.562 -343.75 1090
-15.625 -164.062 970
109.375 -351.562 1169
343.75 -257.812 1145
-15.625 367.188 1227
-195.312 -140.625 1019
156.25 367.188 1219
117.188 -328.125 1181
85.9375 78.125 930
-156.25 375 1206
281.25 382.812 1439
-445.312 320.312 1981
-195.312 0 1084
304.688 70.3125 956
-500 -39.0625 2317
-23.4375 -7.8125 935
109.375 375 1165
476.562 -46.875 989
31.25 351.562 1250
39.0625 382.812 1477
70.3125 -46.875 970
-62.5 398.438 1181
273.438 0 981
148.438 23.4375 967
-7.8125 351.562 1250
125 351.562 1138
46.875 390.625 1477
406.25 -15.625 992
398.438 187.5 1757
171.875 351.562 1214
-203.125 -46.875 1063
-156.25 320.312 1044
-304.688 156.25 910
7.8125 367.188 1227
-234.375 148.438 915
-359.375 351.562 1031
101.562 242.188 1041
132.812 445.312 1202
-320.312 312.5 1016
-109.375 -23.4375 948
46.875 -23.4375 943
-132.812 148.438 925
-125 -117.188 981
-195.312 -46.875 1057
-109.375 390.625 1489
-93.75 312.5 1047
-171.875 -148.438 967
101.562 250 1044
39.0625 -15.625 943
85.9375 312.5 1090
-117.188 -7.8125 964
179.688 -382.812 989
-23.4375 62.5 962
-304.688 312.5 1019
-164.062 7.8125 1073
39.0625 0 951
367.188 -148.438 928
101.562 375 1193
234.375 7.8125 975
39.0625 -101.562 978
-414.062 359.375 1022
289.062 328.125 1445
-296.875 335.938 1031
-429.688 328.125 1010
62.5 289.062 1063
46.875 -7.8125 946
468.75 62.5 1038
54.6875 359.375 1232
-234.375 -117.188 1090
-164.062 390.625 1202
226.562 -265.625 1034
-39.0625 390.625 1193
-23.4375 351.562 1259
-203.125 390.625 1206
23.4375 -335.938 1241
-78.125 -7.8125 943
-85.9375 257.812 978
-109.375 -78.125 1007
-437.5 296.875 1001
406.25 -31.25 987
85.9375 -31.25 975
-398.438 226.562 964
125 382.812 1157
367.188 257.812 1496
39.0625 -93.75 970
78.125 375 1202
-304.688 187.5 959
-15.625 62.5 967
-39.0625 375 1516
-46.875 140.625 973
-218.75 -31.25 1087
-187.5 171.875 973
218.75 15.625 978
78.125 -46.875 973
-15.625 398.438 1197
23.4375 132.812 978
289.062 23.4375 970
-179.688 343.75 1268
93.75 -23.4375 978
-156.25 343.75 1278
-234.375 -54.6875 1210
-39.0625 46.875 984
-375 140.625 901
140.625 31.25 970
93.75 -429.688 1185
-343.75 351.562 1038
351.562 289.062 1421
70.3125 125 981
-46.875 -70.3125 938
-93.75 -93.75 987
109.375 218.75 1028
273.438 -203.125 1034
-484.375 335.938 1947
-39.0625 -132.812 951
-210.938 351.562 1278
492.188 -281.25 1041
-23.4375 -140.625 962
179.688 23.4375 973
-304.688 367.188 1119
-234.375 414.062 1165
-281.25 421.875 1161
-23.4375 46.875 984
-203.125 414.062 1173
85.9375 367.188 1214
101.562 195.312 1016
101.562 187.5 1013
-218.75 390.625 1214
15.625 31.25 946
-187.5 367.188 1245
-265.625 406.25 1185
109.375 187.5 1013
-31.25 -156.25 959
-320.312 335.938 1028
250 -148.438 925
-125 109.375 918
-31.25 -125 946
-187.5 -70.3125 1063
-242.188 421.875 1165
-39.0625 398.438 1193
39.0625 367.188 1236
-101.562 382.812 1516
132.812 -281.25 1067
-171.875 398.438 1189
476.562 -218.75 998
-390.625 257.812 981
242.188 -328.125 1013
-210.938 250 987
-203.125 367.188 1245
0 257.812 1031
85.9375 398.438 1445
-312.5 421.875 1090
210.938 -273.438 1031
179.688 -390.625 998
-156.25 -117.188 995
-109.375 367.188 1536
242.188 -250 1044
296.875 -250 1060
-328.125 85.9375 962
320.312 -250 1153
-218.75 -70.3125 1115
-265.625 429.688 1165
39.0625 -382.812 1223
39.0625 359.375 1236
195.312 -335.938 1001
7.8125 -187.5 1004
320.312 -164.062 938
164.062 -328.125 1001
-281.25 281.25 1004
421.875 -23.4375 992
-85.9375 398.438 1458
226.562 -390.625 1004
-273.438 375 1227
-31.25 -54.6875 935
-117.188 109.375 918
-195.312 390.625 1210
265.625 -375 1004
210.938 -359.375 995
492.188 -289.062 1044
-179.688 367.188 1245
460.938 281.25 1550
226.562 -148.438 928
-70.3125 398.438 1181
-93.75 -117.188 973
-62.5 -156.25 946
195.312 320.312 1579
445.312 -39.0625 987
0 -78.125 948
117.188 148.438 992
265.625 0 978
-281.25 398.438 1202
-398.438 148.438 898
7.8125 390.625 1181
-218.75 -39.0625 1090
-218.75 -7.8125 1112
187.5 -367.188 987
-7.8125 367.188 1227
-85.9375 -125 959
62.5 375 1509
54.6875 375 1236
-398.438 250 975
-304.688 132.812 906
-85.9375 62.5 970
218.75 406.25 1415
-117.188 390.625 1496
-187.5 398.438 1197
-164.062 -7.8125 1080
-367.188 179.688 951
-234.375 351.562 1283
-54.6875 -70.3125 940
54.6875 382.812 1489
-7.8125 343.75 1264
39.0625 335.938 1264
85.9375 351.562 1236
226.562 7.8125 973
117.188 132.812 989
125 -125 913
312.5 0 984
-210.938 335.938 1041
250 -296.875 1028
54.6875 125 978
-62.5 -54.6875 943
-296.875 421.875 1149
468.75 -187.5 954
-46.875 -125 943
117.188 140.625 992
-234.375 -46.875 1197
-23.4375 -54.6875 935
-31.25 -117.188 940
-179.688 -156.25 1149
265.625 -304.688 1031
445.312 -31.25 989
-109.375 289.062 1034
-187.5 156.25 964
265.625 -218.75 1067
-289.062 398.438 1197
-23.4375 -117.188 946
-62.5 -132.812 956
-109.375 -117.188 984
-382.812 164.062 903
-210.938 367.188 1273
-23.4375 132.812 928
-187.5 390.625 1210
-226.562 -23.4375 1145
-171.875 -46.875 1060
23.4375 -23.4375 938
-78.125 -132.812 962
-39.0625 -23.4375 938
93.75 -382.812 1169
320.312 148.438 1757
78.125 351.562 1236
93.75 7.8125 1019
0 -179.688 992
351.562 7.8125 987
-296.875 171.875 956
281.25 226.562 1713
273.438 -132.812 925
-164.062 117.188 918
-93.75 359.375 1536
296.875 -156.25 930
0 398.438 1193
15.625 -15.625 935
195.312 304.688 1609
125 210.938 1028
101.562 117.188 981
171.875 382.812 1214
-23.4375 -78.125 948
-132.812 109.375 918
62.5 46.875 973
-289.062 171.875 959
-500 -406.25 2618
296.875 -7.8125 981
101.562 367.188 1197
164.062 -406.25 1169
210.938 -351.562 998
23.4375 367.188 1227
-179.688 117.188 915
85.9375 -343.75 1181
78.125 117.188 930
335.938 -164.062 935
-70.3125 54.6875 954
-148.438 382.812 1210
390.625 -171.875 933
-156.25 367.188 1241
-171.875 390.625 1206
187.5 -218.75 1041
-179.688 375 1236
-226.562 -70.3125 1115
-234.375 328.125 1038
203.125 -296.875 1019
265.625 -351.562 1013
-39.0625 351.562 1255
257.812 -218.75 1063
-148.438 242.188 975
-54.6875 359.375 1550
54.6875 0 964
-171.875 0 1084
-187.5 375 1245
-156.25 109.375 918
31.25 359.375 1223
-414.062 210.938 956
-312.5 335.938 1031
-226.562 -15.625 1130
-7.8125 375 1197
187.5 -390.625 995
-125 -15.625 1031
-304.688 335.938 1031
109.375 367.188 1169
-62.5 101.562 923
-109.375 31.25 975
-500 367.188 1863
-101.562 -132.812 933
31.25 382.812 1477
-250 421.875 1169
46.875 -70.3125 956
492.188 164.062 1302
-242.188 -132.812 1094
375 -171.875 943
39.0625 -23.4375 943
-62.5 -101.562 938
492.188 -187.5 943
171.875 -132.812 915
93.75 257.812 1050
179.688 -398.438 998
-195.312 367.188 1245
15.625 -7.8125 935
242.188 -390.625 1001
-15.625 343.75 1255
-421.875 187.5 946
-257.812 164.062 962
101.562 250 1044
85.9375 -39.0625 975
23.4375 -31.25 940
-31.25 367.188 1543
-15.625 367.188 1227
-195.312 117.188 915
62.5 132.812 984
-117.188 -62.5 1025
-453.125 148.438 896
-437.5 320.312 1993
-234.375 421.875 1165
-320.312 156.25 906
-15.625 390.625 1193
242.188 226.562 2078
-15.625 0 933
46.875 -46.875 954
-117.188 -23.4375 1034
23.4375 -7.8125 938
-132.812 0 967
-70.3125 -7.8125 943
-39.0625 -109.375 935
195.312 54.6875 943
-359.375 140.625 901
39.0625 -273.438 1343
132.812 31.25 970
93.75 -15.625 1060
406.25 23.4375 959
-171.875 414.062 1464
-132.812 -109.375 987
-117.188 15.625 973
-203.125 250 973
304.688 -7.8125 981
-7.8125 -132.812 951
-289.062 421.875 1165
-242.188 398.438 1206
-78.125 398.438 1483
-70.3125 -148.438 946
453.125 54.6875 967
-156.25 328.125 1050
101.562 179.688 1004
-445.312 148.438 896
39.0625 -39.0625 948
0 351.562 1250
-234.375 -54.6875 1210
-421.875 -125 1445
-242.188 125 913
242.188 -148.438 925
54.6875 335.938 1268
445.312 -164.062 935
-210.938 414.062 1173
187.5 15.625 970
382.812 -171.875 938
-31.25 23.4375 946
-296.875 132.812 906
140.625 -125 910
-109.375 15.625 967
234.375 -320.312 1016
-367.188 140.625 903
-23.4375 -109.375 938
-335.938 398.438 1060
85.9375 375 1206
218.75 -390.625 1007
-93.75 -140.625 935
335.938 -15.625 981
-85.9375 54.6875 962
148.438 367.188 1145
-93.75 46.875 967
429.688 234.375 1647
-257.812 414.062 1173
-140.625 -109.375 987
132.812 -125 910
218.75 -148.438 928
-171.875 351.562 1264
-93.75 -109.375 984
-109.375 -101.562 992
-93.75 148.438 973
484.375 46.875 970
0 -187.5 1031
7.8125 367.188 1227
398.438 148.438 1757
101.562 -445.312 1185
7.8125 343.75 1264
-421.875 343.75 1022
437.5 -39.0625 987
7.8125 -101.562 967
31.25 125 933
125 39.0625 973
-78.125 234.375 975
-390.625 390.625 1050
-296.875 390.625 1165
-78.125 351.562 1536
-39.0625 -156.25 954
-210.938 250 987
-406.25 234.375 967
46.875 265.625 1041
250 15.625 987
-156.25 -140.625 962
171.875 -382.812 987
-78.125 226.562 1004
-273.438 421.875 1161
-54.6875 -140.625 948
226.562 -125 920
-117.188 39.0625 1010
148.438 375 1157
-304.688 343.75 1034
-132.812 7.8125 1063
-281.25 375 1236
39.0625 85.9375 928
93.75 -312.5 1202
-62.5 54.6875 954
-195.312 -85.9375 1063
117.188 -125 913
-226.562 335.938 1044
-179.688 328.125 1047
-125 -101.562 989
-218.75 414.062 1169
-203.125 -78.125 1067
-468.75 148.438 894
-62.5 46.875 948
-117.188 -70.3125 1010
93.75 351.562 1236
-132.812 -7.8125 1090
476.562 -46.875 989
-242.188 328.125 1038
226.562 54.6875 943
234.375 -210.938 1060
-85.9375 -101.562 938
-70.3125 398.438 1181
156.25 -132.812 918
-273.438 406.25 1197
-46.875 335.938 1579
39.0625 265.625 1041
148.438 23.4375 967
-54.6875 406.25 1177
414.062 31.25 959
0 93.75 925
343.75 -7.8125 984
203.125 -140.625 923
-218.75 -31.25 1087
164.062 429.688 1232
132.812 312.5 1115
257.812 93.75 1010
-101.562 382.812 1516
-46.875 398.438 1189
125 406.25 1173
296.875 203.125 1785
101.562 203.125 1022
132.812 -406.25 1165
-335.938 406.25 1067
-101.562 15.625 964
476.562 7.8125 964
398.438 -15.625 987
132.812 203.125 1025
-273.438 375 1227
-218.75 -7.8125 1112
195.312 -375 992
203.125 -375 992
109.375 31.25 984
-7.8125 351.562 1250
-195.312 328.125 1038
-78.125 140.625 925
-46.875 375 1516
-218.75 -70.3125 1115
-218.75 335.938 1047
312.5 -156.25 930
367.188 -23.4375 984
-195.312 398.438 1210
-164.062 351.562 1278
320.312 140.625 1757
484.375 -46.875 989
226.562 7.8125 973
-46.875 46.875 956
304.688 -312.5 1119
-296.875 359.375 1206
351.562 296.875 1387
-234.375 125 913
-54.6875 23.4375 943
226.562 -265.625 1034
0 15.625 943
281.25 -226.562 1067
54.6875 289.062 1063
31.25 0 948
78.125 375 1202
-46.875 -148.438 951
93.75 320.312 1283
328.125 289.062 1427
-85.9375 -140.625 935
-328.125 367.188 1073
-164.062 320.312 1041
312.5 15.625 978
281.25 195.312 1785
-203.125 414.062 1173
-421.875 125 918
46.875 390.625 1477
265.625 -367.188 1004
156.25 195.312 1748
-23.4375 23.4375 948
78.125 39.0625 978
-15.625 -85.9375 948
-398.438 242.188 970
109.375 437.5 1197
250 226.562 2078
101.562 -390.625 1165
156.25 -382.812 995
109.375 15.625 970
109.375 382.812 1165
-250 -101.562 1338
85.9375 335.938 1259
-375 179.688 951
62.5 -15.625 956
125 -390.625 1165
101.562 171.875 1004
148.438 351.562 1130
-31.25 -7.8125 935
39.0625 390.625 1477
343.75 210.938 1748
-437.5 148.438 896
265.625 -156.25 933
-171.875 156.25 967
281.25 -250 1057
7.8125 -31.25 935
-250 406.25 1206
-187.5 367.188 1245
406.25 -31.25 987
-7.8125 398.438 1197
-93.75 -7.8125 946
-93.75 15.625 964
-31.25 -78.125 938
414.062 62.5 1013
-265.625 164.062 910
-62.5 398.438 1181
312.5 164.062 1766
-31.25 -148.438 959
218.75 367.188 1464
109.375 -460.938 1157
-46.875 390.625 1193
-164.062 296.875 1031
54.6875 359.375 1232
93.75 125 984
-328.125 335.938 1028
-226.562 390.625 1210
101.562 296.875 1063
-140.625 -54.6875 1050
85.9375 23.4375 1001
-484.375 -31.25 2317
-312.5 132.812 903
273.438 23.4375 975
7.8125 296.875 1057
-39.0625 281.25 1044
-117.188 46.875 1001
0 -132.812 956
-250 398.438 1193
195.312 -398.438 1010
46.875 -78.125 959
-234.375 -62.5 1236
-109.375 109.375 920
304.688 226.562 1713
39.0625 335.938 1264
-109.375 -132.812 933
101.562 140.625 989
125 414.062 1181
265.625 -359.375 1007
15.625 7.8125 940
343.75 -15.625 981
101.562 210.938 1025
39.0625 -62.5 948
-195.312 390.625 1210
-78.125 -7.8125 943
-101.562 23.4375 970
-414.062 179.688 943
250 -335.938 1016
-148.438 406.25 1210
-117.188 -132.812 933
109.375 390.625 1173
250 218.75 1794
0 -15.625 935
218.75 390.625 1427
359.375 265.625 1489
-7.8125 -171.875 975
-15.625 -93.75 1016
257.812 -210.938 1060
226.562 382.812 1477
429.688 -23.4375 995
-242.188 164.062 962
171.875 -140.625 925
39.0625 382.812 1477
-164.062 406.25 1189
156.25 359.375 1149
-7.8125 62.5 964
-54.6875 39.0625 946
-132.812 -125 978
-179.688 -70.3125 1070
-140.625 148.438 923
-78.125 273.438 1028
7.8125 132.812 978
0 367.188 1232
-93.75 -125 973
203.125 210.938 1785
-7.8125 132.812 925
-78.125 7.8125 940
468.75 -15.625 1001
382.812 0 992
351.562 -7.8125 987
-421.875 -101.562 1410
70.3125 382.812 1202
-187.5 0 1073
31.25 -296.875 1404
15.625 -101.562 964
-54.6875 -156.25 948
101.562 234.375 1038
-23.4375 -148.438 967
-234.375 164.062 962
-23.4375 304.688 1054
-15.625 -164.062 970
148.438 -125 913
218.75 382.812 1452
109.375 343.75 1141
171.875 23.4375 970
-23.4375 367.188 1227
-46.875 304.688 1050
-109.375 382.812 1509
-218.75 351.562 1283
-15.625 390.625 1193
-70.3125 -132.812 959
-335.938 171.875 910
39.0625 367.188 1236
117.188 156.25 1001
78.125 23.4375 1001
148.438 -109.375 915
-93.75 265.625 981
-109.375 -23.4375 948
85.9375 382.812 1197
203.125 -312.5 1013
-101.562 -140.625 933
23.4375 382.812 1185
-46.875 23.4375 946
101.562 445.312 1210
359.375 179.688 1794
70.3125 375 1516
-62.5 406.25 1177
-23.4375 -7.8125 935
0 398.438 1193
-484.375 -203.125 2485
328.125 -7.8125 984
242.188 328.125 1536
-101.562 54.6875 984
-70.3125 101.562 923
312.5 -359.375 1094
-101.562 359.375 1529
-148.438 359.375 1278
359.375 7.8125 984
46.875 375 1236
62.5 62.5 948
-7.8125 328.125 1594
7.8125 390.625 1181
-257.812 421.875 1169
468.75 -296.875 1057
218.75 7.8125 973
-31.25 46.875 987
273.438 -289.062 1041
390.625 -15.625 987
-195.312 367.188 1245
-296.875 421.875 1149
265.625 7.8125 981
468.75 70.3125 1038
-93.75 343.75 1572
289.062 -156.25 930
31.25 382.812 1477
-46.875 281.25 1038
-484.375 328.125 1959
125 -132.812 918
-15.625 343.75 1255
429.688 -179.688 940
-460.938 148.438 896
148.438 429.688 1232
101.562 148.438 992
7.8125 273.438 1044
-39.0625 39.0625 959
179.688 -203.125 1050
-359.375 -132.812 1439
-343.75 390.625 1054
148.438 -398.438 1165
54.6875 -414.062 1214
-226.562 257.812 1001
31.25 85.9375 928
-250 421.875 1169
195.312 -335.938 1001
-210.938 390.625 1206
101.562 218.75 1028
-101.562 0 948
-7.8125 375 1197
-476.562 125 923
210.938 328.125 1557
-171.875 320.312 1041
-453.125 -132.812 2958
164.062 218.75 1776
195.312 -296.875 1019
304.688 0 984
-382.812 140.625 901
-289.062 398.438 1197
-23.4375 398.438 1193
-171.875 7.8125 1077
-31.25 -132.812 951
-171.875 414.062 1464
101.562 226.562 1034
-7.8125 7.8125 935
-218.75 179.688 970
-31.25 -54.6875 935
23.4375 335.938 1273
-15.625 351.562 1255
-195.312 140.625 920
234.375 15.625 981
328.125 140.625 1748
-70.3125 398.438 1181
-281.25 398.438 1202
23.4375 359.375 1223
257.812 218.75 1804
-23.4375 0 935
31.25 0 948
-62.5 218.75 992
-70.3125 -164.062 946
-39.0625 -31.25 935
-179.688 390.625 1210
328.125 132.812 1748
93.75 7.8125 1019
62.5 54.6875 964
-226.562 -23.4375 1145
117.188 171.875 1007
-390.625 -62.5 1283
-187.5 398.438 1197
242.188 234.375 1713
203.125 312.5 1594
242.188 -257.812 1041
273.438 -242.188 1057
-453.125 -39.0625 1241
0 132.812 978
140.625 351.562 1138
164.062 -351.562 989
195.312 -328.125 1004
-31.25 140.625 975
-320.312 312.5 1016
359.375 -328.125 1090
23.4375 -39.0625 940
-62.5 226.562 987
-468.75 -273.438 2835
359.375 -148.438 930
54.6875 382.812 1489
7.8125 359.375 1232
78.125 351.562 1236
-335.938 335.938 1028
117.188 179.688 1013
-54.6875 -148.438 946
210.938 -375 992
-15.625 367.188 1227
-390.625 273.438 987
-31.25 375 1516
-218.75 328.125 1041
-218.75 250 992
-210.938 234.375 989
257.812 7.8125 984
-242.188 421.875 1165
-23.4375 -70.3125 938
-93.75 375 1543
-23.4375 328.125 1609
-93.75 351.562 1536
-179.688 0 1073
-187.5 375 1245
125 226.562 1038
0 -179.688 992
-203.125 367.188 1245
31.25 335.938 1268
-187.5 117.188 915
234.375 203.125 1785
296.875 -7.8125 981
-257.812 -62.5 1236
-62.5 -132.812 956
-218.75 414.062 1169
-23.4375 390.625 1193
-234.375 -54.6875 1210
101.562 289.062 1063
101.562 304.688 1063
-210.938 15.625 1063
93.75 132.812 989
-164.062 -39.0625 1063
226.562 -359.375 998
328.125 -164.062 938
289.062 187.5 1785
78.125 -351.562 1181
-140.625 359.375 1278
-250 125 913
-15.625 375 1227
-203.125 -78.125 1067
-257.812 398.438 1193
-23.4375 343.75 1259
-195.312 -15.625 1070
-39.0625 -179.688 989
-164.062 382.812 1210
164.062 359.375 1214
476.562 -296.875 1047
46.875 382.812 1483
-234.375 -62.5 1236
148.438 375 1157
-39.0625 -148.438 954
70.3125 -281.25 1245
23.4375 296.875 1057
460.938 -226.562 1050
-31.25 343.75 1259
-296.875 398.438 1173
-46.875 -140.625 954
117.188 375 1153
-78.125 62.5 964
140.625 23.4375 964
-15.625 93.75 925
-23.4375 -15.625 935
-85.9375 62.5 970
-148.438 148.438 920
-78.125 398.438 1483
304.688 171.875 1776
234.375 234.375 2065
-93.75 -31.25 967
15.625 359.375 1219
242.188 226.562 2078
453.125 -187.5 962
-257.812 148.438 913
-195.312 375 1245
179.688 15.625 970
-281.25 375 1236
476.562 -187.5 951
281.25 203.125 1785
-54.6875 367.188 1550
-179.688 351.562 1264
-148.438 367.188 1241
-171.875 343.75 1273
-39.0625 -7.8125 935
-242.188 234.375 989
-242.188 242.188 995
281.25 -289.062 1041
23.4375 -117.188 962
148.438 234.375 1050
117.188 195.312 1022
23.4375 -101.562 978
-85.9375 351.562 1579
218.75 101.562 998
140.625 -398.438 1165
-7.8125 343.75 1264
187.5 -265.625 1025
-234.375 -39.0625 1181
-109.375 351.562 1529
210.938 15.625 978
-367.188 -125 1445
-320.312 132.812 903
-85.9375 -117.188 956
-187.5 7.8125 1077
367.188 -23.4375 984
-78.125 -125 954
93.75 -7.8125 1050
148.438 -382.812 995
-31.25 -7.8125 935
-414.062 187.5 946
250 226.562 2078
-101.562 -62.5 978
-210.938 414.062 1173
179.688 -390.625 998
-343.75 335.938 1028
140.625 343.75 1130
-54.6875 -171.875 1097
93.75 125 984
-390.625 140.625 901
117.188 -132.812 920
-304.688 421.875 1126
-109.375 -62.5 978
46.875 -62.5 954
93.75 148.438 992
-85.9375 382.812 1509
-312.5 406.25 1073
-203.125 398.438 1206
312.5 -164.062 940
-101.562 7.8125 954
414.062 -23.4375 992
-171.875 -54.6875 1063
-78.125 -148.438 943
0 -23.4375 935
-171.875 367.188 1241
39.0625 -93.75 970
78.125 367.188 1232
171.875 -390.625 998
101.562 296.875 1063
-125 -62.5 1019
-421.875 179.688 943
398.438 -31.25 984
54.6875 -54.6875 962
-265.625 421.875 1165
78.125 359.375 1232
-156.25 328.125 1050
15.625 -23.4375 938
46.875 -93.75 973
-140.625 -164.062 1169
0 343.75 1268
-101.562 312.5 1047
-351.562 335.938 1028
-46.875 398.438 1189
156.25 218.75 1776
93.75 140.625 989
375 -23.4375 984
-7.8125 398.438 1197
-203.125 421.875 1177
320.312 164.062 1766
39.0625 -109.375 989
-406.25 226.562 964
54.6875 335.938 1268
93.75 156.25 998
-273.438 429.688 1161
70.3125 117.188 933
70.3125 15.625 1013
46.875 -359.375 1210
15.625 7.8125 940
203.125 -54.6875 943
335.938 78.125 1007
-187.5 343.75 1278
-54.6875 -7.8125 940
125 398.438 1169
-156.25 156.25 970
-117.188 148.438 970
164.062 -390.625 987
-203.125 390.625 1206
-218.75 390.625 1214
39.0625 -375 1223
62.5 -23.4375 956
31.25 367.188 1227
-179.688 390.625 1210
226.562 -390.625 1004
-203.125 -23.4375 1084
-250 328.125 1038
0 -171.875 981
-398.438 164.062 903
-312.5 429.688 1087
476.562 304.688 1509
-70.3125 359.375 1536
421.875 -179.688 943
289.062 281.25 1496
-179.688 343.75 1268
-171.875 320.312 1041
-148.438 382.812 1210
62.5 117.188 930
31.25 382.812 1477
203.125 -375 992
210.938 -390.625 1010
164.062 -140.625 923
78.125 375 1202
-109.375 312.5 1047
-85.9375 359.375 1543
218.75 15.625 978
-109.375 31.25 975
-195.312 117.188 915
375 -171.875 943
-359.375 148.438 903
15.625 -31.25 938
-210.938 -62.5 1070
-109.375 148.438 970
-445.312 218.75 956
171.875 62.5 935
-218.75 -39.0625 1090
39.0625 15.625 956
0 367.188 1232
-312.5 398.438 1073
-62.5 -70.3125 943
109.375 -125 918
31.25 -31.25 943
335.938 -164.062 935
-304.688 398.438 1134
265.625 -351.562 1013
210.938 -359.375 995
-203.125 140.625 918
-156.25 343.75 1278
-195.312 398.438 1210
-148.438 406.25 1210
109.375 -304.688 1202
140.625 335.938 1130
-15.625 -171.875 970
257.812 210.938 1804
-23.4375 367.188 1227
-39.0625 23.4375 946
453.125 -171.875 935
46.875 125 978
-85.9375 140.625 925
0 390.625 1185
-195.312 -78.125 1063
218.75 -351.562 1001
140.625 31.25 970
78.125 328.125 1273
437.5 320.312 1376
-23.4375 -125 946
-31.25 23.4375 946
242.188 -148.438 925
46.875 359.375 1236
250 218.75 1794
-117.188 -148.438 935
70.3125 375 1516
-312.5 414.062 1090
-46.875 -54.6875 935
-226.562 414.062 1169
132.812 70.3125 935
-117.188 -78.125 1004
-46.875 351.562 1255
-445.312 289.062 989
-78.125 101.562 923
335.938 -7.8125 984
-15.625 351.562 1255
-218.75 -31.25 1087
-156.25 242.188 975
85.9375 -7.8125 1050
-281.25 406.25 1197
109.375 -265.625 1283
85.9375 78.125 930
218.75 304.688 1601
375 70.3125 1010
281.25 226.562 1713
-109.375 -85.9375 1001
453.125 -31.25 989
125 70.3125 933
-39.0625 -117.188 935
375 140.625 1776
265.625 -257.812 1050
-257.812 421.875 1169
-195.312 343.75 1278
31.25 359.375 1223
437.5 -39.0625 987
-93.75 -156.25 938
226.562 -250 1044
-203.125 156.25 918
-117.188 234.375 978
148.438 -62.5 928
93.75 375 1202
257.812 -218.75 1063
179.688 62.5 935
-273.438 -164.062 3064
-273.438 421.875 1161
257.812 0 975
-195.312 421.875 1177
476.562 -289.062 1047
31.25 343.75 1255
7.8125 -101.562 967
164.062 -382.812 987
-500 -148.438 2184
62.5 359.375 1227
156.25 -382.812 995
250 -218.75 1060
-15.625 398.438 1197
-125 234.375 975
-171.875 117.188 915
-210.938 390.625 1206
132.812 437.5 1197
109.375 445.312 1210
-31.25 132.812 970
-257.812 398.438 1193
-117.188 23.4375 975
-234.375 -62.5 1236
109.375 109.375 933
-109.375 382.812 1509
164.062 -132.812 918
70.3125 289.062 1063
242.188 54.6875 946
-15.625 343.75 1255
-117.188 390.625 1496
-93.75 218.75 1001
-132.812 109.375 918
-398.438 140.625 901
468.75 -46.875 987
-54.6875 382.812 1509
312.5 171.875 1776
460.938 -164.062 935
117.188 234.375 1038
460.938 -296.875 1057
328.125 -15.625 981
-203.125 367.188 1245
132.812 31.25 970
-234.375 335.938 1044
46.875 -31.25 948
-23.4375 93.75 928
109.375 -351.562 1169
375 257.812 1489
-54.6875 -15.625 940
54.6875 -23.4375 948
148.438 437.5 1241
328.125 -359.375 1090
-31.25 -125 946
-484.375 -31.25 2317
-62.5 406.25 1177
132.812 445.312 1202
-93.75 398.438 1503
-218.75 -70.3125 1115
93.75 257.812 1050
93.75 445.312 1376
164.062 359.375 1214
-289.062 375 1214
-382.812 273.438 987
187.5 -367.188 987
335.938 273.438 1439
78.125 335.938 1264
-62.5 390.625 1181
234.375 -328.125 1013
132.812 23.4375 964
320.312 -328.125 1097
-476.562 148.438 896
-54.6875 -109.375 935
437.5 -250 1022
-85.9375 375 1509
-23.4375 390.625 1193
-218.75 414.062 1169
148.438 31.25 973
-203.125 375 1245
289.062 218.75 2103
70.3125 351.562 1232
46.875 382.812 1483
-101.562 -23.4375 948
-242.188 414.062 1165
-242.188 328.125 1038
101.562 367.188 1197
-179.688 406.25 1197
179.688 -265.625 1025
-210.938 367.188 1273
-242.188 335.938 1044
-54.6875 398.438 1181
-54.6875 398.438 1181
-250 429.688 1173
210.938 -210.938 1054
-226.562 335.938 1044
0 296.875 1054
31.25 -15.625 943
-164.062 156.25 967
-320.312 335.938 1028
382.812 -15.625 987
31.25 335.938 1268
187.5 -210.938 1047
109.375 -398.438 1165
-117.188 -132.812 933
54.6875 -62.5 962
-187.5 328.125 1041
218.75 7.8125 973
-273.438 164.062 954
273.438 7.8125 987
-484.375 312.5 2005
-226.562 390.625 1210
46.875 289.062 1060
-156.25 7.8125 1073
23.4375 382.812 1185
-31.25 390.625 1197
-85.9375 101.562 923
-31.25 -187.5 1070
164.062 23.4375 970
-171.875 406.25 1189
-179.688 398.438 1197
-78.125 0 940
-117.188 15.625 973
210.938 -148.438 930
70.3125 0 975
218.75 -304.688 1016
250 226.562 2078
351.562 -148.438 928
-31.25 -117.188 940
445.312 54.6875 967
226.562 -359.375 998
304.688 -164.062 943
218.75 78.125 948
195.312 -140.625 923
234.375 234.375 2065
-265.625 148.438 910
78.125 78.125 930
-31.25 -78.125 938
218.75 -359.375 995
484.375 -226.562 989
-164.062 242.188 975
320.312 -320.312 1105
-218.75 -54.6875 1090
-367.188 187.5 954
-484.375 171.875 896
-312.5 421.875 1090
265.625 -335.938 1016
-23.4375 343.75 1259
15.625 367.188 1227
-398.438 210.938 959
-414.062 -125 1452
-54.6875 304.688 1047
-187.5 335.938 1041
101.562 187.5 1013
-117.188 -23.4375 1034
-23.4375 -164.062 970
476.562 -250 1025
-257.812 406.25 1185
242.188 -265.625 1041
-15.625 375 1227
-70.3125 -156.25 946
93.75 148.438 992
226.562 375 1470
109.375 429.688 1197
156.25 375 1219
281.25 -156.25 930
-234.375 414.062 1165
117.188 429.688 1197
-23.4375 0 935
343.75 78.125 1010
46.875 -78.125 959
-54.6875 70.3125 956
148.438 -132.812 918
289.062 226.562 1713
-203.125 -117.188 1060
54.6875 289.062 1063
-257.812 328.125 1034
31.25 0 948
-164.062 -148.438 967
46.875 -312.5 1250
-187.5 351.562 1278
-93.75 210.938 998
242.188 -125 923
179.688 -406.25 1181
-78.125 -132.812 962
484.375 -15.625 995
15.625 23.4375 946
304.688 23.4375 970
-46.875 46.875 956
39.0625 -7.8125 946
375 250 1496
156.25 304.688 1616
179.688 -359.375 989
15.625 382.812 1185
78.125 312.5 1097
-23.4375 367.188 1227
101.562 304.688 1063
-265.625 125 906
164.062 -109.375 915
-70.3125 15.625 938
-156.25 406.25 1206
-406.25 164.062 901
156.25 367.188 1219
-226.562 414.062 1169
46.875 -70.3125 956
93.75 164.062 1001
-328.125 312.5 1013
250 7.8125 981
281.25 -359.375 1013
-179.688 320.312 1041
-78.125 351.562 1536
382.812 164.062 1785
304.688 7.8125 995
-39.0625 -140.625 959
101.562 250 1044
265.625 -359.375 1007
-117.188 312.5 1047
-7.8125 -171.875 975
46.875 265.625 1041
-54.6875 140.625 973
312.5 -328.125 1097
320.312 -359.375 1094
-23.4375 39.0625 948
304.688 -359.375 1097
-171.875 328.125 1044
117.188 226.562 1038
-226.562 -70.3125 1115
343.75 39.0625 951
289.062 -7.8125 981
-195.312 0 1084
-179.688 375 1236
-179.688 421.875 1452
46.875 -54.6875 951
-187.5 -85.9375 1063
-179.688 367.188 1245
-46.875 -164.062 956
-203.125 -78.125 1067
234.375 375 1470
39.0625 343.75 1264
-31.25 304.688 1057
-140.625 265.625 975
-351.562 171.875 903
-70.3125 406.25 1177
-187.5 390.625 1210
187.5 39.0625 964
-31.25 -164.062 964
-78.125 -140.625 940
-437.5 -62.5 1297
-179.688 351.562 1264
-234.375 -39.0625 1181
-85.9375 335.938 1557
-148.438 406.25 1210
218.75 -125 920
62.5 -46.875 962
-132.812 367.188 1536
-281.25 164.062 903
101.562 312.5 1063
-148.438 382.812 1210
101.562 242.188 1041
281.25 -195.312 1019
359.375 -23.4375 981
125 -265.625 1268
31.25 265.625 1041
23.4375 359.375 1223
-156.25 -101.562 1004
-93.75 62.5 973
125 429.688 1189
-437.5 46.875 1050
101.562 195.312 1016
70.3125 328.125 1268
-210.938 156.25 918
85.9375 -234.375 1185
117.188 210.938 1025
-171.875 -23.4375 1060
-7.8125 351.562 1250
70.3125 375 1516
-85.9375 -125 959
109.375 -296.875 1214
-78.125 398.438 1483
468.75 -187.5 954
257.812 -343.75 1013
265.625 -234.375 1057
-140.625 156.25 970
289.062 -359.375 1016
-70.3125 359.375 1536
-140.625 -140.625 943
-101.562 -125 933
93.75 156.25 998
70.3125 7.8125 1028
156.25 31.25 975
-39.0625 375 1516
15.625 125 928
-492.188 -320.312 2143
484.375 -187.5 946
-7.8125 15.625 943
15.625 -23.4375 938
-109.375 289.062 1034
-203.125 398.438 1206
117.188 31.25 973
171.875 -203.125 1054
-132.812 23.4375 1038
257.812 218.75 1804
-453.125 273.438 984
-500 367.188 1863
-179.688 320.312 1041
195.312 250 1696
-140.625 132.812 923
-476.562 335.938 1947
414.062 -31.25 987
78.125 -437.5 1202
437.5 -23.4375 1019
46.875 335.938 1264
257.812 7.8125 984
-31.25 -148.438 959
0 39.0625 989
-31.25 250 1025
-101.562 -93.75 992
375 421.875 1354
-218.75 156.25 918
62.5 335.938 1259
-242.188 -62.5 1245
210.938 -218.75 1050
93.75 -406.25 1169
-484.375 320.312 1981
-203.125 343.75 1283
265.625 -132.812 925
117.188 203.125 1025
31.25 46.875 975
343.75 0 998
289.062 187.5 1785
-296.875 375 1149
-7.8125 367.188 1227
23.4375 15.625 954
-445.312 46.875 1047
-359.375 179.688 954
281.25 -210.938 1057
-164.062 179.688 975
453.125 -265.625 1044
-31.25 -171.875 989
210.938 -140.625 923
-46.875 382.812 1193
93.75 -390.625 1169
-39.0625 -156.25 954
-15.625 328.125 1601
226.562 -210.938 1057
179.688 -328.125 998
375 -328.125 1087
-265.625 328.125 1031
-70.3125 -132.812 959
171.875 445.312 1245
-7.8125 390.625 1193
-140.625 343.75 1278
-492.188 -312.5 2103
179.688 23.4375 973
-273.438 421.875 1161
187.5 23.4375 973
-85.9375 375 1509
117.188 445.312 1202
-85.9375 -101.562 938
-101.562 148.438 973
-54.6875 -7.8125 940
-312.5 382.812 1115
54.6875 -39.0625 956
-242.188 171.875 964
-140.625 390.625 1210
-54.6875 242.188 978
-31.25 367.188 1543
-429.688 -62.5 1297
250 0 973
-39.0625 -7.8125 935
218.75 -265.625 1034
-468.75 234.375 962
156.25 -109.375 915
-39.0625 -148.438 954
-70.3125 46.875 946
140.625 304.688 1101
257.812 -156.25 935
218.75 -210.938 1054
-171.875 -39.0625 1060
273.438 343.75 1503
-62.5 -109.375 940
-203.125 117.188 915
-421.875 -62.5 1292
164.062 304.688 1609
101.562 23.4375 992
328.125 -203.125 1019
23.4375 85.9375 928
-23.4375 304.688 1054
-257.812 164.062 962
-226.562 390.625 1210
-148.438 -15.625 1115
218.75 382.812 1452
15.625 343.75 1268
93.75 0 1038
460.938 -31.25 989
-187.5 -148.438 1007
156.25 -140.625 928
-265.625 421.875 1165
-203.125 421.875 1177
406.25 -23.4375 989
-195.312 164.062 967
101.562 296.875 1063
-85.9375 398.438 1458
265.625 234.375 1705
101.562 164.062 1001
85.9375 -15.625 978
-195.312 406.25 1197
148.438 367.188 1145
31.25 367.188 1227
187.5 -390.625 995
437.5 -31.25 989
343.75 -7.8125 984
-54.6875 -140.625 948
304.688 242.188 1543
31.25 343.75 1255
-210.938 421.875 1169
-54.6875 390.625 1181
46.875 -382.812 1206
171.875 23.4375 970
-15.625 39.0625 946
-210.938 -78.125 1115
218.75 54.6875 943
-476.562 312.5 2005
140.625 -109.375 913
-171.875 -46.875 1060
-273.438 125 906
93.75 171.875 1001
23.4375 335.938 1273
335.938 -257.812 1141
-39.0625 367.188 1536
23.4375 382.812 1185
-335.938 312.5 1013
-23.4375 343.75 1259
-140.625 -148.438 951
257.812 -296.875 1031
-93.75 125 923
-351.562 179.688 954
-500 -179.688 2156
39.0625 125 978
-171.875 382.812 1214
-304.688 171.875 913
-250 414.062 1177
203.125 -390.625 1007
242.188 -195.312 1025
-54.6875 46.875 951
296.875 187.5 1794
195.312 -375 992
312.5 -359.375 1094
-234.375 414.062 1165
78.125 382.812 1202
492.188 -39.0625 995
15.625 0 938
78.125 343.75 1250
-23.4375 351.562 1259
-23.4375 390.625 1193
-406.25 78.125 987
171.875 -335.938 995
-156.25 406.25 1206
-15.625 -187.5 1047
273.438 -226.562 1067
-312.5 187.5 959
335.938 -226.562 1080
210.938 304.688 1601
-484.375 148.438 894
-218.75 390.625 1214
-453.125 -15.625 1177
140.625 -382.812 1019
-46.875 39.0625 954
195.312 210.938 1785
-31.25 93.75 925
85.9375 351.562 1236
85.9375 -226.562 1157
265.625 210.938 1804
-31.25 -140.625 962
140.625 312.5 1115
164.062 -218.75 1060
-101.562 140.625 925
-187.5 320.312 1041
-460.938 -210.938 2618
93.75 125 984
203.125 -312.5 1013
78.125 132.812 987
-78.125 351.562 1536
242.188 -328.125 1013
7.8125 31.25 946
15.625 -117.188 959
289.062 0 981
210.938 -265.625 1031
164.062 23.4375 970
140.625 23.4375 964
0 390.625 1185
187.5 -218.75 1041
117.188 -382.812 1165
-218.75 343.75 1047
-70.3125 -156.25 946
0 -31.25 935
-23.4375 375 1516
15.625 335.938 1268
210.938 15.625 978
437.5 -15.625 1007
15.625 39.0625 989
-171.875 -31.25 1060
304.688 171.875 1776
148.438 -382.812 995
70.3125 335.938 1264
-148.438 109.375 918
70.3125 375 1516
-54.6875 54.6875 973
-62.5 -140.625 946
429.688 289.062 1415
-109.375 375 1543
492.188 -218.75 978
195.312 -203.125 1054
31.25 390.625 1185
-234.375 351.562 1283
101.562 335.938 1138
296.875 0 984
-453.125 171.875 901
-23.4375 -39.0625 933
-179.688 390.625 1210
-39.0625 351.562 1255
406.25 250 1483
7.8125 335.938 1273
-93.75 398.438 1503
195.312 -359.375 995
-156.25 0 1087
-39.0625 -78.125 940
-125 -62.5 1019
-140.625 359.375 1278
85.9375 -453.125 1197
-171.875 -15.625 1063
23.4375 367.188 1227
125 -453.125 1185
390.625 23.4375 956
7.8125 -148.438 975
117.188 70.3125 933
39.0625 382.812 1477
226.562 -304.688 1016
195.312 31.25 975
-7.8125 296.875 1054
-226.562 -70.3125 1115
-148.438 382.812 1210
-242.188 414.062 1165
31.25 23.4375 1013
179.688 -398.438 998
70.3125 359.375 1227
-195.312 -140.625 1019
429.688 -39.0625 987
-62.5 304.688 1047
296.875 -296.875 1034
-31.25 343.75 1259
203.125 -140.625 923
-226.562 -93.75 1115
-39.0625 93.75 928
343.75 -265.625 1141
328.125 78.125 959
-320.312 171.875 951
39.0625 375 1236
-101.562 -203.125 1149
-179.688 -62.5 1067
-156.25 359.375 1241
-257.812 335.938 1034
15.625 390.625 1185
-54.6875 -156.25 948
62.5 375 1509
93.75 117.188 930
-148.438 -132.812 956
-195.312 390.625 1210
-101.562 -156.25 938
203.125 -148.438 933
250 -218.75 1060
406.25 62.5 1013
281.25 7.8125 989
-187.5 382.812 1210
195.312 -328.125 1004
132.812 -109.375 913
-210.938 242.188 987
78.125 257.812 1044
62.5 351.562 1232
23.4375 0 943
-484.375 -367.188 2680
-187.5 343.75 1278
-46.875 -7.8125 938
156.25 367.188 1219
250 -156.25 938
-93.75 140.625 925
445.312 -15.625 1007
-203.125 0 1094
476.562 140.625 1477
-85.9375 -132.812 935
15.625 -125 959
-148.438 406.25 1210
-39.0625 -132.812 951
-492.188 343.75 1936
-46.875 -148.438 951
-46.875 -148.438 954
148.438 218.75 1776
-242.188 429.688 1169
54.6875 117.188 930
-117.188 359.375 1245
15.625 296.875 1057
328.125 -164.062 930
-39.0625 117.188 928
-93.75 375 1241
-226.562 390.625 1206
-125 109.375 918
-406.25 140.625 898
101.562 109.375 930
23.4375 -15.625 938
-62.5 -148.438 946
-140.625 109.375 915
-23.4375 -156.25 964
468.75 -289.062 1044
-148.438 359.375 1250
7.8125 -132.812 959
367.188 -171.875 933
-125 -132.812 933
-273.438 328.125 1031
-398.438 250 975
-54.6875 -125 943
-15.625 132.812 925
-117.188 -23.4375 954
-375 187.5 954
-93.75 -125 915
-195.312 351.562 1278
39.0625 -320.312 1245
367.188 -23.4375 981
320.312 -164.062 930
-85.9375 375 1245
398.438 -31.25 984
-101.562 375 1236
-250 164.062 962
-125 382.812 1210
-132.812 -187.5 1177
210.938 -210.938 1054
242.188 70.3125 946
-343.75 132.812 903
46.875 296.875 1060
-179.688 367.188 1241
328.125 0 998
85.9375 320.312 1273
-257.812 328.125 1034
-414.062 164.062 901
-125 312.5 1047
-218.75 367.188 1241
-187.5 156.25 964
-62.5 398.438 1445
-164.062 406.25 1202
132.812 23.4375 962
140.625 -132.812 915
-335.938 132.812 903
-210.938 117.188 915
39.0625 359.375 1232
250 -328.125 1016
-117.188 -109.375 989
-101.562 -109.375 981
156.25 23.4375 967
39.0625 -7.8125 946
351.562 -171.875 935
-281.25 421.875 1161
31.25 -101.562 973
85.9375 -289.062 1241
492.188 210.938 1312
-265.625 -156.25 1077
218.75 -375 992
156.25 -406.25 1165
-179.688 328.125 1044
-148.438 -171.875 1173
-234.375 -39.0625 1084
0 -70.3125 940
234.375 234.375 2065
-492.188 148.438 894
15.625 359.375 1219
-109.375 -117.188 987
-140.625 -62.5 1031
15.625 382.812 1227
-132.812 -62.5 1025
-31.25 -62.5 933
-132.812 31.25 1022
-132.812 -132.812 935
85.9375 15.625 1007
-85.9375 382.812 1509
-15.625 7.8125 933
242.188 -257.812 1044
-85.9375 7.8125 935
-414.062 140.625 898
-164.062 148.438 920
23.4375 359.375 1219
-46.875 132.812 925
85.9375 -281.25 1241
132.812 -398.438 1161
-265.625 328.125 1031
-23.4375 398.438 1470
54.6875 359.375 1227
93.75 15.625 1007
156.25 -132.812 915
296.875 -156.25 928
39.0625 320.312 1292
-31.25 367.188 1223
-62.5 -132.812 948
-195.312 343.75 1278
-117.188 -93.75 998
218.75 15.625 981
46.875 382.812 1483
15.625 85.9375 928
31.25 320.312 1292
-85.9375 351.562 1255
-15.625 -39.0625 933
-421.875 195.312 951
-335.938 171.875 951
-367.188 335.938 1022
148.438 250 1705
210.938 -390.625 1001
187.5 -140.625 918
195.312 -218.75 1050
312.5 -320.312 1108
-226.562 414.062 1173
31.25 125 978
-234.375 414.062 1177
-15.625 15.625 940
312.5 0 987
132.812 -390.625 1010
414.062 -179.688 943
-156.25 406.25 1206
171.875 39.0625 959
54.6875 85.9375 925
-23.4375 367.188 1227
-367.188 171.875 903
-85.9375 -148.438 943
406.25 -179.688 943
-78.125 359.375 1245
156.25 375 1219
296.875 218.75 2078
-421.875 187.5 946
70.3125 328.125 1268
164.062 -335.938 992
250 218.75 1794
39.0625 -78.125 959
-46.875 0 935
-375 296.875 1001
117.188 281.25 1067
289.062 -7.8125 981
-187.5 390.625 1206
226.562 242.188 1688
93.75 335.938 1123
-304.688 375 1173
-31.25 -39.0625 930
93.75 179.688 1004
328.125 125 1739
-31.25 -93.75 1013
-156.25 -31.25 1070
-390.625 414.062 1063
289.062 -156.25 928
-148.438 367.188 1250
125 445.312 1202
257.812 46.875 946
304.688 179.688 1785
-164.062 -7.8125 1090
78.125 117.188 930
-281.25 398.438 1193
-453.125 226.562 962
-398.438 257.812 981
-242.188 226.562 987
476.562 -218.75 995
7.8125 7.8125 938
-31.25 375 1223
-375 171.875 903
195.312 -343.75 995
140.625 398.438 1165
101.562 250 1041
156.25 -328.125 1001
101.562 -460.938 1181
-265.625 398.438 1197
93.75 -289.062 1236
242.188 234.375 1722
-234.375 390.625 1206
23.4375 343.75 1268
273.438 -156.25 928
-351.562 312.5 1013
156.25 -382.812 992
-132.812 23.4375 975
250 0 973
93.75 164.062 1001
445.312 -179.688 933
-476.562 -218.75 2618
-31.25 -39.0625 930
-234.375 226.562 987
-140.625 390.625 1210
343.75 -273.438 1138
-375 289.062 998
179.688 -335.938 995
226.562 -343.75 1007
414.062 304.688 1404
296.875 -359.375 1097
62.5 289.062 1060
85.9375 281.25 1060
-257.812 304.688 1019
156.25 85.9375 935
-23.4375 351.562 1255
-148.438 382.812 1210
210.938 54.6875 940
-156.25 382.812 1210
109.375 -132.812 913
257.812 -359.375 1007
-54.6875 398.438 1445
-132.812 367.188 1250
125 -273.438 1268
-109.375 -140.625 933
-132.812 -78.125 1004
-78.125 54.6875 946
-93.75 101.562 920
156.25 -218.75 1060
117.188 -375 1028
234.375 -328.125 1013
156.25 218.75 1776
-242.188 -70.3125 1115
476.562 414.062 1333
468.75 -46.875 987
460.938 -187.5 951
304.688 -359.375 1094
265.625 203.125 1794
-312.5 132.812 903
46.875 -15.625 948
187.5 210.938 1776
62.5 117.188 930
54.6875 -39.0625 959
-7.8125 367.188 1232
-46.875 -179.688 1077
359.375 -23.4375 981
109.375 398.438 1169
-132.812 343.75 1273
312.5 171.875 1776
-250 7.8125 1087
-234.375 -85.9375 1112
210.938 -351.562 998
23.4375 -296.875 1439
320.312 -7.8125 984
-140.625 359.375 1245
-54.6875 -164.062 964
-312.5 390.625 1134
39.0625 289.062 1057
273.438 -359.375 1007
-101.562 -39.0625 973
-187.5 414.062 1177
-62.5 -171.875 975
-46.875 70.3125 948
242.188 7.8125 975
23.4375 0 946
70.3125 382.812 1483
-70.3125 -62.5 940
-31.25 132.812 928
70.3125 257.812 1044
-140.625 117.188 915
203.125 320.312 1536
-164.062 367.188 1241
-226.562 398.438 1197
179.688 -140.625 918
62.5 -62.5 970
-125 -140.625 935
-62.5 -156.25 948
-62.5 -109.375 935
-101.562 -101.562 984
85.9375 23.4375 992
-242.188 414.062 1177
109.375 445.312 1206
312.5 210.938 2103
117.188 7.8125 956
-132.812 -7.8125 964
62.5 78.125 928
-210.938 343.75 1283
-93.75 -140.625 935
-500 -328.125 2198
-148.438 85.9375 940
164.062 335.938 1223
203.125 15.625 973
-39.0625 304.688 1054
-500 148.438 894
328.125 -15.625 981
70.3125 335.938 1264
140.625 -382.812 1004
-460.938 -93.75 3178
-140.625 289.062 1028
-117.188 320.312 1047
39.0625 -39.0625 951
-109.375 23.4375 967
-164.062 382.812 1210
-85.9375 359.375 1245
429.688 -39.0625 984
70.3125 -398.438 1177
171.875 -398.438 989
-15.625 -85.9375 956
-156.25 343.75 1047
-351.562 335.938 1028
-328.125 132.812 903
-62.5 304.688 1047
-62.5 39.0625 946
39.0625 -23.4375 943
-7.8125 39.0625 992
257.812 -304.688 1028
101.562 31.25 981
31.25 -54.6875 948
210.938 -312.5 1016
-187.5 328.125 1041
62.5 375 1232
117.188 -453.125 1181
460.938 -15.625 998
-492.188 -304.688 2129
70.3125 351.562 1223
132.812 296.875 1101
23.4375 367.188 1223
-359.375 335.938 1022
-257.812 210.938 978
171.875 429.688 1236
-289.062 148.438 908
7.8125 85.9375 928
-31.25 -125 946
-484.375 -179.688 2381
390.625 -31.25 981
390.625 -15.625 987
484.375 -218.75 987
-265.625 335.938 1034
-484.375 328.125 1959
54.6875 -23.4375 959
281.25 257.812 1503
296.875 179.688 1785
109.375 31.25 978
-140.625 -132.812 938
-101.562 101.562 920
320.312 -15.625 975
-125 31.25 973
-156.25 -179.688 1169
-210.938 296.875 1025
39.0625 -46.875 954
-23.4375 375 1223
-101.562 31.25 956
140.625 429.688 1189
101.562 328.125 1123
-54.6875 132.812 923
-281.25 429.688 1161
-117.188 -31.25 1016
-23.4375 -171.875 973
281.25 -359.375 1010
-203.125 414.062 1177
-31.25 -85.9375 940
-140.625 39.0625 1010
-148.438 414.062 1458
-109.375 46.875 975
-156.25 320.312 1041
203.125 -210.938 1054
-93.75 375 1241
-39.0625 -78.125 935
140.625 46.875 954
351.562 -62.5 962
-85.9375 140.625 925
-187.5 70.3125 967
-46.875 117.188 925
-164.062 359.375 1236
-453.125 257.812 975
-39.0625 -148.438 956
468.75 -273.438 1047
-132.812 382.812 1210
7.8125 62.5 956
-414.062 117.188 925
-210.938 179.688 973
281.25 226.562 1705
-265.625 140.625 908
-226.562 156.25 962
31.25 390.625 1477
445.312 -257.812 1041
-171.875 -7.8125 1073
210.938 -359.375 998
140.625 39.0625 967
304.688 0 984
-273.438 421.875 1165
101.562 226.562 1031
390.625 62.5 959
226.562 203.125 1785
203.125 -359.375 995
226.562 -148.438 925
-195.312 320.312 1041
-195.312 351.562 1278
-132.812 390.625 1210
367.188 -328.125 1090
-78.125 382.812 1509
-164.062 406.25 1202
-234.375 -70.3125 1115
-218.75 398.438 1206
-46.875 351.562 1255
109.375 437.5 1206
-101.562 -70.3125 973
-429.688 164.062 901
390.625 109.375 1739
398.438 62.5 962
257.812 210.938 1794
-281.25 328.125 1031
62.5 328.125 1268
-195.312 414.062 1177
-31.25 304.688 1054
7.8125 -31.25 935
164.062 445.312 1236
445.312 -273.438 1041
171.875 15.625 967
-265.625 304.688 1019
-257.812 335.938 1031
195.312 -390.625 1004
-7.8125 -23.4375 935
195.312 -375 992
-226.562 390.625 1206
-125 320.312 1047
15.625 382.812 1227
23.4375 382.812 1477
320.312 140.625 1748
-226.562 234.375 989
320.312 234.375 1536
62.5 351.562 1223
421.875 -23.4375 998
187.5 250 1680
-226.562 328.125 1038
-460.938 -234.375 2812
-437.5 -125 2958
-226.562 -39.0625 1084
-140.625 367.188 1250
-414.062 210.938 956
-46.875 62.5 962
281.25 -7.8125 978
-289.062 281.25 1001
117.188 234.375 1038
-15.625 359.375 1241
-351.562 156.25 903
-23.4375 398.438 1470
312.5 -7.8125 981
460.938 -46.875 987
93.75 343.75 1227
-156.25 109.375 915
-382.812 429.688 1073
-125 359.375 1245
-468.75 -281.25 2859
70.3125 375 1223
460.938 -7.8125 984
-210.938 320.312 1038
296.875 -164.062 940
-273.438 375 1223
70.3125 359.375 1223
117.188 187.5 1016
-296.875 164.062 908
46.875 367.188 1232
23.4375 -31.25 940
140.625 437.5 1197
-234.375 156.25 915
-289.062 421.875 1157
-218.75 367.188 1241
-421.875 164.062 901
-70.3125 -7.8125 940
171.875 328.125 1223
-31.25 -148.438 956
-39.0625 -164.062 959
-281.25 125 906
164.062 -203.125 1054
-85.9375 54.6875 954
476.562 -46.875 987
-15.625 375 1227
-312.5 171.875 954
445.312 -31.25 987
62.5 359.375 1227
296.875 -140.625 923
289.062 85.9375 1001
257.812 -234.375 1057
-210.938 -31.25 1084
-164.062 -70.3125 1025
-46.875 -148.438 954
-210.938 421.875 1169
398.438 -23.4375 984
-210.938 -148.438 1025
-46.875 -140.625 962
195.312 -304.688 1013
250 7.8125 984
234.375 -343.75 1007
132.812 23.4375 962
-289.062 164.062 908
-7.8125 -93.75 959
-117.188 -140.625 935
-15.625 398.438 1470
-39.0625 -15.625 933
-101.562 351.562 1259
31.25 398.438 1464
-23.4375 140.625 978
-46.875 -164.062 959
-289.062 351.562 1268
289.062 7.8125 992
234.375 -195.312 1022
54.6875 -7.8125 967
179.688 -390.625 992
-257.812 414.062 1169
203.125 304.688 1601
15.625 -78.125 948
273.438 218.75 1804
-429.688 140.625 898
-375 312.5 1007
-250 351.562 1031
-273.438 328.125 1031
-171.875 406.25 1173
-156.25 406.25 1206
15.625 359.375 1219
-140.625 343.75 1268
367.188 257.812 1489
-218.75 -39.0625 1080
-242.188 390.625 1210
226.562 335.938 1543
195.312 -273.438 1028
109.375 70.3125 930
-101.562 398.438 1477
164.062 351.562 1210
-15.625 78.125 935
31.25 351.562 1232
31.25 320.312 1292
-484.375 343.75 1926
70.3125 -390.625 1177
335.938 -7.8125 987
-39.0625 367.188 1536
164.062 15.625 964
-140.625 335.938 1050
-171.875 351.562 1268
101.562 335.938 1123
23.4375 390.625 1477
-289.062 406.25 1193
-23.4375 -70.3125 935
85.9375 257.812 1047
320.312 156.25 1748
414.062 0 981
-140.625 -85.9375 1001
-265.625 164.062 954
359.375 -15.625 981
-406.25 -109.375 1427
-125 312.5 1047
289.062 -359.375 1010
117.188 -265.625 1268
-93.75 351.562 1255
101.562 351.562 1138
429.688 -23.4375 998
-218.75 242.188 978
93.75 187.5 1013
132.812 359.375 1138
-31.25 62.5 959
-46.875 93.75 923
171.875 -328.125 998
93.75 203.125 1019
-39.0625 -156.25 956
-23.4375 -78.125 940
