ply
format ascii 1.0
comment Created by Open3D
element vertex 2389
property double x
property double y
property double z
end_header
-54.6875 -148.438 728
62.5 -164.062 774
468.75 187.5 661
70.3125 171.875 693
-39.0625 -164.062 898
-242.188 343.75 802
-398.438 210.938 1624
15.625 -398.438 787
-234.375 -148.438 757
-445.312 132.812 925
-242.188 -210.938 711
117.188 195.312 636
242.188 242.188 650
226.562 -117.188 700
476.562 195.312 655
351.562 -85.9375 823
460.938 218.75 647
187.5 -93.75 690
70.3125 -140.625 706
-140.625 375 773
-156.25 -23.4375 811
85.9375 -148.438 764
-70.3125 -468.75 2333
15.625 375 606
250 -171.875 717
234.375 171.875 684
242.188 125 706
-257.812 -125 896
484.375 179.688 664
-484.375 46.875 984
312.5 437.5 568
-335.938 -140.625 896
132.812 -78.125 693
101.562 -265.625 747
-320.312 -171.875 913
148.438 179.688 646
-476.562 375 1680
382.812 328.125 603
171.875 -273.438 981
101.562 164.062 653
156.25 234.375 634
-335.938 -93.75 989
195.312 218.75 664
453.125 218.75 647
78.125 218.75 646
242.188 148.438 693
-437.5 -234.375 1013
101.562 265.625 648
164.062 -250 962
78.125 -195.312 771
234.375 148.438 694
7.8125 -453.125 785
54.6875 289.062 615
164.062 -210.938 774
-23.4375 -195.312 928
-242.188 -242.188 716
234.375 140.625 698
132.812 -281.25 734
-289.062 -101.562 882
-31.25 -15.625 800
484.375 203.125 798
-140.625 -164.062 686
-39.0625 -179.688 915
-187.5 -242.188 707
140.625 -242.188 754
-398.438 -445.312 3064
-93.75 -179.688 680
164.062 -187.5 789
-476.562 -62.5 915
15.625 -414.062 790
-367.188 242.188 1586
-62.5 -367.188 821
-468.75 -109.375 891
101.562 -281.25 744
132.812 -171.875 796
195.312 -101.562 691
-296.875 -218.75 975
195.312 -93.75 693
-500 -93.75 1101
-375 234.375 1601
-351.562 -93.75 938
78.125 226.562 644
-281.25 -78.125 862
-492.188 -429.688 2958
-382.812 265.625 1579
-31.25 -421.875 813
132.812 257.812 648
132.812 -390.625 798
-7.8125 -414.062 796
-85.9375 -187.5 684
-375 -437.5 3092
-328.125 -156.25 898
-367.188 -226.562 1080
-343.75 265.625 1572
148.438 257.812 647
-31.25 -335.938 805
148.438 -125 757
54.6875 -351.562 787
171.875 156.25 629
-46.875 -320.312 817
468.75 195.312 655
242.188 -132.812 707
226.562 -132.812 704
-7.8125 -453.125 790
-398.438 -250 1063
-234.375 -179.688 731
93.75 -195.312 757
54.6875 281.25 614
265.625 -148.438 869
-375 -93.75 889
85.9375 234.375 641
101.562 273.438 643
93.75 234.375 642
476.562 179.688 664
101.562 -328.125 792
-132.812 -218.75 684
-257.812 -148.438 767
101.562 -210.938 754
375 351.562 598
109.375 -210.938 752
390.625 328.125 604
-382.812 -31.25 839
-179.688 -234.375 698
-117.188 -109.375 713
85.9375 148.438 671
187.5 -101.562 688
-445.312 -210.938 995
335.938 390.625 583
-70.3125 -203.125 687
164.062 -203.125 780
164.062 -226.562 771
-398.438 -273.438 1060
-62.5 -343.75 825
-46.875 0 792
101.562 -445.312 807
101.562 195.312 638
-62.5 -335.938 825
250 -140.625 707
117.188 -320.312 800
54.6875 -382.812 783
-54.6875 -203.125 694
-320.312 -78.125 867
398.438 304.688 615
85.9375 -218.75 759
156.25 140.625 635
-445.312 -226.562 1010
109.375 -195.312 754
226.562 -85.9375 697
-46.875 -335.938 813
46.875 -351.562 787
70.3125 -171.875 781
-187.5 -210.938 690
-31.25 -273.438 837
164.062 -171.875 796
-421.875 39.0625 805
-203.125 -62.5 809
46.875 -320.312 790
218.75 -31.25 790
226.562 -62.5 813
179.688 164.062 629
-23.4375 -437.5 813
54.6875 -359.375 785
-39.0625 -421.875 819
164.062 -242.188 773
-398.438 -203.125 1070
140.625 -109.375 688
234.375 242.188 650
-398.438 -289.062 1060
-304.688 -125 973
-250 -234.375 714
125 -382.812 798
-23.4375 -54.6875 823
-54.6875 -359.375 817
-234.375 -257.812 723
234.375 -195.312 742
-31.25 -117.188 867
-492.188 -23.4375 951
132.812 -101.562 688
62.5 234.375 644
-281.25 -179.688 1007
-398.438 -23.4375 833
-78.125 -195.312 687
23.4375 -23.4375 798
-70.3125 -15.625 774
-312.5 -117.188 978
-85.9375 343.75 675
-70.3125 -460.938 2333
164.062 -234.375 773
7.8125 -234.375 860
-54.6875 -93.75 754
171.875 -367.188 829
468.75 242.188 807
375 343.75 604
226.562 187.5 659
78.125 -210.938 769
-250 -132.812 771
250 242.188 649
46.875 -125 711
-242.188 -210.938 711
-62.5 -140.625 723
179.688 -281.25 989
429.688 -140.625 856
-414.062 -179.688 1044
250 140.625 697
-492.188 -31.25 913
54.6875 -289.062 803
164.062 -101.562 687
179.688 -148.438 769
-62.5 -406.25 833
31.25 -179.688 736
148.438 -117.188 688
78.125 -187.5 778
179.688 109.375 641
-343.75 179.688 887
476.562 226.562 817
-421.875 -250 1034
101.562 210.938 636
117.188 -250 752
132.812 -117.188 690
398.438 -320.312 2618
117.188 218.75 637
109.375 265.625 647
-179.688 -242.188 706
-367.188 -70.3125 918
-226.562 179.688 704
62.5 -375 783
203.125 -187.5 761
-421.875 7.8125 815
171.875 179.688 634
171.875 -117.188 688
46.875 -179.688 761
-62.5 -351.562 825
-23.4375 -62.5 827
-289.062 -101.562 882
-390.625 -23.4375 833
-62.5 -398.438 827
-453.125 -7.8125 896
195.312 -23.4375 764
-31.25 -367.188 802
218.75 -109.375 696
453.125 265.625 798
78.125 250 635
-62.5 15.625 781
414.062 281.25 623
-460.938 -203.125 984
-257.812 -125 896
-304.688 -93.75 878
148.438 187.5 644
-414.062 -93.75 885
148.438 171.875 646
-70.3125 0 785
218.75 -23.4375 787
195.312 203.125 654
-367.188 -125 882
164.062 -265.625 975
125 179.688 642
445.312 281.25 790
445.312 257.812 769
101.562 -382.812 789
-54.6875 -390.625 817
-265.625 -117.188 894
-218.75 -125 767
-140.625 -109.375 725
156.25 -406.25 821
62.5 -367.188 783
125 187.5 640
-23.4375 367.188 628
164.062 -179.688 790
-39.0625 -140.625 742
296.875 460.938 562
39.0625 250 630
-484.375 343.75 1722
187.5 -15.625 766
367.188 351.562 598
-46.875 -203.125 933
85.9375 -203.125 759
476.562 -320.312 2485
70.3125 -437.5 785
195.312 109.375 717
-320.312 109.375 747
-351.562 -54.6875 851
70.3125 -203.125 766
-328.125 93.75 755
109.375 -218.75 754
31.25 -375 785
164.062 -273.438 849
164.062 -132.812 761
414.062 296.875 749
453.125 257.812 800
-218.75 -179.688 720
-187.5 312.5 805
31.25 -343.75 789
-218.75 -265.625 728
-203.125 -273.438 733
164.062 242.188 627
-328.125 -148.438 896
164.062 -289.062 843
-78.125 -148.438 707
164.062 -296.875 839
-39.0625 -179.688 915
-54.6875 -312.5 825
-312.5 -179.688 925
-351.562 78.125 767
-156.25 437.5 1392
445.312 234.375 643
-70.3125 -476.562 2317
-242.188 -242.188 716
-226.562 -257.812 722
421.875 281.25 623
-125 -125 703
429.688 257.812 632
-492.188 -15.625 948
187.5 125 637
304.688 453.125 565
351.562 375 589
-23.4375 -70.3125 833
289.062 460.938 562
492.188 164.062 674
218.75 140.625 698
335.938 406.25 581
109.375 187.5 640
304.688 437.5 568
-54.6875 -406.25 827
-328.125 101.562 752
-23.4375 -281.25 825
-78.125 -7.8125 771
359.375 390.625 742
-242.188 -406.25 1439
335.938 421.875 728
164.062 -257.812 967
234.375 140.625 698
-39.0625 -187.5 920
-273.438 -210.938 728
-234.375 -250 717
-46.875 -406.25 817
-39.0625 -312.5 815
187.5 -101.562 688
-46.875 -382.812 811
335.938 445.312 717
0 -343.75 792
164.062 -148.438 767
-468.75 164.062 1529
242.188 -93.75 833
187.5 289.062 632
-23.4375 -23.4375 803
164.062 -164.062 798
-375 -453.125 3064
218.75 218.75 652
-31.25 -125 871
-414.062 -281.25 1057
-351.562 -101.562 943
-70.3125 -281.25 856
-70.3125 -164.062 704
-62.5 -359.375 823
203.125 273.438 638
492.188 156.25 679
-437.5 -242.188 1016
-273.438 148.438 720
-468.75 -195.312 970
-390.625 -421.875 3064
132.812 -320.312 805
-85.9375 -468.75 2365
265.625 132.812 700
-234.375 -179.688 731
-234.375 -148.438 757
-109.375 320.312 697
390.625 320.312 603
-125 -226.562 687
-85.9375 -46.875 750
-296.875 -398.438 1458
179.688 164.062 629
109.375 -398.438 792
140.625 242.188 655
-54.6875 -78.125 761
-39.0625 -296.875 827
-78.125 -62.5 746
93.75 250 636
-39.0625 -7.8125 796
-15.625 -445.312 815
-484.375 195.312 1915
171.875 -140.625 764
171.875 218.75 637
-445.312 -78.125 882
-156.25 -78.125 762
-15.625 -390.625 794
-281.25 -406.25 1464
312.5 429.688 572
328.125 406.25 581
179.688 7.8125 773
-281.25 -171.875 1007
62.5 179.688 688
-148.438 -171.875 684
125 -101.562 688
164.062 -226.562 771
-23.4375 -437.5 813
390.625 265.625 629
-343.75 -375 1410
-359.375 -46.875 849
0 -226.562 869
46.875 -375 783
31.25 -281.25 807
-62.5 7.8125 787
453.125 234.375 767
-390.625 -78.125 885
203.125 -93.75 694
-242.188 -210.938 711
351.562 390.625 742
109.375 -234.375 749
492.188 187.5 833
-289.062 -140.625 1044
-46.875 -343.75 811
-179.688 -101.562 755
54.6875 218.75 649
-31.25 -132.812 875
-335.938 -375 1439
-15.625 -234.375 860
-421.875 -164.062 1034
-62.5 -390.625 825
-250 -179.688 744
210.938 164.062 657
-476.562 -179.688 948
-382.812 242.188 1594
70.3125 -164.062 785
31.25 226.562 635
164.062 -250 962
-226.562 187.5 700
-39.0625 -281.25 837
-54.6875 -367.188 817
-125 -289.062 1268
-156.25 -117.188 730
-23.4375 -382.812 800
-117.188 -31.25 769
-273.438 -101.562 878
382.812 328.125 603
-445.312 179.688 1564
429.688 273.438 628
-7.8125 -453.125 790
468.75 210.938 654
421.875 273.438 628
312.5 453.125 714
-265.625 -117.188 894
140.625 265.625 646
0 273.438 649
-31.25 -289.062 827
171.875 -328.125 833
-125 -234.375 694
-468.75 -109.375 891
164.062 -210.938 774
-289.062 -156.25 998
-406.25 -109.375 887
-304.688 -203.125 956
-468.75 -187.5 956
-62.5 -125 730
257.812 210.938 663
250 148.438 693
-335.938 273.438 1564
70.3125 -226.562 764
187.5 -289.062 998
179.688 226.562 631
-500 0 943
-335.938 -31.25 835
-218.75 -101.562 789
234.375 203.125 649
-93.75 -70.3125 733
-23.4375 273.438 650
359.375 375 589
78.125 -210.938 769
164.062 -234.375 773
-390.625 -218.75 1077
-187.5 -234.375 700
-453.125 -101.562 896
492.188 203.125 825
70.3125 281.25 613
281.25 468.75 559
328.125 414.062 576
7.8125 -242.188 851
-210.938 -187.5 710
195.312 281.25 636
156.25 210.938 646
132.812 -273.438 746
-289.062 -125 891
203.125 265.625 642
171.875 210.938 642
437.5 289.062 785
46.875 -312.5 796
164.062 -187.5 789
164.062 -218.75 771
164.062 -195.312 783
-210.938 -164.062 727
-398.438 39.0625 794
109.375 -242.188 749
-85.9375 -296.875 860
484.375 187.5 800
171.875 -242.188 769
-359.375 -54.6875 851
273.438 218.75 659
-445.312 -46.875 908
140.625 -117.188 688
-187.5 -242.188 707
125 265.625 647
-429.688 -242.188 1022
-54.6875 -226.562 690
-39.0625 -203.125 933
492.188 171.875 671
-367.188 -218.75 1084
23.4375 242.188 634
-382.812 -218.75 1080
-23.4375 -406.25 803
-328.125 -70.3125 860
-367.188 -54.6875 851
164.062 -156.25 802
0 -257.812 835
-484.375 -179.688 933
414.062 289.062 623
-257.812 250 843
39.0625 289.062 619
226.562 179.688 662
-429.688 -101.562 891
-234.375 -140.625 764
-265.625 -140.625 896
171.875 -117.188 688
-359.375 -132.812 887
250 125 706
62.5 -226.562 767
-46.875 -406.25 817
-39.0625 -187.5 920
-203.125 -273.438 733
234.375 -117.188 704
-46.875 -125 746
-429.688 15.625 815
140.625 -296.875 819
-39.0625 -367.188 805
218.75 -109.375 696
-476.562 -187.5 954
140.625 -132.812 762
78.125 -226.562 755
-218.75 -125 767
39.0625 -132.812 717
453.125 226.562 647
-125 -218.75 683
62.5 -351.562 787
203.125 -101.562 693
156.25 -109.375 687
-296.875 -93.75 878
148.438 -281.25 738
-375 -101.562 887
-273.438 -265.625 1019
367.188 375 747
-429.688 -234.375 1019
-39.0625 -195.312 928
109.375 -320.312 798
195.312 -101.562 691
85.9375 234.375 641
-312.5 -132.812 970
-429.688 -250 1031
132.812 -226.562 767
156.25 -140.625 764
203.125 -210.938 755
132.812 -250 757
39.0625 -312.5 796
117.188 265.625 647
226.562 164.062 687
-242.188 -218.75 708
-62.5 -78.125 754
406.25 296.875 615
484.375 171.875 671
-132.812 -62.5 757
-85.9375 -179.688 687
257.812 234.375 653
93.75 -218.75 754
-31.25 -15.625 800
54.6875 -398.438 785
164.062 -109.375 687
-15.625 -406.25 800
359.375 367.188 593
195.312 -437.5 2835
-382.812 -203.125 1077
39.0625 -218.75 935
250 132.812 700
-421.875 -265.625 1034
-234.375 -164.062 752
125 -406.25 790
343.75 390.625 582
-242.188 -132.812 896
-70.3125 -164.062 693
-453.125 -210.938 978
-54.6875 15.625 780
460.938 226.562 647
-171.875 -148.438 722
-210.938 359.375 792
-125 390.625 764
484.375 218.75 778
-406.25 23.4375 802
-468.75 343.75 1722
-398.438 -210.938 1057
171.875 -109.375 684
320.312 429.688 569
-62.5 -195.312 686
-429.688 -109.375 887
-265.625 -117.188 887
179.688 250 624
85.9375 -195.312 766
156.25 156.25 636
351.562 406.25 581
7.8125 -328.125 794
164.062 -179.688 792
218.75 -62.5 736
-210.938 -101.562 789
70.3125 257.812 616
460.938 210.938 650
62.5 250 627
210.938 250 648
-390.625 46.875 790
85.9375 242.188 636
218.75 164.062 631
-343.75 -117.188 887
-62.5 -132.812 713
-148.438 242.188 671
164.062 -242.188 752
140.625 -125 738
-62.5 -171.875 696
210.938 242.188 652
-234.375 -156.25 757
85.9375 -328.125 787
468.75 195.312 658
156.25 -101.562 686
93.75 218.75 641
125 -351.562 789
109.375 -421.875 790
164.062 -171.875 798
-210.938 195.312 696
437.5 250 634
78.125 281.25 611
210.938 -54.6875 736
-429.688 406.25 1647
437.5 39.0625 738
54.6875 281.25 615
-476.562 7.8125 923
93.75 -78.125 698
164.062 -257.812 747
-390.625 -437.5 3092
-359.375 -46.875 845
-23.4375 -78.125 771
-492.188 -7.8125 954
101.562 -85.9375 693
-414.062 -171.875 1031
-210.938 -265.625 722
210.938 -85.9375 693
382.812 335.938 601
117.188 156.25 667
-382.812 -148.438 898
-453.125 54.6875 973
109.375 -265.625 742
109.375 257.812 650
171.875 7.8125 769
179.688 242.188 625
-70.3125 -101.562 720
-500 -148.438 910
203.125 0 774
156.25 273.438 642
-250 328.125 809
140.625 -242.188 755
476.562 234.375 769
-39.0625 -171.875 716
156.25 -289.062 734
203.125 234.375 627
164.062 242.188 654
70.3125 -367.188 780
93.75 195.312 643
164.062 -164.062 800
226.562 -31.25 790
171.875 -132.812 755
-242.188 -218.75 713
234.375 148.438 694
-476.562 -453.125 3064
468.75 203.125 654
453.125 273.438 792
117.188 -359.375 785
-484.375 -78.125 901
242.188 -125 698
54.6875 -367.188 780
148.438 -296.875 813
-460.938 304.688 1785
-46.875 -398.438 823
-234.375 -140.625 769
-390.625 -296.875 1060
-492.188 -31.25 951
234.375 179.688 655
-250 -140.625 901
70.3125 -171.875 762
-273.438 -195.312 1028
-23.4375 -85.9375 767
-265.625 -250 998
320.312 445.312 565
23.4375 250 635
0 265.625 652
195.312 -109.375 687
351.562 382.812 585
-250 -187.5 741
-125 -226.562 686
-46.875 -390.625 821
-179.688 -382.812 1392
70.3125 -140.625 710
-203.125 -70.3125 811
164.062 -226.562 771
78.125 -179.688 767
335.938 398.438 579
46.875 250 632
101.562 -351.562 783
-445.312 -234.375 1007
148.438 -398.438 796
54.6875 265.625 618
-367.188 -39.0625 841
31.25 -289.062 802
140.625 -140.625 747
195.312 -296.875 858
-140.625 -39.0625 790
-398.438 -453.125 3064
-54.6875 -320.312 833
156.25 -117.188 686
54.6875 -445.312 774
-429.688 -460.938 3178
-382.812 54.6875 787
-265.625 -226.562 714
54.6875 242.188 636
132.812 -445.312 813
242.188 195.312 647
148.438 -109.375 686
-242.188 -132.812 896
-289.062 132.812 733
-492.188 -15.625 954
93.75 289.062 636
-273.438 -109.375 885
328.125 437.5 567
-62.5 -343.75 835
-265.625 -234.375 716
164.062 -203.125 780
-62.5 -117.188 720
-31.25 -132.812 739
-85.9375 -226.562 683
-289.062 -117.188 882
-125 -234.375 691
132.812 -70.3125 717
101.562 -117.188 694
-54.6875 -351.562 825
-335.938 -140.625 887
-70.3125 -132.812 706
39.0625 304.688 632
-414.062 -85.9375 880
148.438 -382.812 796
-70.3125 -39.0625 752
140.625 195.312 637
7.8125 265.625 652
-375 54.6875 785
164.062 -265.625 744
476.562 203.125 654
-351.562 -93.75 894
0 -414.062 796
-421.875 39.0625 817
85.9375 304.688 631
-257.812 -125 894
70.3125 -359.375 781
-54.6875 -382.812 825
171.875 -335.938 813
-31.25 -429.688 825
-328.125 -70.3125 860
-453.125 62.5 967
140.625 -320.312 800
164.062 -250 752
164.062 203.125 642
15.625 -406.25 787
-320.312 -125 954
453.125 218.75 647
85.9375 -226.562 766
320.312 398.438 579
-359.375 78.125 771
39.0625 -226.562 847
-390.625 -429.688 3092
203.125 250 649
171.875 218.75 641
140.625 -226.562 766
-140.625 -70.3125 762
367.188 359.375 593
31.25 234.375 631
429.688 218.75 648
-15.625 -31.25 805
15.625 -226.562 946
171.875 156.25 630
-54.6875 -304.688 845
-492.188 -273.438 1307
375 343.75 598
85.9375 -304.688 794
-234.375 -187.5 733
-398.438 359.375 1705
-46.875 -367.188 817
164.062 -234.375 773
-375 -85.9375 885
62.5 218.75 647
156.25 148.438 637
101.562 187.5 642
468.75 234.375 769
-234.375 -164.062 752
-414.062 15.625 809
62.5 -164.062 723
125 195.312 635
132.812 234.375 636
132.812 226.562 635
-289.062 -132.812 1044
-78.125 -187.5 676
-226.562 -171.875 741
210.938 257.812 643
117.188 179.688 642
140.625 -109.375 686
70.3125 250 627
-242.188 -218.75 713
70.3125 210.938 649
-7.8125 -218.75 943
93.75 -328.125 787
-31.25 -414.062 815
93.75 156.25 671
0 -62.5 823
62.5 -382.812 781
7.8125 375 609
296.875 453.125 560
78.125 -132.812 703
-250 -281.25 1025
85.9375 -203.125 762
-23.4375 -421.875 811
-351.562 -437.5 3092
210.938 195.312 650
406.25 -148.438 862
-31.25 -148.438 727
-359.375 250 1586
23.4375 -359.375 783
140.625 -281.25 730
-78.125 -39.0625 752
-476.562 -39.0625 910
218.75 164.062 631
-70.3125 -476.562 2333
93.75 -218.75 764
-23.4375 -335.938 805
171.875 -289.062 839
-70.3125 -195.312 680
101.562 -328.125 785
179.688 -273.438 854
-70.3125 -156.25 694
70.3125 273.438 612
-492.188 -171.875 925
-414.062 -265.625 1034
-304.688 -156.25 896
-140.625 -156.25 693
-312.5 -171.875 896
-390.625 218.75 1616
335.938 414.062 577
164.062 -101.562 684
-351.562 -70.3125 854
-265.625 -218.75 1044
78.125 -304.688 796
-54.6875 -171.875 700
-210.938 -265.625 722
-406.25 -101.562 889
398.438 312.5 611
109.375 265.625 647
-242.188 -132.812 896
-257.812 -265.625 1013
250 -132.812 701
-31.25 -156.25 727
-265.625 -117.188 887
-273.438 -125 887
-437.5 -218.75 998
-296.875 -101.562 878
140.625 -132.812 764
-414.062 -273.438 1044
-164.062 -117.188 742
-476.562 -7.8125 913
101.562 -187.5 781
234.375 -414.062 2812
492.188 179.688 664
148.438 -406.25 800
-242.188 -140.625 769
-54.6875 328.125 634
-234.375 -195.312 725
85.9375 210.938 647
93.75 203.125 642
140.625 -156.25 752
-39.0625 -218.75 948
382.812 343.75 600
140.625 164.062 648
-468.75 -195.312 951
-460.938 -62.5 920
15.625 257.812 654
62.5 234.375 640
484.375 210.938 823
-195.312 -46.875 831
210.938 -101.562 688
-195.312 -187.5 706
312.5 437.5 565
-273.438 351.562 1483
-7.8125 -398.438 796
-23.4375 -265.625 845
148.438 -390.625 796
-234.375 -156.25 757
54.6875 -148.438 716
476.562 226.562 778
390.625 335.938 601
39.0625 -304.688 796
250 226.562 655
226.562 164.062 655
-39.0625 -414.062 821
-54.6875 -164.062 707
-39.0625 -390.625 811
171.875 -265.625 864
164.062 -195.312 785
-15.625 -281.25 827
-335.938 85.9375 761
-406.25 -7.8125 823
257.812 125 706
-218.75 -132.812 767
-421.875 15.625 809
421.875 375 746
-70.3125 -468.75 2349
7.8125 -31.25 803
164.062 -156.25 762
218.75 148.438 632
117.188 257.812 649
156.25 -281.25 734
-289.062 289.062 841
-78.125 -23.4375 761
-320.312 -382.812 1433
445.312 242.188 640
93.75 -23.4375 776
-7.8125 -343.75 796
-382.812 62.5 787
132.812 -164.062 754
-335.938 -62.5 854
171.875 -328.125 815
132.812 179.688 642
132.812 187.5 638
-250 -289.062 1025
85.9375 -437.5 787
343.75 398.438 581
-117.188 -226.562 684
-117.188 -218.75 682
-164.062 320.312 800
226.562 -109.375 693
-46.875 -398.438 823
-273.438 -109.375 885
468.75 250 803
70.3125 -195.312 761
-351.562 70.3125 771
85.9375 -78.125 703
-328.125 -93.75 935
-250 164.062 714
-453.125 265.625 1823
164.062 -187.5 789
-234.375 -406.25 1458
171.875 -195.312 780
492.188 210.938 819
164.062 -210.938 774
179.688 117.188 641
15.625 -234.375 847
-46.875 7.8125 785
-304.688 -85.9375 869
-398.438 -15.625 827
453.125 242.188 640
-23.4375 -93.75 762
-179.688 -242.188 703
-210.938 -101.562 789
164.062 -117.188 683
171.875 15.625 764
-320.312 -164.062 903
-218.75 -257.812 720
39.0625 226.562 632
109.375 -273.438 742
476.562 234.375 769
-296.875 -132.812 967
101.562 281.25 641
140.625 -390.625 794
179.688 242.188 625
-429.688 31.25 815
-195.312 -390.625 1415
179.688 234.375 627
-31.25 -359.375 807
109.375 -218.75 750
265.625 226.562 655
-54.6875 15.625 780
-304.688 117.188 741
-250 -414.062 1458
265.625 140.625 696
453.125 226.562 644
-62.5 -156.25 704
-54.6875 -375 823
171.875 -250 959
-250 -125 894
-39.0625 -125 742
-398.438 31.25 796
187.5 171.875 628
148.438 -289.062 730
132.812 -437.5 803
-242.188 -164.062 755
-476.562 -46.875 910
-320.312 101.562 750
93.75 296.875 634
-164.062 -140.625 722
218.75 -15.625 780
-257.812 -132.812 898
-132.812 -101.562 733
93.75 -281.25 742
-367.188 -62.5 894
-23.4375 -101.562 761
-242.188 -218.75 713
-468.75 -15.625 906
-85.9375 -179.688 672
-257.812 156.25 717
-257.812 -101.562 873
-242.188 -226.562 711
-359.375 218.75 875
-70.3125 -195.312 680
367.188 382.812 741
164.062 23.4375 761
-7.8125 -335.938 798
460.938 218.75 647
-62.5 -351.562 835
-109.375 -289.062 1255
70.3125 281.25 612
85.9375 250 635
195.312 -195.312 769
-445.312 210.938 1904
-109.375 273.438 654
109.375 242.188 640
93.75 -203.125 767
78.125 -328.125 785
70.3125 -328.125 785
-187.5 -187.5 701
-242.188 -234.375 711
-265.625 -242.188 716
164.062 -218.75 773
390.625 328.125 606
-492.188 -164.062 923
46.875 234.375 631
78.125 23.4375 767
70.3125 -117.188 704
-46.875 -171.875 713
109.375 -117.188 694
210.938 -101.562 688
-210.938 -164.062 733
125 -101.562 688
414.062 289.062 620
-328.125 -242.188 1077
-406.25 203.125 1632
101.562 203.125 637
-31.25 -140.625 739
210.938 -7.8125 776
210.938 210.938 655
78.125 -125 700
-31.25 -164.062 719
132.812 -7.8125 762
484.375 195.312 657
-15.625 -406.25 803
-54.6875 -132.812 722
375 351.562 597
-421.875 -85.9375 882
179.688 -273.438 854
70.3125 -156.25 711
109.375 203.125 636
-476.562 109.375 951
-460.938 234.375 1863
171.875 -218.75 769
171.875 -257.812 962
257.812 -148.438 707
140.625 -226.562 766
-31.25 -156.25 727
-250 -281.25 1025
-46.875 -398.438 823
140.625 -148.438 747
171.875 -265.625 864
210.938 265.625 641
-437.5 140.625 920
335.938 406.25 577
-312.5 109.375 746
-31.25 -273.438 849
-39.0625 -218.75 948
-304.688 -117.188 973
289.062 468.75 555
148.438 -335.938 798
484.375 179.688 664
359.375 382.812 585
164.062 -414.062 813
7.8125 -70.3125 827
-359.375 70.3125 773
-421.875 -156.25 906
164.062 234.375 637
-132.812 -156.25 691
226.562 -125 694
-468.75 -54.6875 913
78.125 -437.5 783
414.062 320.312 769
-429.688 -250 1022
-156.25 -179.688 688
171.875 -187.5 785
171.875 -187.5 785
164.062 -148.438 762
164.062 -171.875 798
187.5 -281.25 854
-140.625 -164.062 690
78.125 -171.875 773
-148.438 -250 704
351.562 382.812 585
-343.75 -132.812 889
-265.625 -210.938 1041
-242.188 -226.562 711
-31.25 -398.438 807
85.9375 -210.938 762
-296.875 -210.938 964
-351.562 -398.438 3149
-265.625 -218.75 1044
-234.375 -242.188 713
-234.375 -195.312 725
164.062 140.625 634
-117.188 -226.562 684
171.875 -210.938 773
-187.5 218.75 682
171.875 242.188 629
-265.625 -226.562 714
-148.438 -171.875 688
195.312 289.062 631
-70.3125 -351.562 843
-359.375 -78.125 923
-476.562 7.8125 923
-39.0625 -351.562 811
-179.688 -234.375 697
-226.562 -250 716
-320.312 257.812 851
-476.562 -31.25 908
203.125 218.75 664
-15.625 -39.0625 811
78.125 257.812 615
234.375 -117.188 694
406.25 343.75 759
-375 -31.25 835
-484.375 406.25 1647
-54.6875 -140.625 719
-31.25 -7.8125 792
234.375 148.438 694
-335.938 -62.5 854
-171.875 -242.188 700
-179.688 -85.9375 778
62.5 265.625 614
195.312 281.25 636
-203.125 -101.562 781
85.9375 265.625 614
-328.125 -398.438 3208
-195.312 -234.375 701
476.562 195.312 657
125 -328.125 794
195.312 -101.562 687
125 -359.375 789
-296.875 -445.312 3333
70.3125 -148.438 711
-140.625 -367.188 1365
-312.5 -125 964
-484.375 -46.875 910
-210.938 -109.375 781
132.812 250 642
203.125 187.5 631
437.5 234.375 640
171.875 195.312 644
171.875 -273.438 864
148.438 -140.625 762
-31.25 -390.625 805
164.062 250 652
-468.75 -46.875 910
85.9375 -164.062 783
-367.188 -203.125 1063
140.625 -179.688 789
148.438 -101.562 686
109.375 -320.312 792
-367.188 -421.875 3120
93.75 -351.562 783
-7.8125 -210.938 935
109.375 -453.125 802
109.375 -453.125 802
109.375 -257.812 744
257.812 -164.062 720
-273.438 -109.375 885
-31.25 -171.875 716
304.688 460.938 559
328.125 429.688 569
-203.125 -78.125 803
-335.938 -109.375 964
-250 -289.062 1025
-390.625 -210.938 1070
-343.75 -85.9375 933
-281.25 -101.562 878
-218.75 -117.188 778
78.125 250 632
250 148.438 693
-46.875 -390.625 821
101.562 -210.938 755
-421.875 156.25 915
-250 -125 894
421.875 281.25 622
-406.25 -101.562 889
242.188 156.25 690
-375 -250 1070
78.125 210.938 650
-351.562 257.812 1572
468.75 203.125 654
-15.625 -437.5 817
-39.0625 0 790
-382.812 226.562 1616
-39.0625 -289.062 839
140.625 -257.812 752
-218.75 -257.812 720
242.188 203.125 647
85.9375 164.062 696
93.75 250 635
85.9375 234.375 641
468.75 218.75 647
492.188 203.125 823
164.062 -164.062 800
140.625 -273.438 742
15.625 250 657
-492.188 -132.812 901
156.25 -312.5 811
460.938 234.375 643
140.625 -367.188 794
-54.6875 -320.312 833
-23.4375 -367.188 802
171.875 -101.562 684
-468.75 15.625 915
171.875 -234.375 773
195.312 226.562 628
46.875 289.062 638
-164.062 335.938 790
-85.9375 -250 701
109.375 -281.25 742
171.875 -242.188 773
78.125 -179.688 767
-210.938 -125 771
140.625 -164.062 754
85.9375 -125 697
382.812 335.938 601
-7.8125 -445.312 817
-46.875 -304.688 835
-312.5 -140.625 898
242.188 -117.188 697
-382.812 46.875 787
195.312 132.812 632
343.75 406.25 581
171.875 -250 959
132.812 -218.75 749
304.688 445.312 563
-46.875 -296.875 837
-406.25 171.875 906
-46.875 -296.875 837
-23.4375 -109.375 757
171.875 -93.75 684
-320.312 -15.625 821
-54.6875 -367.188 823
-23.4375 -15.625 798
62.5 -351.562 783
328.125 414.062 573
492.188 210.938 819
367.188 367.188 591
117.188 -398.438 789
-39.0625 -398.438 813
-445.312 -218.75 995
62.5 -328.125 787
78.125 -203.125 761
-70.3125 -125 710
-437.5 39.0625 910
-132.812 257.812 663
242.188 -85.9375 823
78.125 281.25 611
-406.25 -7.8125 823
70.3125 -375 780
179.688 -93.75 686
-500 -140.625 908
-289.062 -140.625 981
39.0625 -242.188 843
390.625 343.75 600
148.438 -328.125 803
171.875 -257.812 962
171.875 -226.562 769
-460.938 -70.3125 885
-234.375 -203.125 720
-414.062 -164.062 1031
453.125 234.375 643
351.562 398.438 581
-70.3125 -70.3125 736
-31.25 -164.062 719
179.688 125 637
187.5 -93.75 686
-343.75 -54.6875 849
320.312 429.688 569
117.188 -375 787
226.562 171.875 654
7.8125 -445.312 798
187.5 226.562 628
-367.188 62.5 778
-125 -437.5 3269
-257.812 -296.875 1028
85.9375 -117.188 697
203.125 179.688 630
-234.375 -242.188 713
-460.938 -117.188 889
-242.188 -210.938 720
-179.688 218.75 682
-39.0625 -414.062 821
-31.25 -421.875 823
78.125 -132.812 703
0 -234.375 862
62.5 -359.375 781
-500 23.4375 998
109.375 -265.625 742
-171.875 -203.125 686
-242.188 -234.375 711
-375 -234.375 1073
398.438 -210.938 908
-85.9375 -171.875 675
-304.688 -468.75 3333
-359.375 -125 885
-15.625 -226.562 951
125 -289.062 734
234.375 234.375 653
-398.438 -195.312 1057
-289.062 -125 1044
-328.125 93.75 754
-31.25 -171.875 716
250 -125 700
-62.5 -375 837
140.625 -250 754
101.562 -437.5 794
-15.625 -31.25 805
-476.562 -187.5 943
70.3125 265.625 614
273.438 226.562 655
-156.25 -375 1370
250 132.812 700
-437.5 -62.5 878
-281.25 -406.25 1452
93.75 -117.188 696
226.562 187.5 655
-85.9375 304.688 644
406.25 312.5 613
-468.75 101.562 951
101.562 -351.562 783
-281.25 -242.188 989
203.125 -304.688 858
62.5 -304.688 794
164.062 273.438 641
-250 -125 894
-226.562 -171.875 741
-46.875 -140.625 727
85.9375 242.188 636
164.062 242.188 654
-445.312 -109.375 894
195.312 -101.562 687
-93.75 0 789
226.562 234.375 653
-312.5 -78.125 864
-390.625 39.0625 790
-23.4375 -382.812 803
171.875 23.4375 761
171.875 -109.375 684
-476.562 -54.6875 913
-171.875 -367.188 1376
437.5 289.062 785
-54.6875 -171.875 700
-234.375 -195.312 725
31.25 -304.688 796
-7.8125 -445.312 817
-414.062 -109.375 891
-62.5 -164.062 698
218.75 -101.562 688
-15.625 -23.4375 800
85.9375 -210.938 762
101.562 -226.562 749
85.9375 312.5 628
78.125 -234.375 762
-31.25 -179.688 714
265.625 140.625 696
125 156.25 661
257.812 242.188 649
23.4375 -234.375 854
460.938 -289.062 2579
476.562 210.938 654
-203.125 -265.625 723
-281.25 -101.562 878
-70.3125 -62.5 739
85.9375 210.938 647
-195.312 -179.688 708
93.75 242.188 636
54.6875 -312.5 792
-398.438 -460.938 3037
-187.5 210.938 683
117.188 -85.9375 687
117.188 273.438 643
429.688 273.438 628
164.062 -93.75 687
359.375 375 589
62.5 -132.812 707
218.75 -7.8125 774
250 140.625 696
101.562 218.75 637
-234.375 -203.125 720
164.062 15.625 764
226.562 164.062 655
195.312 132.812 632
140.625 -351.562 796
164.062 -132.812 759
343.75 398.438 581
179.688 -328.125 819
-265.625 -414.062 1464
140.625 265.625 644
-70.3125 -148.438 701
-281.25 -304.688 1050
-265.625 234.375 849
-476.562 93.75 954
484.375 187.5 662
-46.875 -375 817
-375 -85.9375 885
93.75 -250 747
-257.812 -257.812 1007
109.375 250 636
242.188 179.688 661
85.9375 -187.5 771
-39.0625 -156.25 725
117.188 -359.375 785
195.312 242.188 624
171.875 -234.375 773
-195.312 -54.6875 821
-70.3125 -195.312 680
7.8125 273.438 648
101.562 -195.312 754
-335.938 -117.188 956
93.75 148.438 671
101.562 -218.75 754
195.312 7.8125 769
-453.125 -93.75 891
171.875 -265.625 864
78.125 257.812 615
85.9375 -195.312 766
218.75 -93.75 691
-242.188 -226.562 711
140.625 -304.688 807
484.375 226.562 815
-62.5 -101.562 728
171.875 -179.688 790
117.188 226.562 635
210.938 257.812 643
398.438 320.312 610
-23.4375 -429.688 821
468.75 210.938 655
54.6875 -429.688 783
-343.75 85.9375 762
-7.8125 -375 794
171.875 -250 959
234.375 -109.375 694
140.625 -78.125 690
257.812 -156.25 711
-367.188 -39.0625 841
257.812 -414.062 2767
406.25 -210.938 908
-46.875 -156.25 719
62.5 289.062 613
171.875 -210.938 773
140.625 -70.3125 716
468.75 -179.688 880
-320.312 -109.375 970
-15.625 -46.875 815
164.062 -179.688 792
-265.625 -156.25 1038
-351.562 -85.9375 933
109.375 156.25 667
-39.0625 -406.25 817
-398.438 257.812 1739
171.875 -203.125 776
-250 164.062 714
-406.25 31.25 802
187.5 -281.25 854
70.3125 -164.062 723
-406.25 -289.062 1057
-429.688 -46.875 906
296.875 460.938 559
101.562 -335.938 785
367.188 -367.188 2598
101.562 -203.125 754
7.8125 -320.312 796
210.938 226.562 658
156.25 15.625 764
-453.125 -203.125 973
-250 -414.062 1458
-359.375 -101.562 894
-39.0625 -289.062 839
-46.875 -148.438 723
93.75 156.25 671
-335.938 109.375 771
250 148.438 693
-382.812 -125 882
-375 -31.25 835
-312.5 265.625 841
109.375 -382.812 783
164.062 210.938 642
203.125 -101.562 687
-406.25 -85.9375 880
156.25 -93.75 687
-375 203.125 887
179.688 -93.75 686
-46.875 -304.688 835
85.9375 -179.688 776
171.875 -296.875 831
171.875 -132.812 755
242.188 132.812 698
-31.25 343.75 624
-460.938 -132.812 894
15.625 265.625 650
0 -398.438 792
171.875 -242.188 773
-15.625 -406.25 803
70.3125 -187.5 761
-304.688 -117.188 973
46.875 -281.25 805
148.438 -273.438 739
85.9375 -140.625 794
492.188 171.875 672
101.562 210.938 636
148.438 -312.5 807
-62.5 -148.438 707
117.188 -210.938 750
-70.3125 -343.75 849
-210.938 -117.188 773
187.5 265.625 622
-234.375 -171.875 746
351.562 390.625 584
-289.062 -93.75 873
93.75 265.625 614
101.562 -328.125 785
-492.188 -140.625 903
304.688 453.125 560
-70.3125 -335.938 851
-195.312 -390.625 1415
93.75 -304.688 742
132.812 -328.125 796
265.625 234.375 652
-31.25 -179.688 714
140.625 -265.625 747
-132.812 -210.938 678
15.625 -414.062 790
78.125 -164.062 774
164.062 -109.375 683
-54.6875 -117.188 728
-15.625 -437.5 817
85.9375 -351.562 783
164.062 -320.312 813
-421.875 101.562 938
140.625 -203.125 778
-234.375 -203.125 720
148.438 -101.562 686
164.062 156.25 632
171.875 -226.562 769
-375 -210.938 1077
195.312 179.688 630
0 -218.75 943
328.125 421.875 570
-46.875 -390.625 821
46.875 226.562 632
-250 -125 894
-289.062 -39.0625 835
164.062 148.438 632
179.688 218.75 636
-468.75 -164.062 933
359.375 398.438 738
476.562 -39.0625 781
312.5 445.312 565
15.625 -46.875 811
-117.188 -218.75 682
-164.062 -78.125 773
-476.562 -171.875 930
125 203.125 634
382.812 343.75 600
179.688 -320.312 827
-367.188 156.25 901
-320.312 -156.25 901
-328.125 -85.9375 860
-312.5 -398.438 1439
250 250 646
390.625 320.312 607
171.875 -195.312 780
-343.75 -54.6875 849
109.375 -335.938 787
23.4375 -93.75 839
78.125 304.688 631
-195.312 304.688 809
85.9375 -156.25 787
93.75 -265.625 747
375 359.375 597
195.312 -289.062 992
85.9375 -265.625 747
7.8125 -453.125 790
-250 -273.438 1022
140.625 -218.75 769
179.688 164.062 628
-296.875 -195.312 943
0 -453.125 819
101.562 -304.688 742
23.4375 -218.75 940
117.188 140.625 667
-312.5 -148.438 906
-171.875 226.562 678
-265.625 -179.688 1054
218.75 -101.562 688
-492.188 15.625 1001
-281.25 -101.562 878
171.875 -171.875 796
-226.562 -171.875 741
-351.562 -62.5 854
257.812 -132.812 706
-148.438 -109.375 736
492.188 -226.562 2432
148.438 -109.375 686
-484.375 125 1477
-492.188 78.125 967
468.75 226.562 647
-85.9375 -31.25 757
101.562 -367.188 781
140.625 -117.188 686
203.125 164.062 628
-296.875 -140.625 981
-359.375 -421.875 3149
-289.062 -132.812 1044
-328.125 101.562 752
171.875 -257.812 962
375 367.188 591
-289.062 -460.938 3399
54.6875 -320.312 789
-171.875 -242.188 700
476.562 195.312 657
-250 -257.812 719
-54.6875 -171.875 700
-328.125 -78.125 860
171.875 -164.062 798
234.375 -39.0625 792
-476.562 0 928
-375 -445.312 3092
-23.4375 -117.188 862
406.25 335.938 764
476.562 234.375 769
109.375 210.938 636
-304.688 -445.312 3333
273.438 382.812 589
-210.938 -109.375 781
-281.25 250 841
-296.875 -171.875 896
-382.812 -117.188 885
-414.062 0 817
-289.062 132.812 733
164.062 179.688 646
-445.312 -23.4375 898
320.312 453.125 565
-54.6875 -343.75 825
-101.562 -296.875 1268
-125 -226.562 686
179.688 -109.375 687
375 398.438 738
-31.25 -195.312 925
-289.062 -109.375 882
-257.812 156.25 717
203.125 265.625 641
109.375 140.625 667
203.125 -296.875 998
109.375 -304.688 742
390.625 296.875 614
406.25 320.312 610
359.375 390.625 584
148.438 -125 759
-78.125 -179.688 679
-15.625 -218.75 946
242.188 156.25 690
156.25 -296.875 819
-164.062 -242.188 700
70.3125 -156.25 711
-460.938 -195.312 959
203.125 -156.25 781
93.75 304.688 631
70.3125 -351.562 781
468.75 -273.438 2560
-31.25 -187.5 918
117.188 -242.188 746
39.0625 -375 781
-398.438 125 918
15.625 -70.3125 827
257.812 132.812 700
125 -70.3125 687
93.75 -203.125 767
-23.4375 -429.688 821
187.5 -93.75 686
250 148.438 693
-23.4375 -125 869
312.5 460.938 559
-54.6875 -359.375 823
-476.562 -15.625 910
-70.3125 -187.5 680
-70.3125 -187.5 680
-156.25 -375 1370
273.438 140.625 696
-257.812 -257.812 1007
-351.562 -46.875 847
140.625 -171.875 794
-164.062 -203.125 683
-296.875 -203.125 956
234.375 -109.375 694
-31.25 -304.688 821
-156.25 -226.562 688
148.438 -117.188 686
398.438 328.125 610
171.875 -273.438 864
-140.625 -367.188 1365
-54.6875 -351.562 825
-203.125 -265.625 723
-109.375 281.25 653
-312.5 -109.375 978
-359.375 62.5 774
148.438 171.875 646
234.375 195.312 647
-421.875 -250 1022
171.875 -234.375 773
54.6875 289.062 616
-234.375 -210.938 716
195.312 -93.75 687
7.8125 -39.0625 807
-210.938 -164.062 733
109.375 -210.938 750
-382.812 -23.4375 831
140.625 -210.938 773
140.625 -210.938 773
109.375 -328.125 789
320.312 445.312 565
125 -312.5 798
-476.562 -7.8125 913
109.375 -203.125 752
-15.625 -54.6875 819
85.9375 -234.375 749
-132.812 -156.25 691
-101.562 281.25 650
140.625 -328.125 798
164.062 250 652
-484.375 85.9375 959
-296.875 -453.125 3333
-265.625 -203.125 1031
328.125 445.312 717
-343.75 195.312 875
257.812 -93.75 829
156.25 -312.5 811
484.375 257.812 798
460.938 226.562 647
-54.6875 -367.188 823
-234.375 -171.875 746
54.6875 -335.938 785
-289.062 -93.75 873
203.125 117.188 637
85.9375 -125 697
-39.0625 -132.812 739
-226.562 -179.688 733
-54.6875 -335.938 825
140.625 242.188 637
343.75 414.062 577
-414.062 23.4375 803
78.125 242.188 635
0 -453.125 819
-421.875 46.875 817
148.438 -132.812 762
-265.625 148.438 722
398.438 335.938 610
-39.0625 -406.25 817
-125 -31.25 787
250 156.25 688
-179.688 -187.5 696
-437.5 179.688 1579
-39.0625 -382.812 811
453.125 242.188 640
-382.812 -429.688 3120
54.6875 -343.75 785
-70.3125 304.688 638
-328.125 250 854
406.25 -210.938 908
-226.562 179.688 704
171.875 273.438 641
-421.875 -242.188 1019
148.438 -320.312 803
203.125 187.5 631
-148.438 -70.3125 769
101.562 234.375 641
117.188 195.312 635
140.625 -242.188 755
70.3125 273.438 612
273.438 -117.188 843
-7.8125 -445.312 817
320.312 437.5 567
-31.25 -195.312 925
187.5 -359.375 827
289.062 -398.438 2701
148.438 -93.75 686
-257.812 -117.188 887
-117.188 -210.938 676
-171.875 -23.4375 815
-328.125 117.188 747
-265.625 171.875 754
-406.25 23.4375 802
-203.125 -93.75 787
-226.562 -140.625 766
-460.938 -125 887
140.625 23.4375 762
-179.688 -164.062 713
-414.062 15.625 809
210.938 273.438 636
179.688 -265.625 970
-445.312 -218.75 995
171.875 -117.188 684
234.375 171.875 655
-78.125 -179.688 679
257.812 -101.562 835
62.5 -429.688 783
250 -187.5 730
171.875 -140.625 761
140.625 -156.25 752
179.688 -289.062 847
171.875 -406.25 813
382.812 351.562 597
148.438 -304.688 811
187.5 250 622
-398.438 46.875 794
257.812 -140.625 707
132.812 210.938 634
-171.875 -85.9375 773
429.688 304.688 778
-437.5 -421.875 3092
-281.25 -250 1001
171.875 -125 754
-281.25 140.625 728
-117.188 273.438 654
406.25 312.5 613
476.562 203.125 654
-398.438 -257.812 1054
78.125 265.625 614
-93.75 -242.188 697
171.875 203.125 642
-125 -210.938 676
31.25 -359.375 783
132.812 -398.438 792
85.9375 218.75 647
-31.25 -179.688 714
-312.5 -78.125 864
117.188 -234.375 747
492.188 218.75 813
164.062 -125 754
-460.938 -39.0625 903
195.312 132.812 632
-234.375 -210.938 716
-398.438 -468.75 3037
-31.25 -296.875 827
39.0625 257.812 652
125 -437.5 798
203.125 132.812 632
-46.875 -164.062 716
-328.125 -140.625 894
242.188 156.25 690
-414.062 -93.75 885
-484.375 203.125 1904
-15.625 -23.4375 800
140.625 -250 754
62.5 -195.312 761
210.938 -140.625 767
-70.3125 -187.5 680
-62.5 0 780
-140.625 -171.875 686
-15.625 -62.5 825
484.375 187.5 662
-414.062 -273.438 1044
-54.6875 -156.25 711
171.875 -171.875 796
-382.812 195.312 882
23.4375 -39.0625 805
132.812 -367.188 790
117.188 -320.312 794
171.875 -250 959
429.688 281.25 622
-320.312 -70.3125 858
-46.875 -312.5 829
-62.5 -367.188 839
210.938 281.25 634
-398.438 179.688 896
-31.25 -203.125 930
-210.938 -117.188 773
31.25 250 632
492.188 179.688 664
15.625 -328.125 794
-187.5 -39.0625 825
93.75 -226.562 754
171.875 -101.562 684
-460.938 109.375 940
171.875 -179.688 790
-414.062 7.8125 813
-15.625 -70.3125 787
-23.4375 -132.812 873
46.875 -437.5 778
226.562 218.75 652
203.125 125 637
-320.312 -148.438 898
-62.5 -156.25 704
171.875 -93.75 684
-234.375 -140.625 769
78.125 289.062 611
-390.625 -437.5 3092
164.062 -296.875 827
0 -375 790
85.9375 226.562 644
-31.25 -171.875 716
-460.938 -46.875 908
156.25 265.625 644
-93.75 289.062 646
-226.562 -406.25 1445
-421.875 39.0625 817
-242.188 -140.625 769
187.5 226.562 628
-179.688 -234.375 697
-242.188 -132.812 896
-203.125 203.125 691
-242.188 226.562 796
117.188 -265.625 742
476.562 242.188 807
171.875 -242.188 773
375 375 746
-328.125 -406.25 3238
-460.938 -117.188 889
109.375 -117.188 694
-39.0625 7.8125 783
117.188 -203.125 752
-273.438 140.625 725
242.188 -117.188 697
-54.6875 -125 727
93.75 -195.312 769
156.25 -109.375 686
78.125 -359.375 781
-328.125 -109.375 964
-46.875 328.125 630
54.6875 -125 716
-226.562 -179.688 733
-445.312 31.25 910
-328.125 -101.562 987
62.5 -351.562 783
179.688 234.375 627
-250 -273.438 1022
101.562 203.125 637
117.188 -273.438 741
218.75 257.812 644
-343.75 78.125 766
390.625 335.938 601
156.25 -367.188 803
-476.562 -31.25 908
226.562 -101.562 694
226.562 -101.562 694
-335.938 93.75 759
-468.75 171.875 1959
468.75 257.812 800
171.875 -226.562 769
125 -429.688 796
78.125 -140.625 703
-62.5 -23.4375 764
148.438 164.062 648
460.938 273.438 792
23.4375 -398.438 783
195.312 -85.9375 688
-476.562 -23.4375 906
78.125 -171.875 773
-39.0625 -93.75 755
242.188 164.062 686
-39.0625 -117.188 744
-31.25 -210.938 940
-328.125 -93.75 935
250 195.312 655
93.75 -117.188 696
-500 -265.625 1283
-328.125 109.375 752
-54.6875 -62.5 752
-390.625 187.5 891
101.562 164.062 671
-460.938 -54.6875 913
-367.188 210.938 880
359.375 382.812 585
-31.25 -195.312 925
78.125 -367.188 781
54.6875 226.562 637
335.938 429.688 723
140.625 -421.875 802
171.875 -148.438 762
-140.625 250 666
0 -398.438 792
-78.125 304.688 640
62.5 289.062 613
-281.25 234.375 849
-31.25 0 790
171.875 -320.312 821
46.875 296.875 636
-421.875 -257.812 1034
-320.312 -382.812 1433
15.625 -78.125 831
-62.5 -195.312 686
-31.25 -187.5 918
242.188 148.438 693
328.125 437.5 567
109.375 -226.562 747
171.875 -210.938 773
-31.25 -328.125 811
171.875 -156.25 802
-46.875 -328.125 823
-398.438 31.25 796
140.625 226.562 635
62.5 226.562 642
109.375 -328.125 789
171.875 -195.312 780
203.125 242.188 627
54.6875 -46.875 728
39.0625 -437.5 778
-367.188 -437.5 3092
-171.875 -382.812 1370
-70.3125 -109.375 719
156.25 -398.438 803
195.312 -93.75 687
-156.25 242.188 671
-351.562 -195.312 1060
250 -109.375 701
171.875 -85.9375 686
-359.375 179.688 887
-156.25 234.375 674
-476.562 -125 894
171.875 -203.125 776
234.375 171.875 655
171.875 -218.75 769
7.8125 -234.375 854
-132.812 -164.062 684
-187.5 -187.5 701
-117.188 -226.562 684
-351.562 -46.875 847
-23.4375 -414.062 809
-234.375 -218.75 710
148.438 -148.438 802
-132.812 -132.812 708
-257.812 -164.062 1044
351.562 406.25 581
-390.625 -195.312 1060
-335.938 85.9375 761
31.25 -109.375 789
187.5 -273.438 978
-125 -234.375 691
171.875 -164.062 798
-335.938 406.25 1655
-257.812 -117.188 887
187.5 234.375 627
187.5 234.375 627
-257.812 156.25 717
101.562 296.875 634
93.75 -210.938 766
406.25 351.562 755
164.062 -93.75 687
93.75 210.938 641
-335.938 -132.812 887
-85.9375 -171.875 675
203.125 289.062 631
171.875 -375 813
226.562 164.062 655
-210.938 195.312 696
-23.4375 -140.625 739
492.188 187.5 662
218.75 187.5 652
-476.562 -39.0625 910
171.875 250 625
-226.562 -148.438 757
179.688 195.312 642
367.188 375 589
-15.625 -78.125 835
148.438 -125 759
398.438 351.562 757
-164.062 -148.438 717
-218.75 148.438 719
-468.75 -429.688 3120
109.375 -218.75 750
312.5 359.375 595
-164.062 -226.562 690
39.0625 -281.25 805
-414.062 -62.5 885
-265.625 -203.125 1031
-164.062 -375 1370
148.438 -132.812 762
117.188 -281.25 739
187.5 171.875 627
-164.062 -187.5 691
109.375 -187.5 752
-210.938 -398.438 1433
453.125 242.188 636
-156.25 -117.188 734
-429.688 -234.375 1001
179.688 15.625 764
-31.25 -203.125 696
-234.375 -210.938 719
257.812 148.438 693
179.688 -335.938 809
156.25 -93.75 684
-187.5 -382.812 1392
-70.3125 -117.188 701
195.312 203.125 642
-109.375 -218.75 679
-234.375 179.688 710
265.625 132.812 700
-31.25 -281.25 845
179.688 -210.938 771
-492.188 -156.25 913
-195.312 210.938 691
234.375 132.812 698
156.25 -335.938 794
476.562 218.75 652
0 -335.938 796
-15.625 -289.062 825
171.875 -187.5 781
367.188 367.188 590
-203.125 -265.625 722
-250 -195.312 733
-320.312 -70.3125 858
468.75 218.75 648
109.375 195.312 640
-132.812 -109.375 731
-156.25 -375 1370
54.6875 250 631
132.812 -242.188 744
-281.25 -179.688 930
-210.938 -125 776
-437.5 78.125 954
54.6875 242.188 630
7.8125 -367.188 789
-273.438 242.188 845
-226.562 -468.75 3468
78.125 -132.812 706
484.375 195.312 658
226.562 -93.75 688
101.562 -375 776
-398.438 117.188 925
218.75 195.312 647
-429.688 203.125 1616
195.312 -281.25 849
-367.188 -101.562 889
273.438 234.375 652
-31.25 -218.75 684
-234.375 -132.812 894
-320.312 -101.562 987
179.688 226.562 634
-296.875 -125 973
-46.875 -382.812 829
-54.6875 -468.75 2333
148.438 -375 789
-62.5 -125 703
-281.25 -187.5 935
125 250 637
117.188 265.625 647
-265.625 -109.375 882
93.75 -187.5 767
-304.688 -109.375 978
-343.75 234.375 871
265.625 -164.062 716
-296.875 -429.688 3333
398.438 328.125 602
-351.562 273.438 1564
234.375 -46.875 742
-23.4375 -7.8125 790
179.688 -257.812 959
-210.938 -257.812 717
226.562 -101.562 687
109.375 -312.5 739
164.062 226.562 637
-234.375 -171.875 747
273.438 132.812 700
-179.688 -39.0625 823
390.625 351.562 602
85.9375 296.875 610
234.375 -125 693
109.375 281.25 641
-328.125 93.75 755
328.125 429.688 568
242.188 -109.375 691
-281.25 132.812 731
-179.688 218.75 683
-375 46.875 787
484.375 234.375 811
-468.75 15.625 920
-140.625 -156.25 700
148.438 195.312 636
-203.125 -93.75 792
-70.3125 -335.938 845
125 273.438 643
85.9375 -203.125 755
-171.875 -242.188 698
-484.375 7.8125 1007
257.812 -171.875 719
414.062 304.688 614
171.875 -109.375 682
492.188 195.312 661
-7.8125 -406.25 798
-15.625 -85.9375 762
187.5 242.188 625
445.312 257.812 631
-398.438 242.188 1632
179.688 156.25 629
-296.875 328.125 1509
-492.188 -289.062 2883
-39.0625 -296.875 843
-460.938 171.875 1594
-335.938 242.188 864
-484.375 -171.875 925
148.438 -171.875 790
-226.562 -187.5 733
-23.4375 -281.25 837
171.875 -171.875 794
15.625 -390.625 783
-234.375 -218.75 713
-23.4375 -148.438 728
-148.438 -195.312 679
-39.0625 -171.875 708
78.125 -195.312 755
-117.188 -234.375 688
-351.562 70.3125 769
85.9375 257.812 616
-15.625 -335.938 803
250 -421.875 2767
-367.188 54.6875 781
-328.125 257.812 851
-375 -429.688 3149
492.188 218.75 815
117.188 -7.8125 769
-289.062 -93.75 873
179.688 -132.812 754
257.812 -125 698
132.812 -234.375 744
-195.312 -46.875 833
-359.375 -101.562 891
-15.625 -15.625 796
140.625 234.375 632
148.438 179.688 642
179.688 164.062 629
-23.4375 -421.875 817
-273.438 -171.875 1001
-468.75 -437.5 3092
218.75 -39.0625 747
-62.5 -148.438 694
-101.562 -39.0625 762
-226.562 -148.438 759
179.688 -242.188 747
-7.8125 343.75 620
257.812 156.25 687
-375 -468.75 3010
203.125 -101.562 683
-468.75 -101.562 898
242.188 -148.438 707
312.5 453.125 562
-164.062 -242.188 698
234.375 -23.4375 783
-437.5 31.25 910
351.562 398.438 578
0 -343.75 794
-453.125 117.188 940
226.562 171.875 630
-265.625 148.438 725
-351.562 226.562 864
-203.125 -187.5 714
-148.438 242.188 672
-406.25 39.0625 803
109.375 -429.688 787
0 359.375 613
-312.5 -101.562 989
-78.125 -171.875 670
70.3125 257.812 619
179.688 -250 747
-195.312 203.125 691
-23.4375 -335.938 809
187.5 203.125 642
-132.812 -250 701
226.562 -429.688 2835
-234.375 -148.438 759
156.25 -390.625 790
-414.062 15.625 811
15.625 273.438 647
-23.4375 -156.25 722
78.125 218.75 647
218.75 0 773
-54.6875 -109.375 719
85.9375 171.875 690
281.25 226.562 655
-78.125 -234.375 688
179.688 -109.375 682
85.9375 281.25 609
78.125 -148.438 711
-46.875 -320.312 835
-187.5 -390.625 1415
-195.312 -62.5 817
429.688 281.25 622
-156.25 -179.688 691
-226.562 -406.25 1439
445.312 296.875 628
-320.312 101.562 752
-54.6875 -164.062 694
-265.625 -234.375 984
-31.25 0 789
-23.4375 -109.375 749
85.9375 -171.875 762
-226.562 -226.562 707
-23.4375 -289.062 831
367.188 390.625 585
-492.188 -140.625 901
-398.438 -70.3125 878
-320.312 -78.125 860
-406.25 -281.25 1044
-257.812 -453.125 3399
101.562 -179.688 778
70.3125 -148.438 711
93.75 250 630
171.875 -343.75 803
179.688 -265.625 741
187.5 15.625 764
375 359.375 593
476.562 250 802
320.312 437.5 565
179.688 -234.375 769
179.688 -101.562 682
-406.25 -93.75 882
-39.0625 -312.5 831
226.562 -7.8125 773
101.562 -203.125 764
-62.5 -7.8125 769
242.188 -78.125 693
-437.5 -78.125 882
-39.0625 -398.438 823
148.438 -179.688 785
-70.3125 -54.6875 736
242.188 156.25 631
265.625 -140.625 701
171.875 -54.6875 716
218.75 265.625 641
140.625 -445.312 805
132.812 -289.062 738
195.312 -281.25 849
125 -359.375 781
140.625 273.438 642
156.25 -320.312 798
-78.125 -468.75 2333
382.812 351.562 597
-398.438 -109.375 889
257.812 132.812 700
-117.188 -210.938 675
-234.375 -132.812 894
-109.375 -218.75 679
-31.25 -156.25 720
93.75 281.25 609
195.312 -390.625 823
-343.75 -437.5 3092
-187.5 -210.938 691
-117.188 -39.0625 776
-367.188 -93.75 885
195.312 109.375 635
156.25 -273.438 736
31.25 -31.25 802
-242.188 171.875 713
250 -85.9375 696
39.0625 -304.688 794
429.688 320.312 771
460.938 234.375 641
140.625 -226.562 749
-23.4375 -164.062 722
-343.75 85.9375 766
-320.312 -70.3125 858
-101.562 -351.562 1328
171.875 -179.688 789
-273.438 140.625 727
-476.562 -171.875 925
171.875 -156.25 798
-101.562 0 792
171.875 -164.062 796
132.812 -351.562 785
-289.062 132.812 734
54.6875 296.875 636
-109.375 -109.375 716
