ply
format ascii 1.0
comment Created by Open3D
element vertex 2388
property double x
property double y
property double z
end_header
-93.75 203.125 653
-460.938 -421.875 3037
-468.75 -54.6875 849
-179.688 -203.125 738
93.75 -226.562 755
-203.125 -187.5 720
273.438 335.938 769
23.4375 -242.188 803
-203.125 -203.125 713
-54.6875 -398.438 805
101.562 101.562 714
390.625 140.625 869
-7.8125 -203.125 778
-406.25 -140.625 981
93.75 -101.562 780
-15.625 132.812 662
304.688 273.438 800
351.562 132.812 691
23.4375 -289.062 896
-453.125 62.5 767
62.5 -140.625 720
23.4375 -164.062 710
-210.938 -179.688 714
-453.125 78.125 769
-406.25 -382.812 1439
265.625 351.562 762
-304.688 -109.375 789
257.812 359.375 759
-179.688 -15.625 796
31.25 -265.625 794
31.25 -148.438 711
234.375 398.438 741
-195.312 -164.062 734
304.688 265.625 805
-484.375 70.3125 829
-460.938 -70.3125 858
-375 -242.188 727
78.125 -156.25 719
250 375 750
-265.625 -250 701
-109.375 -250 880
351.562 210.938 831
-453.125 -398.438 3092
39.0625 156.25 664
-39.0625 226.562 664
414.062 0 755
39.0625 -296.875 1001
23.4375 -203.125 829
-148.438 -273.438 875
140.625 437.5 568
398.438 54.6875 730
-375 -250 727
359.375 125 697
-148.438 -250 975
437.5 -343.75 2503
-31.25 -382.812 809
-375 -257.812 727
-359.375 -250 722
15.625 -226.562 815
-187.5 -398.438 837
335.938 148.438 683
109.375 101.562 714
187.5 460.938 711
101.562 -179.688 731
250 343.75 767
-429.688 -367.188 1421
-234.375 -203.125 687
-453.125 -460.938 2984
320.312 242.188 815
54.6875 -343.75 894
-46.875 -226.562 802
-406.25 -218.75 978
54.6875 -148.438 713
468.75 -93.75 811
85.9375 -164.062 722
-289.062 -367.188 1392
31.25 -140.625 711
-117.188 -429.688 805
-382.812 -210.938 746
-390.625 -171.875 1019
-335.938 -187.5 746
-390.625 -125 889
-46.875 -187.5 819
-164.062 -140.625 769
23.4375 -140.625 710
429.688 70.3125 908
-148.438 -70.3125 831
-156.25 -320.312 833
343.75 179.688 803
-500 -187.5 948
257.812 343.75 767
-460.938 -343.75 1392
23.4375 -304.688 871
343.75 164.062 776
7.8125 -140.625 710
-46.875 195.312 655
15.625 -351.562 837
-140.625 -359.375 813
-39.0625 187.5 658
-382.812 -125 891
46.875 -312.5 891
367.188 140.625 792
-484.375 -328.125 1376
-179.688 -312.5 856
328.125 250 813
359.375 421.875 723
-7.8125 -304.688 771
187.5 437.5 722
-78.125 234.375 636
273.438 320.312 776
-273.438 -257.812 707
-15.625 -125 716
15.625 -398.438 831
-492.188 195.312 1536
-70.3125 210.938 636
-46.875 -242.188 787
195.312 453.125 716
-492.188 -437.5 3010
343.75 398.438 736
296.875 -39.0625 783
62.5 210.938 664
-460.938 -414.062 3037
445.312 234.375 811
-54.6875 -203.125 803
445.312 -31.25 776
-335.938 -125 802
-7.8125 -281.25 783
289.062 289.062 792
-78.125 -187.5 738
343.75 148.438 688
304.688 289.062 792
-289.062 -101.562 789
101.562 -125 767
-390.625 -117.188 887
320.312 265.625 802
-46.875 -101.562 725
-62.5 -226.562 787
-23.4375 -398.438 813
257.812 335.938 771
-46.875 218.75 635
218.75 421.875 730
70.3125 125 659
-367.188 -218.75 739
-54.6875 203.125 638
-39.0625 125 670
-54.6875 -218.75 798
343.75 226.562 823
-398.438 -437.5 3300
328.125 242.188 815
-226.562 -218.75 688
382.812 62.5 723
23.4375 -218.75 819
-39.0625 -296.875 767
-179.688 -382.812 831
257.812 257.812 632
46.875 -31.25 790
39.0625 -140.625 711
-242.188 -265.625 711
-164.062 -437.5 827
-39.0625 179.688 662
-195.312 -367.188 849
382.812 85.9375 713
-414.062 93.75 749
-343.75 -140.625 792
335.938 218.75 798
453.125 -78.125 800
-15.625 -328.125 755
-85.9375 -328.125 817
-351.562 -148.438 787
-179.688 -210.938 728
390.625 70.3125 723
0 -148.438 710
-23.4375 -453.125 823
-351.562 148.438 722
-437.5 -156.25 901
-7.8125 -226.562 811
343.75 218.75 827
31.25 -171.875 781
-320.312 54.6875 766
-15.625 218.75 666
-390.625 -179.688 1019
-210.938 257.812 661
-328.125 -101.562 817
-429.688 226.562 864
78.125 195.312 671
-187.5 -406.25 839
-351.562 -273.438 733
-85.9375 242.188 657
0 -429.688 825
351.562 125 697
-226.562 -210.938 688
15.625 -429.688 837
85.9375 109.375 678
195.312 421.875 731
421.875 85.9375 898
-31.25 156.25 659
-15.625 148.438 657
-500 -289.062 1057
7.8125 -351.562 831
101.562 179.688 678
367.188 187.5 841
7.8125 -414.062 827
390.625 46.875 733
476.562 -85.9375 813
453.125 -85.9375 805
0 -140.625 711
-195.312 -195.312 720
414.062 101.562 889
460.938 -62.5 800
54.6875 203.125 646
-171.875 -375 825
203.125 414.062 734
-320.312 -250 713
23.4375 -195.312 827
-23.4375 210.938 671
-187.5 -398.438 837
398.438 46.875 736
-171.875 -179.688 746
-335.938 -195.312 734
-117.188 -242.188 964
476.562 375 736
-171.875 -23.4375 802
484.375 -101.562 821
-85.9375 -320.312 819
-468.75 -54.6875 849
203.125 445.312 722
-492.188 31.25 794
164.062 382.812 586
-273.438 -132.812 750
-375 -242.188 727
-7.8125 -421.875 821
-93.75 -445.312 805
-328.125 -203.125 727
382.812 156.25 858
-132.812 -437.5 811
-257.812 -85.9375 781
335.938 242.188 815
-500 -281.25 1050
-93.75 -390.625 803
-453.125 -85.9375 862
-343.75 148.438 714
-367.188 -406.25 1458
0 171.875 658
-421.875 -117.188 973
85.9375 -78.125 815
-93.75 -367.188 805
-367.188 -273.438 734
62.5 -148.438 717
-468.75 -421.875 3037
15.625 -273.438 796
390.625 132.812 873
0 -156.25 710
23.4375 -429.688 843
250 328.125 774
-179.688 -218.75 727
-437.5 -359.375 1404
-31.25 234.375 661
-367.188 -257.812 727
312.5 187.5 670
-46.875 257.812 649
-179.688 -351.562 835
460.938 -78.125 805
484.375 250 798
-468.75 54.6875 780
-62.5 210.938 635
93.75 -85.9375 823
0 -164.062 710
-382.812 -273.438 1047
-148.438 -54.6875 819
15.625 -289.062 774
289.062 226.562 648
-367.188 312.5 1503
265.625 351.562 762
-382.812 -437.5 3365
-429.688 -85.9375 867
-312.5 179.688 703
15.625 -328.125 849
484.375 -125 837
15.625 -304.688 769
492.188 -140.625 849
78.125 109.375 655
-312.5 -171.875 739
-351.562 -171.875 767
-62.5 187.5 664
-62.5 -210.938 792
-359.375 -140.625 794
-382.812 -179.688 1050
-343.75 -398.438 1439
-125 -414.062 805
242.188 359.375 757
-156.25 -46.875 815
-484.375 -429.688 3037
78.125 -242.188 774
23.4375 -234.375 809
-367.188 -140.625 903
375 117.188 827
-85.9375 -398.438 802
-156.25 -109.375 792
-109.375 -390.625 803
78.125 203.125 668
46.875 195.312 647
101.562 148.438 675
-164.062 -148.438 767
-390.625 -117.188 887
-23.4375 226.562 663
-85.9375 -367.188 803
-62.5 -218.75 789
23.4375 -226.562 813
-304.688 179.688 698
-195.312 -171.875 731
-398.438 -406.25 1452
7.8125 -148.438 710
-390.625 -437.5 3300
101.562 101.562 714
359.375 156.25 813
-289.062 -93.75 798
-78.125 -195.312 744
-195.312 437.5 1387
320.312 265.625 802
375 85.9375 713
-351.562 296.875 827
23.4375 -210.938 825
93.75 -117.188 767
-39.0625 -226.562 780
406.25 117.188 880
23.4375 -148.438 710
-460.938 195.312 885
335.938 164.062 679
-414.062 242.188 847
-312.5 -148.438 762
70.3125 195.312 672
85.9375 148.438 678
7.8125 -195.312 827
-484.375 31.25 792
296.875 304.688 783
-476.562 39.0625 785
31.25 -289.062 995
-7.8125 187.5 662
375 171.875 851
-46.875 -453.125 813
-39.0625 -242.188 776
-54.6875 250 650
367.188 187.5 841
-164.062 -304.688 849
468.75 -70.3125 803
-78.125 -304.688 831
-460.938 -429.688 3037
-164.062 -429.688 825
62.5 187.5 647
117.188 93.75 717
-375 304.688 1516
-421.875 93.75 752
296.875 281.25 798
-54.6875 -250 787
398.438 62.5 730
-171.875 -429.688 833
-46.875 -351.562 811
-265.625 -257.812 707
-70.3125 -171.875 725
-85.9375 -335.938 813
-367.188 132.812 727
-7.8125 -414.062 821
-398.438 -414.062 3300
343.75 226.562 823
54.6875 -320.312 1025
-398.438 -132.812 891
-414.062 93.75 749
39.0625 109.375 652
-320.312 -250 713
429.688 -335.938 2522
406.25 109.375 885
-171.875 -39.0625 809
-210.938 -140.625 730
-234.375 -203.125 687
-148.438 -78.125 833
46.875 203.125 647
328.125 203.125 789
-218.75 -171.875 710
-320.312 -257.812 716
-156.25 -281.25 869
-39.0625 148.438 663
-78.125 -375 803
-156.25 -445.312 827
-31.25 -257.812 774
468.75 0 951
-226.562 -210.938 688
-31.25 -234.375 776
-367.188 -218.75 739
62.5 70.3125 659
117.188 -156.25 869
-125 -359.375 809
-500 195.312 1536
-484.375 226.562 1616
15.625 195.312 676
-156.25 -54.6875 819
-210.938 -187.5 710
109.375 -203.125 736
382.812 148.438 862
46.875 -140.625 713
93.75 132.812 680
-382.812 -226.562 738
-429.688 257.812 1564
23.4375 -273.438 796
-179.688 -312.5 856
-93.75 -359.375 807
343.75 140.625 688
-335.938 156.25 711
-468.75 187.5 887
-234.375 -125 736
-328.125 164.062 707
-31.25 -250 776
93.75 148.438 675
-171.875 281.25 647
-148.438 -382.812 813
101.562 -117.188 843
54.6875 -226.562 800
-54.6875 -226.562 796
-31.25 -226.562 780
-320.312 -78.125 839
-109.375 -359.375 807
242.188 390.625 742
-179.688 -218.75 727
-257.812 -242.188 696
39.0625 -421.875 858
31.25 -281.25 794
250 375 750
-296.875 -132.812 762
-265.625 -125 752
414.062 312.5 771
15.625 132.812 664
476.562 -7.8125 954
-171.875 -187.5 741
0 187.5 661
-140.625 -429.688 815
-226.562 242.188 667
-171.875 -23.4375 802
-179.688 -414.062 831
-375 -296.875 1044
-367.188 -226.562 731
93.75 -70.3125 809
-187.5 -156.25 749
359.375 203.125 835
328.125 179.688 672
109.375 -187.5 733
476.562 -109.375 823
460.938 -23.4375 887
-460.938 226.562 1609
335.938 187.5 769
31.25 195.312 672
-289.062 195.312 691
-70.3125 -226.562 783
-46.875 187.5 658
-500 -437.5 2984
-31.25 226.562 664
335.938 195.312 790
-375 -226.562 738
15.625 -281.25 781
-406.25 101.562 742
-31.25 -398.438 809
70.3125 210.938 666
398.438 132.812 871
-367.188 -273.438 734
437.5 54.6875 918
-164.062 -289.062 871
23.4375 -203.125 829
-179.688 -15.625 796
-179.688 -210.938 728
-429.688 -156.25 901
-375 125 731
-31.25 -312.5 766
-484.375 -421.875 3064
0 -156.25 710
226.562 414.062 731
-500 -226.562 1004
351.562 171.875 805
-23.4375 -140.625 711
23.4375 210.938 668
-492.188 -273.438 1060
335.938 242.188 815
-445.312 70.3125 767
125 -164.062 873
390.625 54.6875 730
93.75 -164.062 727
-437.5 -93.75 867
15.625 -148.438 710
-382.812 125 733
-242.188 226.562 674
-351.562 -156.25 780
-46.875 226.562 635
31.25 -140.625 711
23.4375 -250 803
0 -171.875 787
-343.75 -164.062 767
-46.875 -171.875 716
343.75 210.938 831
117.188 93.75 717
-375 -218.75 742
460.938 -54.6875 792
54.6875 -328.125 880
234.375 375 752
-421.875 85.9375 750
23.4375 -265.625 796
335.938 156.25 682
-500 -242.188 1013
281.25 328.125 774
-390.625 210.938 856
-78.125 -453.125 805
-484.375 -328.125 1376
-171.875 -164.062 755
-468.75 -85.9375 875
-7.8125 156.25 655
-375 -257.812 727
-257.812 218.75 678
453.125 -39.0625 785
62.5 -335.938 891
-218.75 -148.438 720
-23.4375 140.625 659
-476.562 -406.25 3092
-492.188 -125 887
-164.062 -31.25 803
-421.875 -359.375 1410
54.6875 78.125 655
-218.75 242.188 664
-195.312 -148.438 744
-164.062 -39.0625 811
-476.562 242.188 1594
117.188 85.9375 719
78.125 210.938 666
-359.375 335.938 1483
-484.375 -39.0625 841
351.562 218.75 827
-109.375 210.938 672
-429.688 78.125 757
-335.938 -132.812 792
132.812 453.125 565
-171.875 -156.25 766
-437.5 -156.25 901
382.812 132.812 837
-46.875 -382.812 807
117.188 78.125 725
-445.312 -351.562 1398
-500 23.4375 803
328.125 257.812 807
23.4375 -195.312 827
492.188 -117.188 864
-398.438 -109.375 882
-179.688 -226.562 723
375 132.812 829
390.625 148.438 862
453.125 -62.5 794
70.3125 -140.625 722
101.562 -171.875 731
-70.3125 -195.312 744
109.375 125 682
234.375 398.438 741
-93.75 -367.188 805
-375 -234.375 731
-437.5 -148.438 898
-265.625 -367.188 1387
101.562 125 682
-31.25 -242.188 776
304.688 273.438 800
-39.0625 250 653
85.9375 -148.438 725
46.875 -304.688 1001
257.812 367.188 754
-421.875 -148.438 954
218.75 421.875 730
210.938 437.5 722
-164.062 -398.438 819
351.562 164.062 802
39.0625 -414.062 854
31.25 -148.438 711
-218.75 -304.688 1288
46.875 226.562 659
460.938 -7.8125 906
171.875 460.938 714
-218.75 -218.75 697
398.438 125 873
-414.062 -195.312 940
390.625 78.125 723
-414.062 -375 1433
289.062 320.312 778
109.375 -140.625 860
-257.812 328.125 790
-437.5 -78.125 864
0 -164.062 710
125 179.688 676
-257.812 -242.188 696
-171.875 -179.688 746
93.75 140.625 676
-351.562 -171.875 767
-109.375 -437.5 805
-156.25 -117.188 783
445.312 46.875 923
-390.625 304.688 1516
429.688 78.125 903
250 351.562 761
-453.125 -445.312 2984
492.188 -132.812 849
46.875 -132.812 716
320.312 187.5 670
195.312 359.375 593
-226.562 -164.062 708
-54.6875 -257.812 787
-39.0625 93.75 691
-179.688 -414.062 831
375 78.125 717
-359.375 -203.125 746
-468.75 -62.5 851
23.4375 -187.5 789
343.75 156.25 682
46.875 78.125 655
289.062 296.875 789
78.125 171.875 683
-39.0625 140.625 666
-54.6875 -242.188 789
85.9375 -156.25 725
437.5 335.938 759
-179.688 -398.438 831
210.938 406.25 736
-320.312 187.5 728
382.812 70.3125 723
367.188 148.438 823
7.8125 218.75 664
-31.25 140.625 662
-367.188 -132.812 898
-468.75 -132.812 889
54.6875 -218.75 805
-281.25 -195.312 704
-367.188 -171.875 766
437.5 62.5 910
78.125 187.5 675
382.812 78.125 723
-367.188 -226.562 731
-148.438 -359.375 817
70.3125 -273.438 780
476.562 -101.562 821
-359.375 -148.438 780
273.438 312.5 780
-187.5 -335.938 851
125 -203.125 906
-343.75 -148.438 781
-460.938 -85.9375 928
23.4375 -320.312 862
-343.75 -156.25 774
-460.938 132.812 910
-62.5 -156.25 720
23.4375 93.75 657
-7.8125 -195.312 773
117.188 468.75 584
359.375 187.5 843
265.625 328.125 774
39.0625 117.188 654
-15.625 203.125 672
23.4375 -257.812 798
-265.625 -257.812 707
70.3125 -148.438 719
445.312 -46.875 785
23.4375 -218.75 819
296.875 304.688 783
23.4375 -289.062 896
23.4375 85.9375 659
-164.062 -445.312 833
-210.938 -179.688 714
273.438 343.75 766
-109.375 -398.438 802
7.8125 -195.312 827
-109.375 -375 803
-468.75 46.875 780
-359.375 -140.625 794
-164.062 -375 819
343.75 -117.188 831
390.625 -7.8125 757
-390.625 -468.75 3365
-210.938 -195.312 710
31.25 -140.625 711
367.188 140.625 792
78.125 101.562 657
-242.188 -203.125 686
312.5 281.25 796
46.875 179.688 650
-148.438 -296.875 845
351.562 140.625 688
-437.5 -359.375 1404
39.0625 -296.875 1001
-445.312 210.938 867
0 -179.688 767
-375 -398.438 1464
-156.25 -359.375 819
62.5 -187.5 790
-156.25 -39.0625 811
273.438 320.312 776
-46.875 -234.375 794
23.4375 -437.5 845
7.8125 -421.875 827
429.688 140.625 862
351.562 210.938 831
-359.375 289.062 829
-171.875 -367.188 827
-414.062 -117.188 882
23.4375 -242.188 803
-335.938 -281.25 739
-390.625 -164.062 995
0 -304.688 769
23.4375 -281.25 796
-164.062 -437.5 827
-273.438 203.125 684
468.75 -85.9375 809
460.938 -179.688 873
-101.562 203.125 654
-109.375 -117.188 794
492.188 -109.375 869
296.875 234.375 647
-343.75 -398.438 1439
492.188 203.125 821
-46.875 164.062 668
-23.4375 210.938 671
85.9375 85.9375 657
-203.125 -164.062 725
375 164.062 854
-328.125 -203.125 727
54.6875 -31.25 789
-7.8125 -250 802
23.4375 -234.375 809
-15.625 195.312 662
-23.4375 -320.312 757
-390.625 117.188 736
406.25 117.188 880
-320.312 -210.938 716
-375 -250 727
23.4375 -226.562 813
-351.562 140.625 720
109.375 101.562 714
-62.5 -234.375 787
0 -289.062 774
398.438 62.5 730
85.9375 -171.875 722
-31.25 -382.812 809
-46.875 -203.125 811
382.812 117.188 841
-382.812 296.875 1523
320.312 195.312 761
-335.938 -125 802
382.812 164.062 854
62.5 -328.125 1028
484.375 -273.438 2381
242.188 390.625 742
-187.5 -171.875 746
-429.688 -85.9375 867
23.4375 -273.438 796
-250 218.75 675
320.312 -218.75 910
0 179.688 659
-85.9375 226.562 664
-468.75 -335.938 1381
-23.4375 218.75 667
-93.75 -273.438 854
328.125 257.812 807
93.75 -62.5 803
70.3125 179.688 649
-179.688 -226.562 723
46.875 -140.625 713
218.75 429.688 723
296.875 289.062 792
0 -187.5 769
-281.25 195.312 687
-414.062 -382.812 1439
-437.5 -335.938 1376
-421.875 164.062 887
-7.8125 218.75 666
-179.688 -171.875 749
-453.125 -125 885
-46.875 265.625 646
312.5 257.812 807
-179.688 -320.312 851
-492.188 164.062 903
23.4375 109.375 655
226.562 257.812 634
-429.688 85.9375 755
-7.8125 140.625 658
335.938 171.875 771
351.562 218.75 827
-375 -132.812 898
-390.625 -117.188 887
-171.875 -195.312 739
-453.125 265.625 1564
39.0625 -171.875 711
-109.375 -328.125 817
-31.25 -257.812 774
-500 359.375 1680
-15.625 218.75 666
-179.688 -328.125 847
-390.625 132.812 733
7.8125 109.375 675
85.9375 93.75 683
-351.562 148.438 722
-31.25 132.812 664
-140.625 -359.375 813
-476.562 218.75 1616
328.125 171.875 674
-406.25 -132.812 981
-382.812 -265.625 725
-460.938 265.625 1579
-468.75 218.75 1616
476.562 -54.6875 894
-429.688 -171.875 910
484.375 -54.6875 915
367.188 195.312 837
335.938 367.188 750
-179.688 -414.062 831
-62.5 179.688 667
-382.812 -289.062 1044
335.938 156.25 682
-109.375 -257.812 880
210.938 437.5 722
78.125 156.25 679
-148.438 296.875 637
-164.062 -320.312 839
23.4375 -375 841
-406.25 296.875 1529
23.4375 -210.938 825
-359.375 -179.688 766
296.875 140.625 684
-492.188 -453.125 2984
-164.062 -156.25 766
-476.562 -398.438 3064
320.312 171.875 674
-62.5 -164.062 720
-85.9375 -85.9375 747
109.375 117.188 711
421.875 93.75 891
312.5 195.312 664
359.375 132.812 691
-335.938 -179.688 752
-453.125 234.375 1594
-500 156.25 906
375 179.688 845
-500 210.938 1609
-54.6875 164.062 670
-187.5 -382.812 837
351.562 375 746
-39.0625 156.25 663
-203.125 -46.875 787
-312.5 -62.5 841
46.875 -375 860
-179.688 -382.812 831
476.562 -78.125 813
-367.188 -468.75 3468
-429.688 164.062 889
-289.062 -62.5 829
-437.5 250 1572
-476.562 210.938 1624
-468.75 250 1601
351.562 148.438 688
-437.5 218.75 864
-328.125 -109.375 807
-195.312 257.812 654
-109.375 -78.125 829
78.125 218.75 662
460.938 15.625 940
-148.438 -46.875 815
-335.938 -132.812 792
382.812 93.75 711
-148.438 -85.9375 839
390.625 93.75 821
359.375 195.312 839
-164.062 -398.438 819
312.5 179.688 670
-453.125 273.438 1757
46.875 187.5 648
-398.438 -453.125 3238
85.9375 -156.25 725
-210.938 -226.562 698
257.812 343.75 767
-7.8125 -296.875 774
-93.75 -132.812 800
-54.6875 125 711
-375 -218.75 742
-23.4375 125 666
148.438 164.062 682
-367.188 -132.812 898
-70.3125 210.938 636
-359.375 -203.125 746
31.25 148.438 664
289.062 320.312 778
351.562 203.125 835
-359.375 140.625 723
343.75 179.688 803
23.4375 -265.625 796
-257.812 -367.188 1376
-39.0625 210.938 637
-195.312 -203.125 720
-445.312 242.188 1594
-78.125 -179.688 733
-476.562 343.75 1722
-367.188 -234.375 725
-320.312 171.875 704
484.375 -15.625 962
304.688 289.062 792
179.688 445.312 717
46.875 -304.688 1001
-148.438 -390.625 811
15.625 -296.875 771
23.4375 101.562 657
-171.875 -421.875 827
39.0625 -343.75 862
-484.375 -85.9375 889
-62.5 -328.125 766
304.688 296.875 789
265.625 359.375 759
320.312 273.438 800
328.125 -85.9375 813
343.75 234.375 819
-421.875 101.562 752
-15.625 -132.812 714
109.375 101.562 714
-335.938 -281.25 739
-23.4375 -382.812 813
-15.625 132.812 662
109.375 85.9375 720
195.312 460.938 713
-54.6875 -156.25 717
460.938 -70.3125 803
-171.875 -187.5 741
-23.4375 -250 776
-31.25 -312.5 766
265.625 320.312 776
85.9375 109.375 678
414.062 109.375 885
7.8125 -179.688 789
-476.562 46.875 778
398.438 117.188 880
-304.688 -281.25 734
289.062 312.5 781
-343.75 -156.25 774
0 -156.25 710
406.25 54.6875 833
-70.3125 -179.688 733
195.312 429.688 727
-460.938 257.812 1579
445.312 -39.0625 785
-179.688 -429.688 839
-117.188 -257.812 887
7.8125 -429.688 827
-70.3125 -156.25 723
-492.188 -320.312 1359
328.125 234.375 819
-273.438 -46.875 827
39.0625 171.875 658
62.5 -156.25 716
-390.625 -226.562 738
109.375 -320.312 1016
-500 -93.75 885
-445.312 -70.3125 858
0 -257.812 796
70.3125 -179.688 723
-187.5 -351.562 843
31.25 -164.062 710
-93.75 -164.062 736
31.25 179.688 663
-210.938 -335.938 873
101.562 109.375 683
273.438 -250 938
351.562 132.812 691
15.625 -398.438 831
179.688 453.125 716
23.4375 -164.062 710
-453.125 -140.625 894
31.25 -351.562 849
-375 -140.625 901
-23.4375 -343.75 823
-62.5 -210.938 792
-398.438 -234.375 989
-367.188 328.125 1496
-484.375 171.875 894
-382.812 117.188 733
23.4375 -296.875 896
351.562 187.5 811
-187.5 -343.75 847
-375 125 731
-23.4375 -398.438 813
-117.188 -375 803
109.375 93.75 717
437.5 148.438 856
-70.3125 -171.875 725
-31.25 117.188 674
-296.875 -132.812 762
-62.5 -234.375 787
-273.438 -234.375 693
-437.5 -78.125 864
-54.6875 -367.188 807
-148.438 -218.75 946
492.188 -132.812 849
23.4375 -250 803
-390.625 -187.5 1019
-39.0625 109.375 687
62.5 -453.125 2908
-437.5 78.125 761
-367.188 -265.625 730
31.25 -359.375 849
-203.125 -195.312 717
-46.875 203.125 641
-62.5 -203.125 796
54.6875 203.125 646
343.75 359.375 754
437.5 -156.25 856
-406.25 -406.25 3269
-492.188 -31.25 837
289.062 304.688 785
54.6875 -140.625 717
390.625 62.5 730
-453.125 -132.812 885
-421.875 -367.188 1421
54.6875 -312.5 1016
140.625 -304.688 1001
-31.25 -304.688 767
-195.312 -156.25 741
132.812 93.75 716
-179.688 -390.625 831
46.875 117.188 652
187.5 445.312 717
-171.875 -195.312 739
-187.5 -375 839
453.125 39.0625 928
-289.062 -54.6875 833
-39.0625 -242.188 776
-445.312 -140.625 894
-62.5 -375 803
-492.188 -203.125 978
-406.25 -171.875 987
281.25 304.688 785
46.875 70.3125 658
0 -203.125 778
-93.75 -343.75 811
-187.5 -382.812 837
234.375 406.25 734
273.438 171.875 671
-62.5 187.5 664
-23.4375 179.688 661
218.75 429.688 723
-398.438 -382.812 1439
-101.562 195.312 652
-23.4375 109.375 691
-62.5 -351.562 809
-390.625 -156.25 995
281.25 335.938 769
-343.75 148.438 714
132.812 85.9375 719
-359.375 -210.938 739
31.25 -312.5 871
-421.875 195.312 867
406.25 117.188 880
132.812 179.688 676
-445.312 -93.75 867
-421.875 85.9375 750
390.625 179.688 847
-140.625 -54.6875 819
-367.188 -132.812 898
-164.062 -164.062 755
-453.125 -93.75 867
367.188 195.312 837
54.6875 156.25 662
-367.188 -234.375 725
-23.4375 -312.5 766
-390.625 -125 889
23.4375 -257.812 798
-250 -62.5 794
218.75 398.438 741
-78.125 -328.125 817
390.625 140.625 869
-242.188 -140.625 728
-335.938 -140.625 783
335.938 226.562 823
468.75 -62.5 800
328.125 242.188 815
406.25 125 873
46.875 -382.812 860
492.188 -39.0625 975
-132.812 -359.375 811
-289.062 -140.625 754
-179.688 -406.25 831
250 382.812 746
-226.562 -203.125 694
359.375 195.312 839
-31.25 -281.25 773
54.6875 171.875 652
85.9375 164.062 686
226.562 414.062 731
320.312 273.438 800
-31.25 -273.438 773
39.0625 -148.438 711
-484.375 -429.688 3037
-46.875 -148.438 717
-289.062 187.5 691
-312.5 -70.3125 837
15.625 156.25 661
-164.062 281.25 644
-203.125 -93.75 757
343.75 234.375 819
-179.688 -218.75 727
-414.062 93.75 749
-375 -125 891
-148.438 -453.125 825
-164.062 -148.438 767
390.625 -250 2541
-164.062 -31.25 803
-265.625 -93.75 781
0 -359.375 829
-406.25 -210.938 964
-320.312 -93.75 821
484.375 -117.188 837
93.75 -164.062 727
-453.125 -62.5 854
-320.312 351.562 1470
140.625 85.9375 719
-7.8125 390.625 593
70.3125 234.375 654
460.938 23.4375 938
-23.4375 164.062 658
54.6875 62.5 662
-54.6875 -226.562 796
226.562 390.625 744
-343.75 -273.438 730
-171.875 -421.875 827
-31.25 156.25 659
-203.125 257.812 655
-109.375 -429.688 803
-171.875 -203.125 738
85.9375 148.438 678
-476.562 39.0625 785
312.5 265.625 802
-54.6875 -351.562 809
-429.688 78.125 757
-343.75 -179.688 757
375 179.688 845
476.562 -93.75 813
453.125 -31.25 875
23.4375 -242.188 803
-164.062 -437.5 827
-257.812 -242.188 696
218.75 390.625 742
179.688 -343.75 2835
15.625 -437.5 839
234.375 390.625 744
-476.562 -93.75 894
390.625 148.438 862
335.938 250 811
-453.125 -406.25 3064
-187.5 -125 764
-437.5 70.3125 764
-367.188 -250 723
-445.312 -351.562 1398
-39.0625 -351.562 815
-46.875 195.312 655
-500 -429.688 3010
-359.375 -210.938 739
-203.125 -179.688 723
375 140.625 829
-7.8125 -281.25 783
15.625 -156.25 710
-187.5 -195.312 734
-164.062 -382.812 819
54.6875 -273.438 789
382.812 85.9375 713
54.6875 125 655
296.875 312.5 780
-46.875 164.062 668
492.188 414.062 710
15.625 109.375 675
-242.188 -265.625 711
335.938 242.188 815
-85.9375 218.75 642
-171.875 -15.625 796
23.4375 -156.25 710
-390.625 257.812 837
-39.0625 -398.438 807
-179.688 -195.312 739
-460.938 195.312 885
-476.562 54.6875 778
-195.312 -187.5 730
109.375 -179.688 733
-335.938 335.938 1489
23.4375 -273.438 796
-70.3125 218.75 635
-289.062 195.312 691
-460.938 -445.312 2984
7.8125 -359.375 829
-148.438 -46.875 815
-187.5 -367.188 841
390.625 156.25 856
-460.938 -132.812 882
398.438 46.875 736
23.4375 -289.062 896
-23.4375 234.375 661
0 -187.5 769
-218.75 -218.75 697
-460.938 -437.5 3010
-375 -210.938 746
375 132.812 829
-281.25 -187.5 710
-179.688 -406.25 831
0 -437.5 827
-429.688 -164.062 903
367.188 132.812 790
320.312 187.5 670
-7.8125 -218.75 817
31.25 -226.562 813
-39.0625 -218.75 781
351.562 218.75 827
-54.6875 -218.75 798
-23.4375 -335.938 766
31.25 156.25 664
-390.625 -148.438 1044
359.375 156.25 813
-312.5 -257.812 714
-296.875 187.5 693
-390.625 -195.312 1016
0 -304.688 769
-367.188 281.25 835
-39.0625 234.375 659
-46.875 171.875 667
-445.312 -70.3125 858
-156.25 -132.812 781
-7.8125 -257.812 796
460.938 -171.875 864
-351.562 -148.438 787
-304.688 -109.375 789
78.125 -148.438 722
-15.625 117.188 668
-85.9375 -390.625 803
265.625 359.375 759
-78.125 -312.5 825
0 -210.938 817
367.188 125 792
-226.562 -203.125 694
85.9375 109.375 678
-54.6875 171.875 670
445.312 54.6875 915
-351.562 289.062 825
-414.062 -109.375 882
-226.562 234.375 667
453.125 7.8125 896
484.375 -109.375 837
-125 -242.188 964
-398.438 -148.438 984
-156.25 -328.125 829
-101.562 -390.625 803
-406.25 -101.562 875
398.438 140.625 869
-164.062 -445.312 833
-468.75 -218.75 1084
-492.188 -242.188 1013
-398.438 109.375 739
-320.312 179.688 708
-85.9375 -359.375 807
-15.625 210.938 670
-46.875 -359.375 809
-78.125 -203.125 776
492.188 -125 860
203.125 453.125 716
-62.5 234.375 632
-328.125 164.062 707
-265.625 -132.812 746
-320.312 328.125 809
-359.375 -257.812 725
-187.5 -359.375 841
-375 -289.062 1041
-39.0625 226.562 664
-421.875 234.375 860
39.0625 -289.062 992
-484.375 31.25 792
-171.875 -343.75 829
-39.0625 195.312 657
-140.625 -54.6875 819
-382.812 -132.812 896
-85.9375 179.688 653
320.312 265.625 802
23.4375 -218.75 819
-31.25 -445.312 815
-335.938 -242.188 711
-140.625 -62.5 823
31.25 -148.438 711
101.562 -109.375 837
-234.375 234.375 670
-125 312.5 629
-164.062 -296.875 858
-156.25 -46.875 815
390.625 85.9375 821
-54.6875 -328.125 766
335.938 164.062 679
-39.0625 -234.375 778
312.5 289.062 792
23.4375 -265.625 796
15.625 -140.625 711
-390.625 109.375 736
-476.562 -203.125 1077
359.375 210.938 831
-429.688 -85.9375 867
-382.812 117.188 733
-335.938 -179.688 752
-359.375 140.625 723
453.125 -414.062 2381
398.438 70.3125 829
-468.75 46.875 780
-375 -398.438 1464
343.75 226.562 823
-335.938 -140.625 783
-382.812 265.625 837
320.312 140.625 684
320.312 250 813
-382.812 -453.125 3433
-195.312 -203.125 720
-78.125 -367.188 805
468.75 -78.125 811
-476.562 234.375 1616
-218.75 -210.938 697
-437.5 -359.375 1404
-23.4375 -421.875 815
429.688 85.9375 898
101.562 101.562 714
476.562 -70.3125 813
-312.5 -226.562 703
-500 -195.312 954
312.5 -195.312 896
-117.188 -414.062 803
-289.062 -203.125 703
-203.125 -101.562 755
93.75 117.188 680
-500 -234.375 1010
-476.562 -406.25 3092
-101.562 328.125 622
281.25 335.938 769
-62.5 -164.062 720
-273.438 -218.75 691
-70.3125 -187.5 733
-15.625 93.75 688
109.375 101.562 714
-54.6875 -210.938 800
31.25 187.5 678
-109.375 -101.562 845
273.438 351.562 762
-429.688 171.875 885
-78.125 242.188 657
39.0625 109.375 652
-445.312 70.3125 767
-46.875 187.5 658
-343.75 -257.812 720
-281.25 -195.312 704
406.25 -296.875 2598
-78.125 -382.812 803
-382.812 -429.688 3365
125 195.312 668
-46.875 -234.375 794
-351.562 -187.5 754
320.312 -93.75 821
-500 -218.75 998
31.25 -203.125 827
-460.938 -343.75 1392
-500 23.4375 803
-54.6875 210.938 636
218.75 429.688 723
257.812 375 749
-265.625 210.938 682
-15.625 -351.562 825
0 -289.062 774
-234.375 -54.6875 792
226.562 421.875 728
-343.75 -148.438 781
-265.625 -70.3125 803
-414.062 -132.812 975
-328.125 -117.188 802
-125 -406.25 803
54.6875 -140.625 717
-367.188 -265.625 730
-367.188 -140.625 903
367.188 195.312 837
-148.438 -93.75 847
-375 -125 891
-156.25 -39.0625 811
367.188 156.25 823
304.688 234.375 771
-179.688 265.625 649
351.562 226.562 821
-375 -242.188 727
-187.5 -398.438 837
-492.188 31.25 794
7.8125 -148.438 710
-210.938 -46.875 787
-179.688 -320.312 851
273.438 343.75 766
289.062 328.125 774
-453.125 -62.5 854
-500 -23.4375 829
125 101.562 711
-429.688 218.75 862
-234.375 -203.125 687
31.25 -210.938 823
234.375 382.812 747
-375 273.438 841
-375 273.438 841
-226.562 398.438 764
-265.625 203.125 683
-148.438 -281.25 862
-140.625 -273.438 871
140.625 85.9375 719
39.0625 -375 851
101.562 148.438 675
492.188 -23.4375 959
109.375 -218.75 749
23.4375 -304.688 871
-257.812 -367.188 1376
351.562 171.875 805
-15.625 -54.6875 794
-445.312 273.438 1557
-70.3125 -367.188 805
359.375 125 697
-85.9375 -343.75 811
-171.875 -351.562 829
-500 -250 1013
-492.188 -289.062 1057
343.75 164.062 776
-132.812 -296.875 839
-31.25 -296.875 769
-70.3125 -179.688 733
-492.188 -320.312 1359
-39.0625 -437.5 811
125 78.125 725
-164.062 -429.688 825
23.4375 -429.688 843
-320.312 -203.125 720
265.625 23.4375 747
281.25 312.5 781
460.938 -62.5 800
265.625 335.938 771
-234.375 390.625 769
328.125 265.625 802
-445.312 62.5 767
-148.438 -101.562 851
-125 -437.5 809
-437.5 78.125 761
70.3125 171.875 650
70.3125 210.938 666
31.25 -179.688 783
-359.375 -257.812 725
-398.438 -382.812 1439
31.25 -140.625 711
-46.875 179.688 662
62.5 -320.312 1022
179.688 -289.062 981
-210.938 -179.688 714
-367.188 -250 723
-343.75 -273.438 730
-335.938 304.688 815
-437.5 -148.438 898
-15.625 226.562 662
-484.375 -328.125 1376
328.125 171.875 674
-179.688 -398.438 831
-179.688 -179.688 746
-312.5 171.875 703
-414.062 -375 1433
-265.625 -234.375 691
-343.75 -164.062 767
-101.562 -375 803
23.4375 -234.375 809
46.875 -296.875 998
-367.188 -242.188 723
-132.812 -398.438 805
-101.562 210.938 672
484.375 -39.0625 915
-304.688 -242.188 704
-398.438 281.25 1550
-476.562 -421.875 3010
-421.875 -367.188 1421
0 140.625 659
390.625 -132.812 841
-15.625 -289.062 776
-281.25 195.312 687
257.812 367.188 754
-398.438 -140.625 981
-164.062 -375 819
429.688 -195.312 885
-203.125 -367.188 854
-179.688 -328.125 847
-101.562 -398.438 802
-437.5 -390.625 3120
-335.938 -398.438 1445
-460.938 414.062 1624
-171.875 -210.938 940
390.625 382.812 738
-46.875 -242.188 787
445.312 -31.25 776
-62.5 -85.9375 734
39.0625 195.312 649
429.688 -7.8125 762
382.812 171.875 851
-382.812 -117.188 887
23.4375 -296.875 896
289.062 304.688 785
-375 -156.25 1044
-31.25 375 601
-226.562 -132.812 728
492.188 -101.562 871
-187.5 -31.25 798
-429.688 -93.75 869
359.375 140.625 790
-320.312 -195.312 723
414.062 117.188 880
-210.938 -218.75 701
109.375 93.75 717
-375 304.688 1516
328.125 257.812 807
-7.8125 -351.562 827
-242.188 390.625 769
335.938 250 811
-273.438 -93.75 787
-359.375 -218.75 733
-93.75 179.688 653
250 -257.812 946
-15.625 179.688 659
31.25 -320.312 873
109.375 85.9375 720
-250 -85.9375 778
-429.688 226.562 864
-468.75 -78.125 925
-421.875 -109.375 873
-15.625 -382.812 817
-156.25 -218.75 946
-382.812 296.875 1523
-382.812 312.5 1509
-23.4375 93.75 688
-203.125 -335.938 873
-117.188 -93.75 843
-484.375 54.6875 800
437.5 70.3125 908
-484.375 -210.938 1084
-179.688 273.438 649
195.312 460.938 713
-445.312 -351.562 1398
-125 -429.688 807
382.812 85.9375 713
-390.625 -132.812 889
-359.375 -101.562 873
-398.438 -468.75 3238
421.875 101.562 887
-109.375 -70.3125 827
-93.75 210.938 672
-367.188 -195.312 759
-398.438 -218.75 981
7.8125 -445.312 837
-343.75 -85.9375 860
-492.188 23.4375 802
93.75 -156.25 730
304.688 304.688 783
-218.75 -210.938 697
-140.625 -406.25 809
390.625 156.25 856
39.0625 140.625 667
-179.688 -375 831
46.875 -328.125 880
-23.4375 140.625 659
-460.938 -54.6875 849
-445.312 320.312 1748
-140.625 -70.3125 831
0 -343.75 833
367.188 187.5 841
-156.25 -437.5 821
-406.25 -125 885
31.25 -187.5 789
-445.312 140.625 903
-320.312 -101.562 811
492.188 257.812 790
93.75 -148.438 728
-62.5 -171.875 725
0 -375 825
-492.188 -234.375 1010
-382.812 -171.875 1047
-195.312 -46.875 787
-85.9375 -367.188 803
-39.0625 -375 809
-132.812 -390.625 805
-257.812 -210.938 686
93.75 -328.125 1025
0 132.812 661
-445.312 203.125 867
-54.6875 -187.5 809
31.25 -195.312 829
7.8125 -140.625 710
109.375 -171.875 733
-93.75 187.5 652
257.812 54.6875 731
-296.875 187.5 693
-351.562 -195.312 747
250 359.375 759
7.8125 -164.062 710
-62.5 -195.312 800
-210.938 242.188 661
382.812 156.25 858
-164.062 -179.688 915
375 187.5 841
460.938 -39.0625 867
-156.25 -289.062 860
-195.312 -343.75 858
-78.125 -398.438 803
242.188 398.438 739
335.938 179.688 769
445.312 335.938 759
-375 -164.062 1044
148.438 171.875 678
257.812 179.688 667
-171.875 -429.688 833
-85.9375 -445.312 805
367.188 179.688 847
398.438 78.125 829
-171.875 -218.75 948
-328.125 359.375 1464
31.25 -242.188 803
226.562 421.875 728
-304.688 -62.5 839
-351.562 -265.625 727
-171.875 -171.875 752
39.0625 -164.062 711
484.375 -7.8125 954
-226.562 -203.125 694
367.188 171.875 854
343.75 242.188 815
335.938 -195.312 894
-445.312 -85.9375 862
-39.0625 -359.375 811
359.375 171.875 805
-171.875 -15.625 796
-351.562 226.562 849
-148.438 -109.375 858
203.125 421.875 730
-468.75 203.125 891
-218.75 242.188 664
62.5 -109.375 754
148.438 -304.688 1001
234.375 390.625 744
-320.312 164.062 706
-93.75 -125 798
-226.562 242.188 667
15.625 -414.062 835
-445.312 85.9375 774
0 -414.062 823
-343.75 -148.438 781
-343.75 -281.25 739
62.5 117.188 653
-203.125 250 657
-62.5 242.188 657
367.188 148.438 823
359.375 -171.875 873
296.875 -31.25 780
-414.062 265.625 1557
296.875 312.5 780
-62.5 -226.562 787
-39.0625 -226.562 780
-390.625 195.312 867
-218.75 -257.812 704
-195.312 -218.75 716
-31.25 -218.75 780
406.25 62.5 835
-31.25 250 652
179.688 296.875 620
-406.25 101.562 742
398.438 54.6875 730
343.75 -78.125 805
195.312 320.312 610
-148.438 -445.312 821
156.25 382.812 585
-328.125 -125 794
351.562 156.25 785
54.6875 195.312 646
250 93.75 710
-101.562 -453.125 803
23.4375 -226.562 813
-23.4375 -218.75 778
-203.125 -187.5 720
375 367.188 747
125 85.9375 719
-500 -312.5 1354
-23.4375 -312.5 766
-101.562 -250 880
382.812 78.125 723
-210.938 351.562 780
-31.25 -242.188 776
-250 -242.188 694
-250 218.75 675
367.188 187.5 841
453.125 -351.562 2450
210.938 445.312 719
-156.25 -31.25 803
343.75 156.25 682
195.312 437.5 722
281.25 203.125 657
273.438 351.562 762
195.312 171.875 674
375 156.25 858
-78.125 343.75 614
70.3125 -335.938 1034
421.875 273.438 792
476.562 -85.9375 813
-312.5 -382.812 1415
54.6875 70.3125 658
-343.75 343.75 1483
328.125 195.312 762
414.062 46.875 847
289.062 328.125 774
-390.625 -85.9375 867
351.562 210.938 831
-62.5 -187.5 802
-351.562 335.938 1489
-328.125 343.75 1483
-328.125 312.5 817
109.375 -320.312 1016
0 218.75 664
-70.3125 -328.125 817
46.875 -468.75 3010
-156.25 -140.625 878
-390.625 -117.188 887
-31.25 164.062 659
15.625 218.75 664
-15.625 -265.625 776
234.375 -140.625 854
-304.688 -257.812 713
-109.375 -351.562 809
-164.062 -312.5 845
-437.5 -140.625 896
-62.5 179.688 667
-62.5 -453.125 809
-304.688 367.188 1328
-351.562 -140.625 794
390.625 70.3125 723
-445.312 250 1579
-453.125 132.812 910
257.812 351.562 762
78.125 -148.438 722
-7.8125 -210.938 778
273.438 328.125 774
62.5 -140.625 720
320.312 203.125 759
23.4375 125 667
-437.5 -117.188 964
0 -296.875 771
-23.4375 -234.375 778
-390.625 109.375 736
15.625 140.625 663
-343.75 -398.438 1439
-164.062 -429.688 825
-312.5 335.938 1278
382.812 132.812 837
-468.75 148.438 901
320.312 257.812 807
-320.312 -85.9375 827
-492.188 257.812 1823
-398.438 101.562 739
109.375 148.438 672
-203.125 382.812 764
7.8125 -156.25 710
-31.25 242.188 655
-85.9375 203.125 643
109.375 179.688 676
-312.5 -250 711
-375 320.312 1503
148.438 -429.688 2883
31.25 85.9375 655
-359.375 -140.625 794
-429.688 -367.188 1421
85.9375 171.875 682
-109.375 -421.875 803
-125 -265.625 880
304.688 281.25 798
-375 -273.438 730
-359.375 -218.75 733
-328.125 156.25 708
265.625 367.188 754
101.562 -85.9375 821
-437.5 70.3125 764
-39.0625 -148.438 716
-39.0625 -148.438 716
-15.625 367.188 601
85.9375 203.125 668
125 289.062 625
-375 -125 891
-476.562 -328.125 1376
-484.375 -437.5 3010
406.25 54.6875 833
218.75 437.5 722
179.688 273.438 631
367.188 203.125 835
-289.062 187.5 691
-382.812 -390.625 1458
234.375 414.062 731
-171.875 -414.062 825
93.75 164.062 678
-164.062 -234.375 959
-406.25 273.438 1557
-367.188 203.125 864
15.625 195.312 676
-31.25 187.5 661
39.0625 -171.875 711
-382.812 -117.188 887
31.25 -265.625 794
-468.75 -335.938 1381
39.0625 -140.625 711
-429.688 -382.812 1427
-445.312 296.875 1776
156.25 210.938 659
-54.6875 250 650
-312.5 -210.938 710
23.4375 -382.812 839
-46.875 -289.062 769
-429.688 -156.25 901
-250 -39.0625 819
-179.688 -390.625 831
375 125 827
-15.625 140.625 658
78.125 -39.0625 790
-7.8125 -203.125 778
70.3125 -453.125 2958
-382.812 -179.688 1050
210.938 414.062 734
-15.625 -281.25 776
398.438 148.438 862
-421.875 257.812 1564
-429.688 304.688 1757
7.8125 -421.875 827
-421.875 -85.9375 867
-468.75 -406.25 3064
-242.188 281.25 759
54.6875 125 655
-367.188 304.688 1509
39.0625 -281.25 790
-453.125 195.312 875
320.312 273.438 800
-164.062 -23.4375 802
93.75 -156.25 730
15.625 -421.875 833
-250 -242.188 694
15.625 -171.875 783
414.062 117.188 880
-343.75 -171.875 761
31.25 -218.75 819
-15.625 218.75 666
-195.312 257.812 654
-296.875 179.688 694
359.375 148.438 811
-390.625 289.062 1529
-179.688 -187.5 741
109.375 101.562 714
-46.875 -226.562 802
-429.688 -179.688 915
54.6875 -304.688 1001
117.188 -195.312 734
117.188 -195.312 734
7.8125 -171.875 785
-171.875 -304.688 858
-23.4375 -281.25 773
468.75 -54.6875 847
-289.062 -46.875 827
-148.438 289.062 637
-492.188 -281.25 1057
484.375 -101.562 821
-7.8125 218.75 666
-117.188 -101.562 847
31.25 -281.25 794
-54.6875 -234.375 790
-359.375 -226.562 727
-171.875 -226.562 954
453.125 -23.4375 882
-265.625 -156.25 728
-289.062 -421.875 3238
-273.438 -179.688 713
-390.625 -445.312 3300
-117.188 -265.625 875
-460.938 -109.375 930
-375 -179.688 766
-23.4375 -210.938 781
-257.812 -140.625 736
-335.938 -148.438 778
0 -281.25 781
-460.938 -54.6875 849
-421.875 -54.6875 845
31.25 -203.125 827
-312.5 359.375 1328
367.188 132.812 790
-70.3125 -210.938 787
492.188 -117.188 864
-492.188 -460.938 2984
-70.3125 343.75 612
-164.062 -187.5 920
-46.875 -195.312 815
-109.375 -453.125 803
85.9375 187.5 674
70.3125 226.562 657
46.875 78.125 655
-429.688 78.125 757
390.625 164.062 854
7.8125 -187.5 827
-148.438 -39.0625 811
125 93.75 716
-390.625 -109.375 882
-257.812 -125 749
-375 -445.312 3399
-156.25 -148.438 885
-289.062 -265.625 716
375 140.625 829
335.938 257.812 807
62.5 -328.125 1028
31.25 -296.875 896
281.25 343.75 764
476.562 7.8125 946
-429.688 -359.375 1410
-46.875 -328.125 766
46.875 117.188 652
-437.5 -375 1427
-437.5 -39.0625 835
-460.938 70.3125 792
-54.6875 226.562 634
117.188 132.812 683
-492.188 -93.75 887
-421.875 -101.562 873
-242.188 -78.125 780
23.4375 210.938 668
320.312 281.25 796
140.625 93.75 716
234.375 -265.625 959
31.25 -234.375 807
-257.812 -234.375 691
320.312 195.312 761
15.625 -320.312 762
31.25 -257.812 796
-500 203.125 1536
93.75 -54.6875 798
-351.562 -140.625 794
-390.625 257.812 837
468.75 -70.3125 803
39.0625 109.375 652
-148.438 -117.188 860
-484.375 406.25 1632
-179.688 -156.25 757
-39.0625 -289.062 769
93.75 -234.375 761
-23.4375 -257.812 776
-23.4375 -250 776
234.375 375 752
476.562 -367.188 2381
343.75 226.562 823
-31.25 156.25 659
-289.062 -132.812 759
-406.25 242.188 847
234.375 406.25 734
46.875 179.688 650
-242.188 218.75 675
-250 -250 700
109.375 -117.188 843
171.875 -421.875 2859
296.875 320.312 776
-226.562 -210.938 688
218.75 406.25 738
62.5 -320.312 1022
31.25 -304.688 871
-429.688 265.625 1557
125 156.25 671
-343.75 328.125 1489
23.4375 -23.4375 785
31.25 179.688 663
39.0625 -265.625 790
31.25 -210.938 823
78.125 109.375 655
85.9375 -54.6875 798
-31.25 -234.375 776
-132.812 -234.375 956
70.3125 187.5 648
-31.25 148.438 659
-476.562 -414.062 3064
-429.688 -421.875 3178
-429.688 -78.125 864
343.75 171.875 776
-273.438 -132.812 750
-164.062 -421.875 823
0 -257.812 796
-179.688 -390.625 831
93.75 -78.125 815
-171.875 -398.438 827
-39.0625 265.625 646
39.0625 85.9375 653
-359.375 -226.562 727
39.0625 -421.875 858
-15.625 -203.125 776
-367.188 -226.562 731
203.125 -125 843
343.75 234.375 819
132.812 93.75 716
-476.562 -46.875 843
-203.125 -179.688 723
-445.312 -351.562 1398
-382.812 -164.062 1044
-70.3125 -390.625 803
23.4375 -140.625 710
-320.312 -101.562 811
-335.938 -398.438 1445
-62.5 -296.875 771
-15.625 -421.875 819
62.5 148.438 670
7.8125 -148.438 710
-289.062 -93.75 798
359.375 203.125 835
7.8125 -164.062 710
296.875 296.875 787
359.375 132.812 691
-78.125 203.125 641
-476.562 39.0625 785
-156.25 281.25 641
476.562 -62.5 889
54.6875 132.812 664
-171.875 -234.375 962
-171.875 -414.062 825
-187.5 -296.875 891
85.9375 -148.438 725
-453.125 62.5 767
-156.25 289.062 641
-148.438 296.875 637
-476.562 31.25 792
-148.438 -390.625 811
-171.875 -312.5 847
351.562 187.5 811
-375 -226.562 738
-101.562 -296.875 835
304.688 234.375 771
-140.625 -78.125 835
429.688 93.75 891
-226.562 234.375 667
-15.625 -312.5 757
-328.125 -281.25 739
31.25 -289.062 995
-453.125 -226.562 1084
-156.25 -156.25 894
195.312 -414.062 2812
359.375 218.75 827
-179.688 -382.812 831
-210.938 250 661
31.25 -23.4375 783
-62.5 -171.875 725
117.188 -187.5 733
-39.0625 -156.25 716
-390.625 -234.375 731
-398.438 296.875 1523
375 148.438 823
54.6875 179.688 649
-500 31.25 802
-156.25 -31.25 803
218.75 437.5 722
250 390.625 742
351.562 148.438 688
-453.125 54.6875 774
-367.188 -218.75 739
445.312 31.25 930
117.188 -179.688 733
31.25 109.375 654
-460.938 -453.125 2984
-367.188 -250 723
31.25 -273.438 794
-117.188 312.5 627
0 -195.312 773
265.625 367.188 754
-437.5 148.438 896
-187.5 -164.062 744
-125 304.688 631
-460.938 -132.812 882
-367.188 -242.188 723
70.3125 164.062 688
328.125 273.438 798
-328.125 -132.812 787
-484.375 31.25 792
-31.25 -398.438 809
70.3125 78.125 657
-281.25 -218.75 693
312.5 281.25 796
-46.875 -242.188 787
343.75 242.188 815
70.3125 -328.125 1028
476.562 0 948
187.5 453.125 716
-164.062 -195.312 925
-398.438 -132.812 891
-54.6875 -210.938 800
93.75 -445.312 2933
-70.3125 -250 781
468.75 23.4375 935
-164.062 -304.688 849
-367.188 -234.375 725
85.9375 117.188 675
429.688 23.4375 871
7.8125 -304.688 769
-367.188 132.812 727
-218.75 -203.125 698
-273.438 -195.312 700
101.562 -62.5 802
7.8125 187.5 661
-195.312 -31.25 796
-328.125 -242.188 710
-359.375 -132.812 898
-351.562 -203.125 739
62.5 -140.625 720
-257.812 -257.812 708
-398.438 101.562 739
-351.562 140.625 720
-171.875 -226.562 954
328.125 250 813
-250 -250 700
-31.25 -351.562 819
-421.875 -171.875 913
-453.125 -140.625 894
-187.5 -218.75 727
23.4375 218.75 664
367.188 156.25 823
-195.312 -195.312 720
398.438 148.438 862
62.5 -312.5 1016
265.625 343.75 766
382.812 179.688 845
23.4375 -148.438 710
-140.625 -46.875 813
-476.562 -421.875 3010
-54.6875 171.875 670
367.188 203.125 835
296.875 250 771
-445.312 -406.25 3064
-54.6875 -234.375 790
-406.25 -375 1433
-23.4375 -382.812 813
-23.4375 242.188 655
-414.062 93.75 749
421.875 109.375 885
453.125 -39.0625 785
0 -117.188 739
242.188 375 750
281.25 320.312 778
328.125 265.625 802
7.8125 -320.312 762
445.312 -7.8125 880
-343.75 -171.875 761
-171.875 -234.375 962
-195.312 -117.188 754
-7.8125 -195.312 773
-179.688 -335.938 841
-15.625 -335.938 829
-500 15.625 807
-195.312 -164.062 734
31.25 -156.25 710
-179.688 -382.812 831
-320.312 -203.125 720
-31.25 -289.062 771
-179.688 -195.312 739
-296.875 -85.9375 813
-156.25 -437.5 821
-476.562 -328.125 1376
-273.438 195.312 687
382.812 109.375 835
476.562 -85.9375 813
-23.4375 -343.75 823
-273.438 -187.5 708
31.25 101.562 653
117.188 125 682
-39.0625 164.062 663
-54.6875 -203.125 803
7.8125 -414.062 827
-296.875 -164.062 738
-359.375 -273.438 733
335.938 257.812 807
-46.875 -257.812 774
-125 -273.438 864
-406.25 -203.125 959
78.125 171.875 683
-492.188 -195.312 954
-187.5 -39.0625 794
367.188 164.062 856
85.9375 101.562 680
-15.625 -273.438 776
-335.938 156.25 711
-23.4375 -265.625 774
-7.8125 109.375 672
31.25 -164.062 710
296.875 234.375 647
-429.688 -78.125 864
-46.875 -218.75 803
414.062 125 873
0 -281.25 781
-429.688 -101.562 873
375 187.5 841
-15.625 125 666
-203.125 -148.438 736
-429.688 -390.625 3149
-54.6875 -453.125 811
101.562 -78.125 815
-15.625 234.375 658
15.625 320.312 619
-156.25 -39.0625 811
421.875 39.0625 847
382.812 171.875 851
-484.375 -203.125 1077
-164.062 -39.0625 811
-484.375 -125 887
-273.438 203.125 684
-70.3125 179.688 664
85.9375 218.75 661
-320.312 164.062 706
-93.75 -453.125 805
-335.938 148.438 713
398.438 85.9375 833
109.375 414.062 574
-421.875 -164.062 903
-46.875 -156.25 716
39.0625 -351.562 860
39.0625 -476.562 2933
31.25 -242.188 803
335.938 242.188 815
492.188 -15.625 956
7.8125 -343.75 835
-179.688 -375 831
117.188 -210.938 742
-359.375 -226.562 727
-492.188 164.062 903
-484.375 -289.062 1057
0 -242.188 803
484.375 -78.125 813
-148.438 -125 869
-390.625 -140.625 901
-78.125 -367.188 805
-78.125 343.75 614
93.75 -328.125 1025
-265.625 -187.5 703
-39.0625 -70.3125 790
-492.188 -320.312 1359
-500 -312.5 1354
468.75 -46.875 856
335.938 -367.188 2598
390.625 164.062 854
351.562 234.375 817
-7.8125 -421.875 821
375 195.312 837
-62.5 -218.75 789
-484.375 164.062 894
281.25 343.75 764
31.25 -218.75 819
312.5 296.875 787
-62.5 242.188 657
54.6875 -179.688 717
-445.312 62.5 767
39.0625 -226.562 811
460.938 -54.6875 792
101.562 -445.312 2908
-492.188 -265.625 1063
7.8125 -203.125 819
-31.25 -132.812 711
-500 -179.688 935
-398.438 -210.938 967
-179.688 -343.75 837
-359.375 -234.375 722
335.938 187.5 769
78.125 156.25 679
-234.375 -203.125 687
328.125 187.5 764
-70.3125 -382.812 803
-7.8125 210.938 670
-468.75 -109.375 896
-242.188 226.562 674
-320.312 -109.375 803
335.938 171.875 771
-437.5 -70.3125 858
31.25 -195.312 829
-460.938 187.5 882
-429.688 -148.438 898
7.8125 -195.312 827
39.0625 -289.062 992
85.9375 -148.438 725
351.562 179.688 811
39.0625 -203.125 821
-234.375 226.562 672
-367.188 -132.812 898
-179.688 -148.438 757
-335.938 -156.25 771
-218.75 -203.125 698
320.312 265.625 802
-242.188 -46.875 803
-156.25 -445.312 827
-359.375 132.812 725
289.062 335.938 769
31.25 -226.562 813
-265.625 203.125 683
31.25 -257.812 796
-390.625 -109.375 882
-429.688 -359.375 1410
273.438 359.375 761
-453.125 -343.75 1392
-140.625 -85.9375 839
101.562 132.812 678
-343.75 -250 717
382.812 132.812 837
-476.562 -39.0625 839
390.625 101.562 827
-171.875 -203.125 738
93.75 -46.875 796
351.562 164.062 802
85.9375 164.062 686
-351.562 320.312 1496
-164.062 -421.875 823
-250 320.312 796
-257.812 390.625 1433
-429.688 -398.438 3208
-304.688 179.688 698
-54.6875 203.125 638
-367.188 320.312 1503
-335.938 -273.438 730
-23.4375 -273.438 774
-382.812 -421.875 3333
78.125 187.5 675
7.8125 -437.5 829
-453.125 -85.9375 862
382.812 164.062 854
-39.0625 -234.375 778
39.0625 -210.938 821
-234.375 -265.625 711
-171.875 -242.188 970
343.75 250 811
-70.3125 -375 803
-179.688 -351.562 835
-70.3125 242.188 658
-335.938 -234.375 711
-429.688 -93.75 869
0 -445.312 831
39.0625 437.5 601
-234.375 -31.25 811
23.4375 -125 717
-140.625 -453.125 817
320.312 218.75 783
-476.562 -125 891
-164.062 -195.312 925
46.875 148.438 667
-179.688 -164.062 754
31.25 -250 802
7.8125 -273.438 785
-46.875 -210.938 809
492.188 -109.375 869
265.625 -250 938
351.562 218.75 827
39.0625 -304.688 891
179.688 -289.062 981
-367.188 -210.938 744
-304.688 -390.625 1415
203.125 460.938 713
-210.938 -257.812 704
-468.75 39.0625 785
226.562 429.688 723
-445.312 70.3125 767
-500 -109.375 887
-437.5 -453.125 3120
117.188 101.562 713
-7.8125 -453.125 827
-445.312 156.25 894
-367.188 -296.875 1044
460.938 39.0625 925
-367.188 -226.562 731
46.875 164.062 657
-351.562 242.188 841
-54.6875 -85.9375 734
-93.75 203.125 653
-453.125 70.3125 767
195.312 445.312 719
-437.5 -109.375 975
46.875 171.875 652
398.438 140.625 869
304.688 289.062 792
-7.8125 -265.625 790
484.375 -93.75 813
-492.188 23.4375 802
-125 -398.438 803
-492.188 289.062 1776
-484.375 -31.25 833
46.875 -289.062 989
-492.188 210.938 1609
-359.375 -250 722
-109.375 -250 880
390.625 85.9375 821
210.938 453.125 716
-359.375 -70.3125 849
