ply
format ascii 1.0
comment Created by Open3D
element vertex 2379
property double x
property double y
property double z
end_header
-453.125 -335.938 2701
187.5 375 1333
203.125 93.75 940
218.75 -101.562 851
164.062 -93.75 864
70.3125 218.75 1004
-62.5 257.812 995
359.375 156.25 1057
187.5 46.875 854
-453.125 -343.75 2701
109.375 421.875 1297
289.062 171.875 1057
-156.25 125 819
-500 -328.125 1904
-242.188 156.25 809
148.438 226.562 1523
117.188 210.938 1013
0 -257.812 915
39.0625 296.875 1433
85.9375 -179.688 933
-335.938 46.875 867
179.688 46.875 849
-46.875 -304.688 938
320.312 -328.125 928
367.188 -125 901
109.375 218.75 1016
-320.312 304.688 1731
-156.25 335.938 1034
320.312 -234.375 940
-70.3125 335.938 1410
304.688 -156.25 847
23.4375 -140.625 951
-62.5 367.188 1370
-500 -343.75 1936
7.8125 304.688 1433
-335.938 -15.625 923
-406.25 195.312 1926
367.188 156.25 1550
15.625 -289.062 896
-335.938 -31.25 938
-335.938 -148.438 1073
351.562 -140.625 928
203.125 210.938 1250
226.562 31.25 856
-335.938 -250 1232
-234.375 367.188 1647
-125 210.938 935
476.562 93.75 1470
85.9375 62.5 835
-343.75 -187.5 1130
46.875 -218.75 910
257.812 171.875 1038
-132.812 195.312 923
-164.062 101.562 813
148.438 23.4375 841
296.875 156.25 1041
171.875 -78.125 875
359.375 -296.875 882
-445.312 -312.5 2767
-468.75 -390.625 2598
101.562 -304.688 1010
187.5 -62.5 871
62.5 132.812 925
234.375 -234.375 829
-335.938 -273.438 1264
195.312 -148.438 856
-31.25 250 1001
23.4375 78.125 827
101.562 148.438 948
31.25 289.062 1445
367.188 101.562 1013
-429.688 -296.875 2789
265.625 -187.5 843
39.0625 -164.062 933
296.875 -359.375 973
-117.188 234.375 956
-54.6875 281.25 1439
421.875 85.9375 1550
390.625 -257.812 835
234.375 -320.312 898
-500 -320.312 1915
31.25 54.6875 829
156.25 195.312 1013
109.375 62.5 839
-429.688 -265.625 2859
78.125 -195.312 903
-335.938 -78.125 987
-140.625 156.25 889
195.312 -218.75 835
-398.438 -164.062 2789
179.688 -359.375 1185
109.375 -367.188 1343
-164.062 312.5 1010
187.5 187.5 1025
46.875 289.062 1445
-7.8125 -296.875 906
351.562 -148.438 923
328.125 250 1189
140.625 257.812 1439
-39.0625 -210.938 978
335.938 281.25 1292
453.125 -398.438 903
-414.062 265.625 1813
226.562 -406.25 1067
-132.812 382.812 1094
-39.0625 250 995
-226.562 117.188 807
289.062 15.625 862
375 -281.25 862
195.312 -54.6875 864
218.75 -117.188 847
476.562 -367.188 930
-132.812 179.688 908
-453.125 -164.062 2789
296.875 -125 847
210.938 242.188 1496
296.875 171.875 1044
468.75 -265.625 835
359.375 148.438 1057
-54.6875 250 987
343.75 273.438 1283
-335.938 -109.375 1022
-31.25 0 875
-7.8125 -265.625 906
296.875 -132.812 845
-140.625 171.875 901
195.312 125 956
421.875 140.625 1470
7.8125 265.625 1439
-54.6875 398.438 1338
218.75 179.688 1028
367.188 -289.062 873
156.25 -109.375 867
250 -101.562 847
-453.125 -179.688 2883
-101.562 289.062 1041
289.062 -359.375 973
210.938 101.562 954
375 54.6875 973
179.688 -70.3125 873
-335.938 -257.812 1245
-476.562 -179.688 2156
-335.938 -46.875 954
164.062 -359.375 1232
234.375 -195.312 829
-335.938 -101.562 1016
109.375 148.438 951
78.125 -218.75 887
390.625 -117.188 873
109.375 -304.688 1004
70.3125 257.812 1489
476.562 -265.625 831
-320.312 164.062 800
164.062 -117.188 854
-148.438 140.625 825
-335.938 -195.312 1141
-335.938 -70.3125 981
-328.125 117.188 813
-414.062 250 1833
-406.25 179.688 1959
-54.6875 429.688 1302
265.625 -281.25 854
234.375 23.4375 854
148.438 265.625 1439
171.875 -281.25 843
0 -226.562 951
156.25 -437.5 1173
281.25 -445.312 1112
0 281.25 1464
85.9375 -109.375 959
-148.438 132.812 825
-218.75 179.688 885
7.8125 -281.25 896
70.3125 -203.125 906
-335.938 31.25 880
-335.938 -62.5 970
-468.75 -406.25 2579
351.562 -304.688 891
15.625 -281.25 896
171.875 -257.812 813
39.0625 -132.812 946
203.125 -132.812 851
195.312 -85.9375 847
187.5 187.5 1025
-93.75 296.875 1041
-335.938 -140.625 1060
62.5 281.25 1470
101.562 -367.188 989
-437.5 -296.875 2789
-335.938 -156.25 1084
109.375 -125 970
351.562 -281.25 867
93.75 -304.688 1016
-7.8125 -304.688 987
31.25 234.375 1004
250 -125 839
7.8125 -164.062 946
437.5 -257.812 831
-85.9375 257.812 989
31.25 -93.75 948
164.062 -351.562 964
85.9375 -171.875 935
164.062 -179.688 867
226.562 -304.688 882
-335.938 -226.562 1189
156.25 -289.062 978
93.75 -101.562 951
328.125 226.562 1169
39.0625 46.875 831
125 -296.875 995
210.938 -101.562 847
-62.5 367.188 1370
210.938 -273.438 845
226.562 -226.562 825
296.875 -242.188 869
203.125 101.562 951
-406.25 187.5 1947
320.312 -242.188 938
179.688 -203.125 869
242.188 -367.188 1013
351.562 -156.25 878
-148.438 93.75 819
-445.312 -320.312 2744
31.25 -171.875 935
218.75 234.375 1503
273.438 257.812 1328
164.062 46.875 843
-406.25 203.125 1915
46.875 -125 956
156.25 -414.062 1210
343.75 -132.812 860
289.062 -273.438 860
-15.625 304.688 1433
242.188 -257.812 839
-46.875 -312.5 951
70.3125 164.062 913
70.3125 148.438 938
195.312 242.188 1496
203.125 -148.438 854
-335.938 -117.188 1034
171.875 195.312 1022
-304.688 304.688 1731
15.625 -156.25 951
-78.125 304.688 1445
-93.75 304.688 1041
343.75 257.812 1206
54.6875 132.812 923
-460.938 -351.562 2680
31.25 -132.812 951
-421.875 -226.562 2958
242.188 179.688 1028
-85.9375 273.438 1001
132.812 -367.188 1322
281.25 156.25 1031
304.688 195.312 1181
281.25 -375 1001
85.9375 101.562 908
250 234.375 1415
0 242.188 1001
-335.938 -265.625 1259
-148.438 343.75 1047
296.875 -234.375 873
-7.8125 -273.438 906
109.375 210.938 1010
-335.938 -171.875 1105
-421.875 312.5 1739
-500 -335.938 1926
351.562 257.812 1273
171.875 39.0625 841
-101.562 265.625 989
-335.938 -234.375 1202
250 -343.75 1022
0 296.875 1458
-414.062 273.438 1794
-468.75 -398.438 2598
-70.3125 101.562 823
-93.75 289.062 1458
101.562 -203.125 880
101.562 -375 1338
484.375 62.5 1523
226.562 -375 1041
39.0625 265.625 1470
-335.938 -203.125 1149
-156.25 328.125 1031
359.375 -171.875 894
46.875 -187.5 943
-125 218.75 938
39.0625 234.375 1007
203.125 179.688 1019
15.625 -234.375 928
-343.75 304.688 1739
429.688 148.438 1464
-46.875 289.062 1439
-23.4375 312.5 1415
148.438 195.312 1013
78.125 218.75 1007
312.5 -250 943
-476.562 -250 2789
242.188 -117.188 845
-335.938 -164.062 1097
-70.3125 335.938 1410
289.062 -289.062 970
320.312 -335.938 935
226.562 203.125 1245
195.312 -23.4375 871
195.312 -148.438 856
273.438 312.5 1370
312.5 320.312 1278
257.812 242.188 1392
-453.125 -320.312 2744
46.875 -171.875 935
281.25 -234.375 839
429.688 -109.375 889
289.062 218.75 1223
-335.938 -39.0625 943
242.188 171.875 1031
54.6875 70.3125 829
195.312 54.6875 856
140.625 23.4375 837
304.688 179.688 1169
-23.4375 -296.875 918
226.562 -148.438 837
250 242.188 1427
-382.812 171.875 1970
54.6875 140.625 930
-23.4375 273.438 1458
312.5 -117.188 856
429.688 156.25 1489
-187.5 257.812 951
367.188 -164.062 885
-312.5 164.062 802
-335.938 -179.688 1115
328.125 210.938 1141
218.75 -195.312 827
421.875 62.5 1557
484.375 78.125 1464
-335.938 -93.75 1004
-195.312 109.375 811
-429.688 289.062 1785
-328.125 101.562 823
226.562 -140.625 839
-468.75 -328.125 2659
-335.938 -210.938 1165
-187.5 101.562 811
-23.4375 62.5 827
414.062 -93.75 898
-343.75 -210.938 1165
70.3125 281.25 1464
-117.188 226.562 951
-31.25 304.688 1415
210.938 367.188 1333
164.062 -140.625 873
-335.938 -218.75 1177
171.875 -453.125 1165
78.125 -195.312 903
-85.9375 257.812 989
-328.125 132.812 800
46.875 226.562 1001
-148.438 148.438 885
257.812 -359.375 995
406.25 101.562 1509
445.312 -359.375 923
335.938 210.938 1141
367.188 -250 843
-289.062 304.688 1731
-429.688 -273.438 2859
429.688 -31.25 875
281.25 187.5 1245
312.5 210.938 1161
-140.625 164.062 896
226.562 -132.812 843
281.25 -218.75 882
437.5 164.062 1483
-437.5 -140.625 2701
367.188 85.9375 995
93.75 242.188 1464
-296.875 125 803
234.375 210.938 1236
414.062 117.188 1489
-328.125 125 802
257.812 -93.75 849
156.25 -382.812 1232
210.938 -351.562 1119
78.125 156.25 948
-335.938 -250 1232
-85.9375 273.438 1001
203.125 7.8125 847
250 -398.438 1044
179.688 -78.125 871
343.75 -148.438 871
273.438 -187.5 845
109.375 -164.062 923
-39.0625 70.3125 827
-132.812 93.75 815
-500 -351.562 1926
15.625 -148.438 959
-460.938 -367.188 2659
234.375 -406.25 1063
-132.812 187.5 915
265.625 -390.625 1025
187.5 195.312 1028
-54.6875 390.625 1343
-492.188 -367.188 1970
-429.688 -250 2883
375 46.875 967
-460.938 -273.438 2744
140.625 390.625 1317
-484.375 -429.688 2541
250 -101.562 847
78.125 -289.062 1028
-140.625 148.438 887
367.188 156.25 1550
171.875 -179.688 860
7.8125 -250 920
343.75 -7.8125 864
375 62.5 978
226.562 -109.375 847
390.625 -117.188 873
414.062 -210.938 815
140.625 226.562 1523
-78.125 304.688 1445
46.875 70.3125 829
367.188 195.312 1259
54.6875 46.875 831
117.188 -367.188 1343
-54.6875 281.25 1439
289.062 7.8125 856
296.875 210.938 1214
132.812 234.375 1516
-328.125 109.375 815
187.5 -62.5 871
210.938 117.188 959
281.25 -140.625 837
335.938 -312.5 903
460.938 -109.375 901
85.9375 -210.938 889
289.062 -367.188 987
226.562 -203.125 825
-328.125 85.9375 837
148.438 -289.062 981
-7.8125 62.5 827
351.562 -179.688 910
257.812 -125 839
-335.938 -187.5 1126
242.188 -125 839
7.8125 -296.875 998
54.6875 -179.688 943
148.438 226.562 1523
70.3125 -203.125 906
390.625 -265.625 843
289.062 -312.5 956
156.25 -265.625 835
390.625 54.6875 1688
210.938 210.938 1241
-39.0625 281.25 1483
312.5 -265.625 930
226.562 -414.062 1077
234.375 -140.625 839
-335.938 -85.9375 998
179.688 187.5 1016
125 210.938 1016
-132.812 109.375 817
7.8125 -179.688 940
39.0625 -156.25 935
476.562 -46.875 880
312.5 0 860
15.625 78.125 827
85.9375 -187.5 933
273.438 -382.812 1013
-39.0625 257.812 1001
304.688 148.438 1031
-265.625 296.875 1748
-148.438 125 823
-101.562 281.25 995
179.688 15.625 843
179.688 -445.312 1145
210.938 218.75 1241
265.625 -148.438 835
203.125 -148.438 854
398.438 15.625 948
257.812 164.062 1031
242.188 -398.438 1044
171.875 -281.25 843
179.688 -359.375 1185
-109.375 445.312 1189
62.5 289.062 1464
-93.75 257.812 987
-85.9375 328.125 1410
-414.062 281.25 1785
226.562 -265.625 829
31.25 -164.062 933
140.625 -46.875 896
-335.938 -195.312 1141
-156.25 109.375 815
382.812 15.625 938
-453.125 -351.562 2680
453.125 -117.188 891
281.25 164.062 1041
203.125 -54.6875 862
476.562 -117.188 898
54.6875 281.25 1464
148.438 -125 918
375 -257.812 841
273.438 -226.562 835
359.375 -156.25 898
421.875 -23.4375 878
93.75 39.0625 833
195.312 -62.5 860
-7.8125 -273.438 906
-335.938 -109.375 1022
242.188 -117.188 845
-484.375 -437.5 2522
460.938 132.812 1503
257.812 -296.875 858
203.125 -234.375 835
164.062 -117.188 854
-23.4375 -296.875 918
125 203.125 1007
46.875 257.812 1470
-140.625 117.188 817
140.625 257.812 1439
23.4375 -117.188 975
289.062 -273.438 860
-492.188 -406.25 2040
164.062 -101.562 860
304.688 312.5 1278
-414.062 226.562 1873
351.562 -31.25 867
-23.4375 257.812 1004
460.938 -156.25 860
62.5 -218.75 901
-257.812 296.875 1748
125 265.625 1477
-445.312 -351.562 2701
-7.8125 250 1004
218.75 218.75 1236
-335.938 -226.562 1189
351.562 -164.062 918
218.75 -140.625 843
281.25 320.312 1349
46.875 -281.25 1022
320.312 -226.562 880
367.188 -156.25 889
414.062 140.625 1503
-117.188 226.562 951
-46.875 -312.5 951
265.625 -125 839
-492.188 -296.875 1915
437.5 -23.4375 882
351.562 -187.5 898
406.25 -359.375 915
39.0625 -226.562 918
320.312 250 1189
-406.25 195.312 1926
335.938 140.625 1041
140.625 -257.812 813
46.875 -117.188 973
7.8125 -195.312 946
281.25 218.75 1227
-125 203.125 928
109.375 -375 1349
218.75 187.5 1031
218.75 7.8125 847
-132.812 179.688 908
-7.8125 296.875 1452
-484.375 -203.125 2116
-453.125 -343.75 2701
-39.0625 -328.125 967
39.0625 414.062 1307
7.8125 265.625 1439
39.0625 289.062 1439
0 -296.875 908
-453.125 -187.5 2908
179.688 195.312 1022
31.25 289.062 1445
-117.188 234.375 956
179.688 -343.75 940
468.75 -421.875 891
-312.5 156.25 798
93.75 -304.688 1016
367.188 242.188 1433
125 -296.875 995
328.125 140.625 1038
289.062 -320.312 954
-351.562 312.5 1722
289.062 -125 843
273.438 -93.75 849
382.812 -101.562 887
156.25 -281.25 981
-468.75 -375 2598
226.562 242.188 1458
-187.5 289.062 981
31.25 226.562 1001
-335.938 -125 1044
296.875 304.688 1278
-31.25 273.438 1477
304.688 -242.188 873
132.812 203.125 1013
78.125 -101.562 948
218.75 234.375 1503
-460.938 -375 2639
15.625 234.375 1001
-226.562 156.25 813
445.312 -257.812 831
-335.938 -273.438 1264
-78.125 289.062 1458
328.125 218.75 1157
23.4375 421.875 1302
-93.75 289.062 1458
-70.3125 265.625 998
132.812 140.625 956
-335.938 -140.625 1060
62.5 -273.438 856
-335.938 -78.125 987
39.0625 -132.812 946
375 -148.438 871
296.875 328.125 1302
-328.125 93.75 827
148.438 398.438 1307
179.688 -78.125 871
203.125 -265.625 831
367.188 -148.438 889
15.625 265.625 1445
-296.875 429.688 1557
7.8125 -187.5 940
265.625 -78.125 860
320.312 195.312 1138
437.5 117.188 1516
39.0625 -171.875 935
218.75 -359.375 1084
398.438 -109.375 875
-31.25 -304.688 918
382.812 109.375 1616
23.4375 242.188 1007
-335.938 -179.688 1115
62.5 218.75 1001
62.5 250 1503
156.25 -351.562 962
93.75 -171.875 930
468.75 -109.375 901
140.625 -265.625 813
382.812 -109.375 882
234.375 -171.875 835
429.688 101.562 1543
140.625 46.875 839
-445.312 -328.125 2744
-343.75 -125 1047
109.375 218.75 1016
289.062 -132.812 843
23.4375 -265.625 887
-468.75 -414.062 2579
-304.688 304.688 1731
398.438 -367.188 918
445.312 -367.188 920
7.8125 -179.688 940
-39.0625 93.75 827
382.812 -218.75 829
257.812 250 1387
492.188 85.9375 1445
281.25 -93.75 849
-460.938 -210.938 2835
437.5 -85.9375 906
-335.938 -171.875 1105
-23.4375 281.25 1452
39.0625 -156.25 935
-15.625 -289.062 908
-335.938 -242.188 1214
-85.9375 296.875 1445
-468.75 -125 2241
-54.6875 390.625 1343
210.938 -93.75 845
7.8125 242.188 1004
414.062 7.8125 1748
351.562 -148.438 923
210.938 -273.438 845
-125 210.938 935
164.062 -429.688 1161
-23.4375 304.688 1439
210.938 -54.6875 860
-140.625 148.438 887
335.938 7.8125 871
226.562 171.875 1025
226.562 -343.75 910
-335.938 -132.812 1054
-15.625 242.188 995
-210.938 195.312 896
-468.75 -398.438 2598
-492.188 -429.688 2040
250 -156.25 831
23.4375 -234.375 920
-390.625 171.875 1970
414.062 -187.5 829
101.562 -210.938 873
39.0625 -164.062 933
-132.812 171.875 903
148.438 -148.438 901
335.938 -429.688 1077
210.938 179.688 1025
-492.188 -382.812 1993
140.625 -187.5 887
265.625 -218.75 829
468.75 -343.75 928
281.25 -148.438 837
320.312 -242.188 938
-476.562 -328.125 2659
351.562 -140.625 928
-23.4375 273.438 1458
46.875 -218.75 910
-414.062 257.812 1823
421.875 -351.562 920
265.625 -234.375 833
-70.3125 78.125 819
-476.562 -437.5 2522
85.9375 156.25 951
171.875 -85.9375 867
23.4375 -148.438 948
-101.562 85.9375 817
-460.938 -382.812 2618
359.375 187.5 1232
-500 -343.75 1936
375 179.688 1227
-429.688 -54.6875 2398
328.125 -156.25 867
375 -109.375 894
15.625 -156.25 951
187.5 187.5 1025
203.125 -70.3125 856
-328.125 70.3125 847
-328.125 304.688 1739
382.812 78.125 992
359.375 -54.6875 885
-140.625 164.062 896
23.4375 -289.062 1007
-335.938 -62.5 970
-62.5 359.375 1381
335.938 218.75 1157
-93.75 265.625 989
-31.25 281.25 1458
-476.562 -429.688 2541
-335.938 -117.188 1034
359.375 -85.9375 910
62.5 -226.562 896
-406.25 218.75 1894
289.062 -445.312 1112
-406.25 -210.938 2984
-46.875 250 989
-23.4375 -304.688 918
-406.25 -218.75 2984
-460.938 -132.812 2226
-484.375 -281.25 2723
234.375 -226.562 825
218.75 -203.125 825
179.688 -406.25 1138
-335.938 -156.25 1084
156.25 -195.312 896
-320.312 23.4375 885
0 265.625 1496
304.688 23.4375 869
195.312 242.188 1496
265.625 -414.062 1070
132.812 -117.188 959
-484.375 -421.875 2541
359.375 -304.688 891
171.875 398.438 1312
367.188 195.312 1259
-78.125 296.875 1439
0 296.875 1458
-46.875 281.25 1439
343.75 -117.188 860
-203.125 109.375 811
-62.5 398.438 1333
351.562 -156.25 878
226.562 -31.25 878
-414.062 289.062 1766
195.312 -453.125 1165
179.688 93.75 935
210.938 -226.562 831
-273.438 125 802
273.438 -296.875 860
382.812 -281.25 860
39.0625 -171.875 935
-250 296.875 1748
-468.75 -156.25 2198
125 148.438 956
375 54.6875 973
281.25 7.8125 856
382.812 0 873
203.125 -117.188 851
468.75 -117.188 894
203.125 179.688 1019
117.188 -195.312 882
-46.875 414.062 1317
109.375 -304.688 1004
-132.812 375 1090
312.5 -156.25 854
7.8125 -250 920
140.625 -125 920
-484.375 -210.938 2116
226.562 203.125 1245
117.188 -296.875 998
375 -140.625 882
281.25 195.312 1250
-476.562 -187.5 2156
367.188 -15.625 867
148.438 226.562 1523
-203.125 210.938 910
148.438 -257.812 815
-328.125 164.062 800
-328.125 62.5 854
-320.312 164.062 800
-421.875 -257.812 2859
406.25 -15.625 875
-500 -281.25 1936
-429.688 -257.812 2883
242.188 226.562 1410
265.625 195.312 1312
320.312 -203.125 871
-31.25 304.688 1415
-468.75 -382.812 2598
-23.4375 -312.5 975
85.9375 39.0625 833
78.125 62.5 835
-46.875 93.75 825
335.938 -210.938 918
367.188 -296.875 880
0 234.375 992
132.812 -289.062 992
-468.75 -164.062 2198
195.312 -257.812 821
156.25 -125 889
-476.562 -406.25 2579
226.562 -390.625 1041
-117.188 234.375 956
-359.375 304.688 1748
54.6875 257.812 1477
-273.438 140.625 800
250 179.688 1028
-429.688 -273.438 2859
-484.375 -289.062 2701
132.812 390.625 1317
328.125 234.375 1177
-148.438 132.812 825
406.25 -23.4375 875
-484.375 -460.938 2485
-140.625 156.25 889
328.125 -335.938 935
195.312 187.5 1028
31.25 257.812 1489
273.438 -125 839
-85.9375 312.5 1439
132.812 210.938 1019
203.125 367.188 1338
-15.625 250 1004
375 -289.062 873
335.938 -328.125 925
382.812 93.75 1639
226.562 23.4375 854
-414.062 281.25 1785
-31.25 250 1001
-429.688 -281.25 2859
367.188 93.75 1001
-46.875 437.5 1288
-453.125 -195.312 2908
-54.6875 382.812 1349
7.8125 -179.688 940
-125 -117.188 995
203.125 -85.9375 845
406.25 7.8125 1748
-62.5 250 987
54.6875 226.562 1007
-218.75 171.875 880
-70.3125 351.562 1387
343.75 179.688 1115
-132.812 226.562 948
171.875 -93.75 858
343.75 -70.3125 901
-343.75 -39.0625 948
343.75 -320.312 913
70.3125 257.812 1489
-125 195.312 923
296.875 -289.062 954
39.0625 164.062 933
335.938 -46.875 878
250 -257.812 847
-171.875 367.188 1060
218.75 117.188 967
-500 -359.375 1926
210.938 -93.75 845
203.125 -257.812 821
-78.125 351.562 1387
-78.125 265.625 992
234.375 -132.812 841
484.375 -117.188 901
132.812 -296.875 989
218.75 -351.562 1060
-406.25 210.938 1904
7.8125 296.875 1464
171.875 -62.5 882
93.75 406.25 1307
-468.75 -406.25 2579
289.062 210.938 1227
210.938 109.375 956
257.812 -242.188 835
382.812 109.375 1616
132.812 -156.25 908
-39.0625 -304.688 951
328.125 257.812 1206
218.75 101.562 956
-203.125 289.062 981
367.188 281.25 1392
195.312 195.312 1031
281.25 -281.25 862
218.75 -54.6875 856
-234.375 117.188 805
-78.125 296.875 1439
312.5 -54.6875 891
382.812 -257.812 837
281.25 -226.562 835
187.5 -234.375 837
210.938 -148.438 847
31.25 -140.625 946
156.25 -289.062 978
281.25 -125 841
304.688 210.938 1189
335.938 -140.625 867
93.75 -125 975
93.75 273.438 1458
265.625 -7.8125 856
46.875 -273.438 873
-140.625 359.375 1063
226.562 -234.375 831
164.062 -140.625 873
-132.812 140.625 823
125 -140.625 928
-101.562 273.438 995
39.0625 -281.25 885
445.312 125 1509
-156.25 320.312 1019
250 -109.375 845
-296.875 156.25 802
0 -265.625 898
343.75 -148.438 871
250 -445.312 1130
296.875 -109.375 847
-328.125 101.562 823
-117.188 218.75 943
-335.938 -23.4375 933
62.5 250 1503
398.438 -265.625 845
218.75 234.375 1503
195.312 101.562 948
-125 203.125 928
218.75 -125 847
-437.5 -226.562 2835
-15.625 273.438 1470
-429.688 -210.938 2859
125 -273.438 825
476.562 -125 894
148.438 -265.625 837
-406.25 226.562 1873
93.75 250 1464
250 234.375 1415
-460.938 -203.125 2908
-203.125 101.562 811
437.5 -101.562 896
78.125 171.875 915
218.75 210.938 1236
-93.75 257.812 987
171.875 -406.25 1165
78.125 -210.938 896
-62.5 351.562 1392
-7.8125 -460.938 2883
-132.812 171.875 903
226.562 -140.625 839
445.312 93.75 1458
414.062 -164.062 843
101.562 210.938 1007
304.688 164.062 1041
-62.5 367.188 1370
-421.875 -234.375 2933
320.312 -343.75 946
93.75 148.438 946
15.625 -296.875 1001
257.812 -398.438 1041
7.8125 -187.5 940
492.188 164.062 1404
-62.5 390.625 1343
-429.688 -109.375 2598
179.688 132.812 964
210.938 -125 849
-328.125 -93.75 1004
-484.375 -414.062 2560
187.5 -226.562 839
406.25 -101.562 887
-492.188 -375 1981
-164.062 148.438 880
164.062 398.438 1307
414.062 -101.562 891
62.5 414.062 1307
367.188 -257.812 845
375 156.25 1543
7.8125 273.438 1439
85.9375 218.75 1010
265.625 164.062 1034
-125 390.625 1112
117.188 203.125 1004
351.562 -156.25 878
70.3125 70.3125 835
46.875 -164.062 935
250 -140.625 833
367.188 93.75 1001
429.688 -132.812 871
445.312 85.9375 1470
156.25 -453.125 1173
398.438 -109.375 875
-335.938 -70.3125 981
-171.875 93.75 817
453.125 101.562 1464
-492.188 -351.562 1926
335.938 -7.8125 864
375 70.3125 984
-179.688 265.625 959
-328.125 46.875 869
62.5 -125 975
-492.188 -359.375 1926
-93.75 281.25 1483
187.5 195.312 1028
140.625 54.6875 845
7.8125 -226.562 940
171.875 -140.625 867
-445.312 -335.938 2723
140.625 257.812 1439
367.188 -125 901
46.875 -226.562 906
187.5 -101.562 847
328.125 -234.375 925
0 429.688 1297
171.875 -31.25 878
62.5 140.625 933
414.062 -171.875 837
421.875 -31.25 873
-39.0625 437.5 1288
218.75 109.375 962
-148.438 117.188 817
140.625 234.375 1523
-117.188 406.25 1134
140.625 -234.375 813
351.562 -132.812 930
171.875 15.625 841
156.25 -70.3125 882
296.875 -445.312 1108
375 15.625 938
367.188 -242.188 843
46.875 429.688 1292
140.625 -289.062 989
304.688 328.125 1292
203.125 210.938 1250
429.688 -351.562 923
265.625 -445.312 1123
-23.4375 250 1001
164.062 -171.875 869
390.625 -273.438 851
421.875 -171.875 839
15.625 -164.062 940
328.125 -226.562 928
320.312 -226.562 880
62.5 39.0625 835
429.688 218.75 1452
70.3125 -328.125 1019
210.938 187.5 1028
-117.188 226.562 951
-140.625 156.25 889
414.062 -250 825
-46.875 70.3125 825
85.9375 -132.812 981
296.875 218.75 1214
-328.125 31.25 875
-7.8125 296.875 1452
31.25 -171.875 935
-335.938 -164.062 1097
156.25 132.812 959
15.625 234.375 1001
250 -117.188 843
171.875 -85.9375 867
320.312 203.125 1145
140.625 -195.312 885
78.125 -117.188 967
195.312 -265.625 837
-421.875 -242.188 2933
406.25 -257.812 835
-234.375 367.188 1647
-421.875 -93.75 2598
-445.312 -109.375 2271
-15.625 85.9375 827
148.438 203.125 1016
78.125 -273.438 849
-78.125 304.688 1445
242.188 -125 839
-7.8125 -281.25 906
351.562 140.625 1047
-125 203.125 928
85.9375 250 1496
-70.3125 390.625 1134
343.75 -312.5 903
-140.625 140.625 825
179.688 375 1333
70.3125 289.062 1445
390.625 -109.375 875
148.438 234.375 1496
179.688 -70.3125 873
23.4375 -148.438 948
382.812 31.25 954
-62.5 -203.125 1087
78.125 -328.125 1016
351.562 -70.3125 898
-101.562 445.312 1197
375 -117.188 894
101.562 -210.938 873
484.375 70.3125 1477
62.5 46.875 833
343.75 406.25 1489
367.188 -250 843
203.125 242.188 1496
210.938 93.75 948
382.812 109.375 1616
250 -109.375 845
265.625 304.688 1392
-492.188 -437.5 2129
-46.875 257.812 995
46.875 -281.25 1022
85.9375 -210.938 889
-132.812 164.062 898
234.375 0 851
226.562 210.938 1236
148.438 -359.375 1283
-351.562 -210.938 1169
164.062 -210.938 871
-78.125 257.812 989
-15.625 242.188 995
195.312 -93.75 845
226.562 -117.188 845
171.875 -93.75 858
109.375 -203.125 878
-140.625 210.938 933
195.312 250 1483
171.875 187.5 1013
156.25 195.312 1013
148.438 257.812 1439
335.938 203.125 1138
117.188 -164.062 918
359.375 -140.625 903
39.0625 -289.062 1016
-460.938 -375 2639
-46.875 281.25 1439
-414.062 -218.75 2958
31.25 -289.062 1013
-453.125 -367.188 2659
-273.438 296.875 1748
335.938 -328.125 925
-132.812 179.688 908
-328.125 54.6875 860
54.6875 250 1016
343.75 265.625 1273
-328.125 78.125 843
39.0625 -132.812 946
125 265.625 1477
218.75 203.125 1245
15.625 -242.188 923
-195.312 226.562 923
0 -218.75 978
-367.188 304.688 1748
140.625 203.125 1013
234.375 -148.438 837
343.75 -179.688 918
15.625 78.125 827
78.125 -296.875 1028
31.25 257.812 1489
164.062 -281.25 975
304.688 -359.375 970
367.188 140.625 1054
312.5 -351.562 959
296.875 171.875 1044
46.875 -164.062 935
265.625 -273.438 864
-132.812 101.562 815
226.562 -351.562 1060
234.375 -351.562 1047
46.875 -195.312 946
406.25 -7.8125 875
-195.312 101.562 811
0 -203.125 981
210.938 -93.75 845
-453.125 -359.375 2680
468.75 -265.625 835
234.375 -132.812 841
-23.4375 281.25 1452
359.375 -304.688 891
31.25 226.562 1001
375 -242.188 835
437.5 109.375 1529
375 -171.875 862
39.0625 289.062 1439
-265.625 156.25 811
-242.188 117.188 805
85.9375 -273.438 845
-132.812 171.875 903
0 -265.625 898
-476.562 -437.5 2522
78.125 156.25 948
46.875 -132.812 946
-46.875 406.25 1328
54.6875 -187.5 946
-328.125 7.8125 901
296.875 -367.188 987
-195.312 289.062 981
-421.875 -257.812 2859
-328.125 39.0625 875
31.25 -140.625 946
-210.938 187.5 894
-171.875 117.188 811
78.125 406.25 1312
132.812 -296.875 989
-117.188 226.562 951
226.562 -140.625 839
125 -367.188 1338
-257.812 117.188 807
367.188 -296.875 880
-46.875 421.875 1307
164.062 -367.188 1223
218.75 -429.688 1105
156.25 -429.688 1181
46.875 -218.75 910
304.688 156.25 1041
351.562 132.812 1041
70.3125 164.062 913
-484.375 -429.688 2541
390.625 -125 871
-148.438 132.812 825
85.9375 31.25 839
-109.375 421.875 1157
398.438 -257.812 835
-398.438 -187.5 2883
281.25 -375 1001
-460.938 -390.625 2618
-250 117.188 805
250 15.625 851
429.688 140.625 1458
-437.5 -304.688 2767
179.688 -421.875 1123
-406.25 -257.812 2908
242.188 -125 839
-164.062 296.875 995
-312.5 140.625 798
367.188 -132.812 898
-406.25 234.375 1863
375 156.25 1543
-335.938 23.4375 887
289.062 -375 1001
-70.3125 335.938 1410
62.5 132.812 925
390.625 -421.875 898
164.062 -382.812 1210
-429.688 -132.812 2723
-39.0625 250 995
-476.562 -421.875 2541
273.438 -117.188 841
-328.125 62.5 854
343.75 171.875 1105
281.25 15.625 862
109.375 -117.188 964
156.25 -265.625 835
468.75 -46.875 880
-414.062 -234.375 2933
-476.562 -195.312 2129
226.562 -421.875 1090
93.75 -171.875 930
406.25 -46.875 873
359.375 289.062 1288
-343.75 7.8125 903
93.75 218.75 1013
171.875 -414.062 1153
226.562 171.875 1025
375 -125 889
-445.312 -312.5 2767
-500 -453.125 2432
125 -195.312 880
101.562 -203.125 880
-85.9375 273.438 1001
0 273.438 1439
-406.25 226.562 1873
203.125 -242.188 821
-484.375 -460.938 2485
484.375 62.5 1523
7.8125 296.875 1464
273.438 156.25 1028
445.312 -250 823
281.25 -281.25 862
164.062 -359.375 1232
257.812 -171.875 837
-15.625 -304.688 978
-23.4375 304.688 1439
171.875 -140.625 867
351.562 -195.312 898
-328.125 85.9375 837
23.4375 54.6875 829
31.25 -171.875 935
-101.562 78.125 823
125 -117.188 962
398.438 -117.188 873
421.875 -78.125 901
-437.5 -335.938 2723
-132.812 164.062 898
-429.688 -289.062 2812
117.188 148.438 954
-429.688 -281.25 2859
375 62.5 978
304.688 171.875 1161
70.3125 -210.938 898
-148.438 125 823
7.8125 -296.875 998
-164.062 93.75 817
210.938 -54.6875 860
54.6875 -218.75 908
132.812 257.812 1470
265.625 -390.625 1025
62.5 289.062 1464
-406.25 203.125 1915
-265.625 125 803
429.688 171.875 1483
-203.125 203.125 903
382.812 117.188 1557
117.188 203.125 1004
-281.25 125 802
0 265.625 1496
101.562 210.938 1007
187.5 250 1496
85.9375 210.938 1001
-125 187.5 915
62.5 257.812 1489
54.6875 -195.312 948
156.25 -218.75 875
179.688 -179.688 856
-468.75 -234.375 2767
460.938 -62.5 882
390.625 101.562 1509
15.625 421.875 1302
-492.188 -367.188 1970
-328.125 0 908
218.75 179.688 1028
-328.125 15.625 894
-70.3125 250 987
-453.125 -195.312 2908
-31.25 273.438 1477
390.625 -382.812 920
78.125 -203.125 898
-15.625 281.25 1452
242.188 226.562 1410
195.312 -125 856
-171.875 281.25 978
-15.625 -296.875 908
-109.375 85.9375 819
-406.25 242.188 1853
-312.5 132.812 798
7.8125 -257.812 913
54.6875 218.75 1001
359.375 -7.8125 869
265.625 218.75 1333
46.875 234.375 1007
257.812 -93.75 849
429.688 46.875 1572
62.5 250 1503
343.75 -187.5 915
-7.8125 -281.25 906
-179.688 125 813
-31.25 242.188 992
15.625 -164.062 940
15.625 -164.062 940
195.312 -93.75 845
281.25 -210.938 873
296.875 -359.375 973
156.25 -148.438 887
156.25 -390.625 1227
328.125 203.125 1141
171.875 -359.375 1219
218.75 85.9375 943
-437.5 -312.5 2767
-320.312 125 802
242.188 -46.875 889
156.25 203.125 1022
-132.812 367.188 1077
390.625 -375 928
70.3125 -125 975
-328.125 70.3125 847
-78.125 296.875 1439
93.75 273.438 1458
429.688 -257.812 831
312.5 148.438 1034
148.438 265.625 1439
171.875 -351.562 1214
101.562 -171.875 925
0 304.688 1439
-62.5 343.75 1398
93.75 -179.688 928
-117.188 210.938 938
156.25 -421.875 1193
257.812 -218.75 827
-492.188 -421.875 2040
-242.188 296.875 1757
359.375 -171.875 894
312.5 304.688 1264
-468.75 -414.062 2579
-335.938 164.062 798
-492.188 -312.5 1904
-7.8125 429.688 1297
359.375 -164.062 894
328.125 265.625 1214
-468.75 -421.875 2560
195.312 -351.562 938
289.062 320.312 1317
101.562 -273.438 827
187.5 -54.6875 873
117.188 -367.188 1343
250 -242.188 835
250 218.75 1387
351.562 265.625 1273
445.312 148.438 1452
164.062 -289.062 973
-335.938 304.688 1739
343.75 257.812 1206
-226.562 109.375 809
281.25 312.5 1307
-78.125 78.125 819
203.125 -148.438 854
93.75 -164.062 935
359.375 -296.875 882
390.625 -390.625 915
281.25 -132.812 839
226.562 -398.438 1050
242.188 -351.562 1028
179.688 -453.125 1161
390.625 70.3125 1663
78.125 226.562 1010
-468.75 -242.188 2767
281.25 -117.188 843
367.188 -281.25 862
343.75 187.5 1115
-7.8125 242.188 995
179.688 -437.5 1134
179.688 125 959
187.5 -359.375 1173
187.5 -210.938 871
234.375 179.688 1031
-164.062 187.5 906
0 289.062 1464
398.438 31.25 1722
421.875 -257.812 833
203.125 -445.312 1145
257.812 -156.25 833
-46.875 406.25 1328
-390.625 -226.562 2984
78.125 148.438 943
-148.438 117.188 817
320.312 320.312 1278
-445.312 -335.938 2723
437.5 156.25 1458
375 -281.25 862
140.625 -156.25 906
164.062 -414.062 1181
492.188 78.125 1464
195.312 179.688 1019
7.8125 -257.812 913
-7.8125 296.875 1452
195.312 -234.375 837
-328.125 46.875 869
437.5 -250 825
-156.25 93.75 817
-328.125 23.4375 885
-500 -460.938 2450
-398.438 179.688 1959
117.188 -304.688 992
140.625 -296.875 984
226.562 390.625 1317
-140.625 132.812 825
421.875 -234.375 813
421.875 -226.562 811
-453.125 -132.812 2226
203.125 -62.5 858
195.312 39.0625 851
335.938 -320.312 913
476.562 -398.438 910
250 -117.188 843
273.438 -171.875 839
210.938 -31.25 880
257.812 -148.438 833
390.625 -23.4375 867
-460.938 -156.25 2198
390.625 -406.25 906
-460.938 -226.562 2835
-93.75 296.875 1041
-148.438 343.75 1047
31.25 -140.625 946
406.25 -15.625 875
-109.375 234.375 956
-296.875 148.438 800
203.125 -273.438 847
210.938 -203.125 825
273.438 -156.25 837
179.688 -351.562 940
-62.5 359.375 1381
195.312 -335.938 928
54.6875 -125 959
453.125 -203.125 831
-140.625 93.75 817
-39.0625 429.688 1297
289.062 289.062 1292
187.5 -265.625 839
406.25 15.625 1748
351.562 148.438 1054
148.438 -367.188 1273
390.625 -398.438 910
-210.938 109.375 811
-15.625 62.5 827
-109.375 78.125 825
265.625 -398.438 1041
382.812 -117.188 878
367.188 195.312 1259
187.5 -226.562 839
140.625 195.312 1010
7.8125 -171.875 940
148.438 -273.438 837
-148.438 125 823
242.188 -132.812 837
-484.375 -406.25 2579
421.875 125 1477
-125 195.312 923
-140.625 85.9375 819
-328.125 31.25 875
257.812 -367.188 998
351.562 -156.25 878
390.625 -414.062 901
312.5 320.312 1278
78.125 39.0625 833
421.875 -242.188 817
257.812 -101.562 845
234.375 -367.188 1038
-437.5 -156.25 2789
-54.6875 375 1359
0 234.375 992
93.75 250 1464
-335.938 -210.938 1165
109.375 -367.188 1343
421.875 -101.562 891
375 -250 837
-54.6875 382.812 1349
218.75 -242.188 835
273.438 -382.812 1013
-382.812 -226.562 2958
226.562 117.188 970
320.312 187.5 1138
-218.75 164.062 873
164.062 -367.188 1223
31.25 -203.125 951
375 78.125 992
-101.562 437.5 1185
289.062 210.938 1227
375 85.9375 995
0 -210.938 981
281.25 -382.812 1013
281.25 7.8125 856
171.875 -445.312 1153
54.6875 234.375 1010
-304.688 429.688 1557
351.562 -312.5 901
-15.625 250 1004
187.5 -429.688 1115
125 -101.562 946
187.5 -23.4375 873
-15.625 273.438 1470
-54.6875 390.625 1343
70.3125 218.75 1004
195.312 -62.5 860
343.75 -31.25 864
85.9375 148.438 946
-414.062 -242.188 2933
-390.625 -210.938 2958
179.688 -367.188 1177
312.5 -273.438 925
-15.625 -296.875 908
-335.938 -234.375 1202
-492.188 -289.062 1936
187.5 -218.75 843
-468.75 -179.688 2156
-132.812 156.25 891
62.5 -281.25 1022
187.5 -31.25 878
0 -273.438 898
-78.125 265.625 992
15.625 -250 915
-429.688 -218.75 2859
-179.688 -85.9375 973
195.312 -226.562 835
476.562 54.6875 1516
85.9375 -179.688 933
296.875 179.688 1193
-117.188 210.938 938
203.125 -125 851
453.125 179.688 1464
7.8125 -289.062 896
-31.25 -304.688 918
-195.312 218.75 920
187.5 -62.5 871
164.062 -125 854
445.312 78.125 1477
226.562 -140.625 839
320.312 -156.25 858
-328.125 -15.625 923
101.562 -39.0625 896
117.188 -203.125 875
93.75 -156.25 946
242.188 -125 839
15.625 54.6875 829
-171.875 101.562 813
234.375 -140.625 839
328.125 140.625 1038
-289.062 429.688 1557
320.312 -125 858
-179.688 257.812 954
70.3125 -273.438 854
234.375 171.875 1028
117.188 -375 1349
85.9375 164.062 918
179.688 -31.25 878
-453.125 -125 2241
343.75 -320.312 913
-117.188 218.75 943
273.438 -390.625 1028
46.875 -289.062 1022
218.75 -54.6875 856
179.688 -164.062 860
-429.688 -289.062 2812
54.6875 -273.438 867
210.938 234.375 1496
-78.125 -226.562 1123
187.5 -242.188 817
312.5 -15.625 860
39.0625 70.3125 829
70.3125 -226.562 891
179.688 -171.875 856
421.875 -31.25 873
0 265.625 1496
351.562 -203.125 891
250 164.062 1028
-453.125 -203.125 2883
398.438 -117.188 873
296.875 289.062 1259
70.3125 125 923
-421.875 -257.812 2859
-187.5 242.188 940
-460.938 -390.625 2618
156.25 -257.812 815
46.875 -164.062 935
171.875 -421.875 1153
-390.625 -179.688 2789
-421.875 -117.188 2639
0 304.688 1439
203.125 7.8125 847
304.688 -257.812 856
54.6875 -281.25 1022
289.062 -148.438 841
164.062 -265.625 835
54.6875 226.562 1007
398.438 125 1543
-312.5 148.438 796
164.062 -289.062 973
-476.562 -203.125 2116
-320.312 117.188 809
296.875 -320.312 935
93.75 -218.75 875
-179.688 320.312 1010
-140.625 132.812 825
296.875 320.312 1297
85.9375 -195.312 896
46.875 -132.812 946
445.312 -367.188 920
-406.25 234.375 1863
-125 187.5 915
-445.312 -343.75 2701
-125 179.688 913
-320.312 132.812 800
359.375 -15.625 864
-156.25 312.5 1013
164.062 -257.812 813
179.688 -179.688 856
-437.5 -312.5 2767
46.875 -171.875 935
234.375 -390.625 1031
210.938 23.4375 847
414.062 109.375 1503
-359.375 304.688 1748
382.812 -109.375 882
140.625 23.4375 837
-484.375 -398.438 2579
-328.125 -7.8125 913
171.875 -398.438 1169
187.5 -437.5 1130
132.812 -273.438 1001
343.75 -218.75 901
484.375 -70.3125 887
46.875 70.3125 829
179.688 -23.4375 871
117.188 -304.688 992
-54.6875 93.75 821
218.75 93.75 951
335.938 -179.688 880
-140.625 148.438 887
367.188 -109.375 906
-281.25 296.875 1748
234.375 218.75 1236
226.562 -210.938 825
62.5 257.812 1489
171.875 -117.188 854
281.25 265.625 1297
-203.125 335.938 1688
226.562 -132.812 843
-328.125 -273.438 1268
-445.312 -320.312 2744
304.688 312.5 1278
-70.3125 367.188 1370
132.812 210.938 1019
15.625 -195.312 946
148.438 -132.812 913
-335.938 -31.25 938
382.812 -367.188 935
257.812 -265.625 856
-93.75 265.625 989
-85.9375 312.5 1439
351.562 156.25 1090
7.8125 -234.375 933
-437.5 -296.875 2789
31.25 -296.875 1013
171.875 -101.562 856
-328.125 -148.438 1070
304.688 -62.5 896
367.188 -156.25 889
23.4375 226.562 995
62.5 281.25 1470
-328.125 -257.812 1241
-179.688 250 946
296.875 -101.562 851
125 -125 970
-132.812 171.875 903
289.062 -375 1001
-54.6875 367.188 1365
210.938 101.562 954
-39.0625 -328.125 967
7.8125 -453.125 2958
375 70.3125 984
62.5 218.75 1001
31.25 -281.25 885
-328.125 -39.0625 943
23.4375 -234.375 920
-453.125 -359.375 2680
445.312 -351.562 930
257.812 -351.562 995
31.25 257.812 1489
421.875 -250 825
367.188 -171.875 880
242.188 -406.25 1057
23.4375 265.625 1489
-78.125 125 885
31.25 -148.438 943
7.8125 -187.5 940
-328.125 0 908
-492.188 -351.562 1926
265.625 -140.625 837
-328.125 -250 1223
312.5 -421.875 1070
46.875 140.625 928
304.688 304.688 1264
-117.188 109.375 817
210.938 -125 849
-460.938 -398.438 2598
54.6875 39.0625 835
273.438 -101.562 845
210.938 -101.562 847
179.688 -85.9375 864
-453.125 -367.188 2659
-328.125 -54.6875 964
-7.8125 273.438 1489
179.688 -78.125 871
39.0625 -289.062 1016
445.312 -23.4375 882
-429.688 -273.438 2859
140.625 -156.25 906
375 -289.062 873
171.875 -429.688 1141
-484.375 -421.875 2541
312.5 0 860
226.562 -156.25 837
375 -398.438 930
179.688 -359.375 1185
164.062 -375 1219
132.812 -226.562 860
156.25 -460.938 1189
132.812 -195.312 882
460.938 -359.375 933
54.6875 -226.562 903
203.125 -109.375 847
414.062 101.562 1509
109.375 -109.375 954
390.625 -101.562 885
187.5 -78.125 869
148.438 -289.062 981
-31.25 250 1001
359.375 -148.438 903
328.125 -429.688 1080
218.75 101.562 956
-328.125 -62.5 970
273.438 187.5 1250
242.188 -382.812 1022
-328.125 -93.75 1004
62.5 125 920
242.188 -140.625 837
242.188 -226.562 827
-476.562 -265.625 2767
218.75 -265.625 829
281.25 156.25 1031
-453.125 -343.75 2701
93.75 -187.5 896
-406.25 242.188 1853
31.25 -234.375 910
85.9375 242.188 1496
-15.625 257.812 1004
148.438 -195.312 889
218.75 -109.375 847
15.625 -179.688 938
375 62.5 978
-328.125 7.8125 901
382.812 117.188 1557
273.438 156.25 1028
156.25 195.312 1013
62.5 140.625 933
195.312 -101.562 845
351.562 -187.5 898
-7.8125 -289.062 906
-492.188 -335.938 1926
-39.0625 242.188 989
-296.875 421.875 1564
-46.875 421.875 1307
187.5 210.938 1034
179.688 -187.5 856
210.938 -242.188 837
132.812 46.875 837
257.812 -257.812 847
46.875 289.062 1445
7.8125 -195.312 946
125 -164.062 913
164.062 -429.688 1161
-312.5 -257.812 1236
148.438 234.375 1496
93.75 -171.875 930
0 -273.438 898
140.625 -296.875 984
218.75 23.4375 847
-421.875 -242.188 2933
226.562 414.062 1503
140.625 226.562 1523
-437.5 -320.312 2767
-328.125 -265.625 1255
-406.25 257.812 1823
-70.3125 304.688 1439
429.688 85.9375 1557
78.125 273.438 1464
265.625 -359.375 984
-210.938 179.688 887
-148.438 117.188 817
148.438 -296.875 978
-328.125 -203.125 1149
117.188 437.5 1302
273.438 -140.625 837
-398.438 187.5 1947
-398.438 179.688 1959
-132.812 195.312 923
406.25 -109.375 878
390.625 78.125 1647
468.75 -367.188 930
234.375 -242.188 835
234.375 359.375 1333
-328.125 -85.9375 995
164.062 -46.875 891
210.938 -117.188 849
101.562 -242.188 851
273.438 -46.875 887
-125 195.312 923
343.75 -140.625 867
148.438 257.812 1439
-132.812 164.062 898
-328.125 -164.062 1094
-226.562 164.062 869
46.875 46.875 831
-320.312 109.375 815
296.875 -367.188 987
-429.688 -117.188 2639
453.125 -265.625 835
203.125 -62.5 858
132.812 -367.188 1322
-54.6875 250 987
15.625 289.062 1464
171.875 -281.25 843
375 -125 889
226.562 -281.25 851
101.562 -375 1338
-70.3125 375 1365
15.625 -250 915
109.375 148.438 951
140.625 -132.812 915
-445.312 -187.5 2883
-93.75 289.062 1458
484.375 62.5 1523
-125 382.812 1101
226.562 210.938 1236
-39.0625 429.688 1297
-140.625 125 823
31.25 -140.625 946
234.375 -195.312 829
-328.125 -171.875 1105
250 -117.188 843
-273.438 156.25 809
226.562 -46.875 889
-187.5 234.375 930
78.125 -296.875 1028
-46.875 414.062 1317
187.5 -359.375 1173
132.812 -296.875 989
31.25 289.062 1445
-62.5 343.75 1398
218.75 -148.438 841
210.938 -140.625 849
187.5 -70.3125 869
304.688 -250 858
351.562 -320.312 910
-164.062 289.062 987
-39.0625 -312.5 959
-226.562 125 805
359.375 -148.438 903
85.9375 -125 975
-375 304.688 1748
382.812 31.25 954
195.312 234.375 1496
46.875 -187.5 943
492.188 78.125 1464
281.25 -179.688 841
-125 187.5 915
289.062 210.938 1227
-140.625 140.625 825
250 -234.375 831
398.438 -101.562 885
-437.5 -132.812 2701
-335.938 -187.5 1126
164.062 -421.875 1165
421.875 -85.9375 908
-492.188 -343.75 1936
-328.125 -226.562 1189
234.375 -414.062 1073
-31.25 -304.688 918
85.9375 210.938 1001
437.5 148.438 1458
171.875 -117.188 854
31.25 -148.438 943
46.875 -171.875 935
23.4375 -156.25 940
-500 -296.875 1915
242.188 -132.812 837
-328.125 -117.188 1034
-117.188 210.938 938
62.5 -218.75 901
-421.875 -265.625 2859
367.188 148.438 1054
179.688 -85.9375 864
218.75 85.9375 943
187.5 -93.75 849
210.938 -132.812 849
273.438 -203.125 869
179.688 187.5 1016
31.25 -132.812 951
234.375 -156.25 837
-179.688 289.062 981
-328.125 -156.25 1084
7.8125 304.688 1433
-148.438 328.125 1031
210.938 -101.562 847
93.75 -210.938 882
429.688 148.438 1464
210.938 -218.75 829
140.625 140.625 959
31.25 85.9375 835
195.312 -210.938 873
-15.625 296.875 1452
-39.0625 -226.562 1119
304.688 -359.375 970
-445.312 -343.75 2701
-140.625 343.75 1050
109.375 -265.625 827
179.688 -171.875 856
-171.875 289.062 981
-70.3125 304.688 1439
304.688 148.438 1031
304.688 -320.312 928
39.0625 226.562 1001
414.062 -257.812 833
343.75 15.625 930
31.25 -289.062 1013
-460.938 -218.75 2835
398.438 -265.625 845
-70.3125 359.375 1381
164.062 -148.438 873
-328.125 -125 1044
226.562 359.375 1338
304.688 -117.188 849
359.375 187.5 1232
312.5 -62.5 896
492.188 -273.438 831
-328.125 -234.375 1202
218.75 -203.125 825
445.312 -390.625 903
-281.25 164.062 809
164.062 -390.625 1206
-320.312 85.9375 833
-460.938 -164.062 2198
289.062 -101.562 847
195.312 -125 856
257.812 328.125 1365
-328.125 -109.375 1022
445.312 117.188 1516
156.25 -359.375 1255
-234.375 125 805
-39.0625 -320.312 964
62.5 -125 975
-453.125 -210.938 2812
-328.125 -31.25 938
70.3125 226.562 1010
148.438 226.562 1523
-78.125 273.438 1001
-242.188 375 1632
-468.75 -429.688 2541
437.5 -109.375 891
-328.125 -273.438 1268
54.6875 -132.812 946
-343.75 15.625 896
-429.688 -296.875 2789
23.4375 -132.812 956
164.062 15.625 841
171.875 187.5 1013
-117.188 203.125 930
-171.875 312.5 1007
195.312 250 1483
-132.812 148.438 887
-460.938 -375 2639
-328.125 -187.5 1126
70.3125 54.6875 831
257.812 -109.375 843
289.062 -156.25 841
289.062 -281.25 973
117.188 210.938 1013
390.625 0 878
-125 179.688 913
375 179.688 1227
335.938 218.75 1157
-78.125 296.875 1439
-218.75 156.25 869
390.625 -281.25 860
70.3125 62.5 833
140.625 -273.438 998
85.9375 429.688 1292
-39.0625 78.125 823
-85.9375 304.688 1445
445.312 164.062 1458
-328.125 -250 1223
-328.125 164.062 800
-70.3125 250 987
15.625 -195.312 946
-203.125 195.312 901
312.5 -23.4375 864
210.938 187.5 1028
-7.8125 -289.062 906
78.125 156.25 948
312.5 -445.312 1112
-328.125 -78.125 984
-484.375 -382.812 2618
-320.312 93.75 827
-328.125 -218.75 1173
187.5 31.25 845
359.375 -164.062 894
7.8125 -265.625 896
171.875 -101.562 856
367.188 -304.688 889
-460.938 -406.25 2579
-460.938 -398.438 2598
-406.25 265.625 1813
375 -296.875 880
257.812 -250 839
148.438 -140.625 906
39.0625 -140.625 938
375 78.125 992
-328.125 -210.938 1161
429.688 164.062 1489
-398.438 195.312 1926
-398.438 164.062 1993
328.125 195.312 1134
-343.75 304.688 1739
156.25 -265.625 835
-328.125 -257.812 1241
-390.625 164.062 1993
-23.4375 242.188 992
218.75 -93.75 849
-132.812 359.375 1070
-210.938 101.562 813
-328.125 -195.312 1138
-484.375 -375 2579
-148.438 93.75 819
171.875 -375 1185
-382.812 304.688 1748
109.375 -296.875 1007
-328.125 -62.5 970
-39.0625 250 995
156.25 39.0625 839
-187.5 328.125 1022
210.938 242.188 1496
281.25 -304.688 875
234.375 -140.625 839
328.125 -242.188 920
125 -304.688 992
109.375 31.25 835
101.562 31.25 835
335.938 -62.5 891
7.8125 78.125 827
234.375 -234.375 829
-328.125 39.0625 875
54.6875 -171.875 940
-289.062 429.688 1557
359.375 -140.625 903
93.75 -187.5 896
15.625 -179.688 938
-117.188 85.9375 819
359.375 -156.25 898
281.25 -140.625 837
-54.6875 367.188 1365
179.688 -367.188 1177
421.875 117.188 1489
234.375 -382.812 1028
-117.188 210.938 938
-250 117.188 805
171.875 -125 854
109.375 -171.875 920
-125 109.375 817
-164.062 304.688 1004
-250 125 802
265.625 171.875 1038
23.4375 -164.062 935
140.625 195.312 1010
281.25 -101.562 845
125 109.375 928
-70.3125 109.375 827
-390.625 -148.438 2723
-85.9375 265.625 989
78.125 -210.938 896
-421.875 -203.125 2984
445.312 109.375 1470
-328.125 -242.188 1210
-320.312 70.3125 847
-328.125 -46.875 956
375 -242.188 835
-328.125 -148.438 1070
-320.312 101.562 821
-140.625 125 823
-421.875 -257.812 2859
390.625 -132.812 864
-320.312 78.125 841
250 -351.562 1013
312.5 -265.625 930
203.125 -109.375 847
7.8125 234.375 998
0 265.625 1496
187.5 -78.125 869
-15.625 78.125 825
31.25 234.375 1004
-140.625 132.812 825
39.0625 265.625 1470
359.375 -148.438 903
320.312 140.625 1034
437.5 39.0625 1564
132.812 257.812 1470
250 -39.0625 882
-23.4375 85.9375 825
-328.125 -226.562 1189
250 15.625 851
-78.125 70.3125 825
-70.3125 351.562 1387
-31.25 296.875 1464
-453.125 -351.562 2680
-328.125 -93.75 1004
-93.75 257.812 987
-476.562 -281.25 2723
-23.4375 250 1001
78.125 125 925
117.188 -203.125 875
-445.312 -343.75 2701
23.4375 140.625 920
46.875 281.25 1464
-125 187.5 915
343.75 265.625 1273
23.4375 -156.25 940
-70.3125 101.562 823
-39.0625 421.875 1307
109.375 210.938 1010
265.625 -171.875 837
-7.8125 265.625 1496
343.75 -328.125 925
-328.125 -203.125 1149
7.8125 70.3125 827
-445.312 -195.312 2883
62.5 132.812 925
382.812 -289.062 869
351.562 265.625 1273
-492.188 -359.375 1926
15.625 -250 915
-328.125 -171.875 1105
351.562 -320.312 910
320.312 -23.4375 862
242.188 -132.812 837
257.812 -398.438 1041
-437.5 -320.312 2767
-93.75 281.25 1483
-7.8125 296.875 1452
195.312 -226.562 835
-93.75 273.438 989
-85.9375 281.25 1001
70.3125 -148.438 951
-62.5 351.562 1392
-406.25 -226.562 2958
-429.688 -281.25 2859
-468.75 -421.875 2560
132.812 62.5 843
320.312 -351.562 956
156.25 -195.312 896
-7.8125 234.375 992
398.438 -242.188 821
109.375 -375 1349
54.6875 289.062 1445
54.6875 218.75 1001
125 203.125 1007
-54.6875 257.812 998
-70.3125 281.25 1010
-46.875 406.25 1328
195.312 179.688 1019
39.0625 -140.625 938
-320.312 54.6875 860
320.312 312.5 1273
382.812 -117.188 878
-328.125 -164.062 1094
398.438 -273.438 854
234.375 179.688 1031
312.5 -351.562 959
296.875 -328.125 935
-140.625 117.188 817
234.375 -273.438 835
304.688 0 858
-468.75 -257.812 2767
46.875 -109.375 964
171.875 -109.375 854
-414.062 -234.375 2933
476.562 117.188 1433
-54.6875 359.375 1376
195.312 7.8125 847
257.812 -359.375 995
171.875 -187.5 860
-31.25 304.688 1415
320.312 179.688 1126
-70.3125 304.688 1439
109.375 203.125 1004
429.688 54.6875 1564
39.0625 257.812 1496
54.6875 250 1016
-328.125 -70.3125 981
7.8125 273.438 1439
-320.312 117.188 809
23.4375 351.562 1387
93.75 54.6875 833
-320.312 109.375 815
320.312 320.312 1278
-484.375 -390.625 2598
-171.875 273.438 970
-39.0625 242.188 989
265.625 -101.562 845
-210.938 171.875 882
164.062 -445.312 1161
382.812 -265.625 845
-351.562 -101.562 1019
-406.25 273.438 1794
7.8125 421.875 1302
335.938 234.375 1177
-31.25 85.9375 825
289.062 -218.75 878
-492.188 -367.188 1970
390.625 7.8125 933
148.438 -359.375 1283
70.3125 125 923
187.5 -351.562 938
195.312 -148.438 856
-179.688 320.312 1010
31.25 -148.438 943
-85.9375 78.125 819
-484.375 -304.688 2639
265.625 343.75 1349
-156.25 304.688 1007
-437.5 -351.562 2701
-453.125 -367.188 2659
-476.562 -460.938 2503
312.5 -437.5 1101
-234.375 109.375 809
-195.312 210.938 913
390.625 117.188 1564
78.125 -125 975
203.125 -93.75 845
273.438 -273.438 862
179.688 -421.875 1123
-429.688 -304.688 2767
429.688 -367.188 913
195.312 -218.75 835
125 46.875 835
257.812 -179.688 837
179.688 195.312 1022
476.562 -265.625 831
406.25 -257.812 835
-398.438 171.875 1970
359.375 -156.25 898
-132.812 148.438 887
312.5 -257.812 938
-62.5 93.75 821
-328.125 -39.0625 943
210.938 -62.5 856
-46.875 390.625 1343
-117.188 195.312 923
-132.812 156.25 891
203.125 -453.125 1157
218.75 -273.438 833
218.75 -85.9375 849
-328.125 54.6875 860
-445.312 -125 2241
-390.625 304.688 1748
257.812 -140.625 833
156.25 250 1489
-140.625 140.625 825
-414.062 -250 2933
281.25 -382.812 1013
335.938 210.938 1141
304.688 -320.312 928
101.562 265.625 1470
39.0625 -234.375 906
257.812 -109.375 843
-328.125 -179.688 1115
328.125 -234.375 925
-109.375 437.5 1181
-23.4375 -304.688 918
-460.938 -195.312 2908
62.5 -234.375 887
15.625 -234.375 928
148.438 -156.25 898
375 273.438 1398
250 -125 839
-46.875 70.3125 825
281.25 -195.312 854
-429.688 -226.562 2908
-39.0625 -320.312 964
7.8125 -265.625 896
46.875 -226.562 906
226.562 -101.562 847
-328.125 15.625 894
367.188 187.5 1232
