ply
format ascii 1.0
comment Created by Open3D
element vertex 2356
property double x
property double y
property double z
end_header
-312.5 312.5 1250
93.75 304.688 1392
210.938 -242.188 954
-54.6875 78.125 1013
226.562 -23.4375 967
476.562 187.5 1087
62.5 -15.625 967
-179.688 -156.25 915
453.125 289.062 1322
429.688 226.562 1288
195.312 -23.4375 964
367.188 -187.5 925
382.812 335.938 1297
-421.875 -46.875 946
125 164.062 1739
-257.812 335.938 1206
-343.75 -78.125 962
-46.875 0 948
-265.625 15.625 946
-179.688 -335.938 1001
-390.625 328.125 1236
-218.75 46.875 943
-437.5 -195.312 951
-140.625 -164.062 918
-421.875 343.75 1202
398.438 195.312 1084
-445.312 -195.312 948
171.875 -335.938 1022
-437.5 -140.625 946
-382.812 -195.312 975
437.5 -179.688 1273
-171.875 0 967
484.375 -179.688 1278
453.125 257.812 1273
140.625 23.4375 946
-414.062 -39.0625 948
-218.75 -414.062 1197
-320.312 -23.4375 1022
257.812 -31.25 975
476.562 -7.8125 954
-289.062 257.812 1073
-484.375 304.688 1264
468.75 -7.8125 954
429.688 312.5 1245
-281.25 351.562 1206
250 -31.25 981
406.25 234.375 1283
7.8125 -257.812 1054
-406.25 7.8125 975
429.688 -179.688 1278
31.25 -257.812 1047
-304.688 296.875 1268
-375 289.062 1283
-421.875 15.625 959
398.438 -335.938 1259
382.812 -70.3125 975
-398.438 265.625 1333
125 335.938 1359
-117.188 -281.25 1034
-296.875 351.562 1206
-453.125 -148.438 995
-265.625 7.8125 959
429.688 -242.188 1297
-85.9375 320.312 1557
-281.25 296.875 1268
-375 -62.5 946
-328.125 93.75 995
109.375 328.125 1365
-367.188 -39.0625 954
-109.375 -414.062 981
-117.188 -218.75 992
-500 257.812 1063
-250 328.125 1227
-273.438 335.938 1210
-304.688 312.5 1245
-39.0625 -171.875 918
-367.188 54.6875 938
-343.75 0 984
273.438 0 948
-296.875 304.688 1268
492.188 406.25 1297
484.375 -187.5 1297
-429.688 15.625 962
-343.75 -54.6875 954
-109.375 -382.812 992
109.375 -187.5 918
-367.188 257.812 1070
-437.5 -187.5 951
-117.188 62.5 992
-500 296.875 1123
-398.438 -23.4375 954
-179.688 -406.25 975
-234.375 328.125 1232
-46.875 -7.8125 964
-359.375 351.562 1206
484.375 281.25 1338
-125 -406.25 981
-273.438 421.875 1381
335.938 359.375 1206
445.312 265.625 1264
-460.938 46.875 933
492.188 -187.5 1288
93.75 382.812 1359
70.3125 -15.625 964
429.688 335.938 1268
-70.3125 -171.875 915
-414.062 304.688 1264
343.75 382.812 1223
-406.25 -164.062 951
-359.375 289.062 1297
-296.875 257.812 1067
242.188 -23.4375 962
117.188 -31.25 978
304.688 -210.938 918
-359.375 54.6875 940
-78.125 -226.562 989
257.812 -203.125 918
-31.25 -15.625 975
-257.812 296.875 1273
453.125 -250 1283
367.188 382.812 1381
-437.5 -15.625 954
-101.562 54.6875 946
320.312 -265.625 1016
421.875 335.938 1264
-468.75 257.812 1067
-273.438 257.812 1070
-23.4375 -7.8125 962
-54.6875 -414.062 987
-484.375 -164.062 940
-343.75 289.062 1283
406.25 -250 1297
171.875 -359.375 1421
-289.062 93.75 995
-132.812 -359.375 998
-101.562 445.312 1268
453.125 320.312 1297
437.5 320.312 1297
93.75 -15.625 962
132.812 23.4375 943
179.688 -23.4375 970
-375 328.125 1232
125 148.438 1739
429.688 195.312 1087
46.875 -390.625 1077
-320.312 -7.8125 987
-85.9375 39.0625 943
-460.938 320.312 1236
-468.75 179.688 992
-445.312 320.312 1236
39.0625 -179.688 918
-468.75 -39.0625 973
414.062 -179.688 951
101.562 203.125 1776
429.688 312.5 1245
-250 281.25 1297
-500 -296.875 2432
-140.625 296.875 1609
-226.562 351.562 1210
156.25 -195.312 915
-492.188 -171.875 948
382.812 -289.062 1292
382.812 257.812 1273
-343.75 312.5 1232
-429.688 -132.812 943
359.375 328.125 1193
-210.938 -156.25 918
-101.562 -335.938 1013
-109.375 -421.875 981
-468.75 -7.8125 1004
132.812 320.312 1349
85.9375 375 1359
-476.562 328.125 1232
296.875 -39.0625 989
390.625 312.5 1264
-226.562 195.312 1050
-7.8125 234.375 1705
-343.75 296.875 1278
312.5 0 951
-351.562 296.875 1273
-226.562 414.062 1392
-460.938 335.938 1197
-140.625 390.625 1250
-171.875 -453.125 1165
-218.75 -375 1206
-109.375 -7.8125 975
-250 335.938 1206
-62.5 0 951
78.125 218.75 1785
-320.312 296.875 1273
406.25 -312.5 1264
468.75 390.625 1343
-31.25 0 948
46.875 -179.688 918
-453.125 351.562 1197
359.375 -39.0625 975
31.25 -179.688 918
171.875 335.938 1354
484.375 335.938 1264
492.188 328.125 1264
351.562 -39.0625 975
-414.062 281.25 1302
343.75 320.312 1181
-382.812 -85.9375 943
-156.25 320.312 1223
-78.125 -171.875 915
-31.25 -171.875 918
-445.312 -109.375 967
289.062 -31.25 973
-164.062 7.8125 956
-117.188 -328.125 1013
-250 7.8125 962
484.375 31.25 1013
-179.688 7.8125 956
-289.062 281.25 1302
-289.062 312.5 1236
-320.312 289.062 1283
-445.312 351.562 1202
-390.625 -226.562 1169
-210.938 -414.062 1189
414.062 320.312 1245
-85.9375 -406.25 987
398.438 335.938 1264
414.062 351.562 1264
445.312 312.5 1297
-343.75 -109.375 962
-93.75 -7.8125 975
-414.062 328.125 1227
-390.625 320.312 1236
367.188 -210.938 918
-429.688 7.8125 973
-101.562 -164.062 920
-171.875 -210.938 975
-187.5 -398.438 978
-343.75 23.4375 943
-257.812 289.062 1283
-125 -437.5 1153
-203.125 46.875 943
7.8125 -179.688 918
296.875 -179.688 930
359.375 15.625 954
273.438 -203.125 918
-93.75 -164.062 918
453.125 -15.625 954
218.75 242.188 1671
-429.688 -171.875 973
-289.062 -148.438 913
-250 70.3125 992
-125 -390.625 987
476.562 -421.875 1193
-296.875 312.5 1241
0 23.4375 943
-23.4375 -179.688 918
187.5 -39.0625 987
-328.125 296.875 1273
351.562 -195.312 923
390.625 203.125 1094
54.6875 -179.688 918
132.812 -31.25 981
93.75 242.188 1543
-296.875 70.3125 987
351.562 -242.188 938
-273.438 15.625 946
-70.3125 -226.562 984
-398.438 -156.25 948
-328.125 54.6875 940
15.625 54.6875 995
-414.062 -148.438 946
250 -46.875 1001
-304.688 273.438 1302
-132.812 351.562 1214
187.5 -242.188 959
-406.25 -46.875 943
-164.062 0 964
414.062 0 956
265.625 -31.25 975
-187.5 7.8125 956
-343.75 304.688 1232
250 -179.688 925
-281.25 312.5 1236
-101.562 -351.562 1004
62.5 -7.8125 951
375 -46.875 987
-312.5 296.875 1273
109.375 195.312 1785
-429.688 -39.0625 956
195.312 -195.312 920
-398.438 289.062 1288
148.438 382.812 1354
179.688 -265.625 962
101.562 289.062 1445
-265.625 312.5 1236
-414.062 289.062 1297
-85.9375 359.375 1483
-85.9375 -312.5 1025
-296.875 273.438 1302
-406.25 -179.688 964
-39.0625 -15.625 975
-312.5 351.562 1206
-78.125 -414.062 987
148.438 70.3125 1016
-23.4375 -289.062 1038
-171.875 -406.25 975
-375 -171.875 962
-476.562 257.812 1067
445.312 296.875 1297
-164.062 -312.5 1010
-375 -46.875 951
375 -39.0625 975
171.875 -23.4375 970
164.062 382.812 1359
-148.438 351.562 1223
257.812 31.25 1004
148.438 23.4375 946
273.438 -31.25 975
-367.188 -156.25 956
-148.438 -7.8125 975
-54.6875 0 948
437.5 195.312 1090
-421.875 -156.25 946
-125 -421.875 981
-414.062 78.125 984
-62.5 39.0625 943
-484.375 -117.188 1019
257.812 -46.875 998
-296.875 -85.9375 933
-375 -15.625 1010
148.438 335.938 1349
-390.625 -78.125 943
-148.438 93.75 1022
125 -187.5 918
367.188 359.375 1259
-179.688 0 967
-460.938 15.625 964
-500 343.75 1119
-250 289.062 1288
-382.812 93.75 992
484.375 187.5 1087
-484.375 -101.562 1070
-257.812 257.812 1073
-335.938 -85.9375 964
328.125 382.812 1223
-492.188 -250 2415
492.188 289.062 1322
320.312 -39.0625 984
-164.062 -85.9375 948
-406.25 257.812 1070
-257.812 312.5 1227
-46.875 218.75 1785
-445.312 257.812 1067
-382.812 -164.062 956
-406.25 -101.562 943
-226.562 -148.438 918
-335.938 296.875 1278
320.312 421.875 1255
476.562 312.5 1297
171.875 70.3125 1688
367.188 -39.0625 975
171.875 359.375 1359
414.062 -289.062 1278
-492.188 257.812 1067
-15.625 -367.188 1094
382.812 351.562 1259
148.438 -218.75 918
-85.9375 -7.8125 973
-78.125 -421.875 984
-382.812 -218.75 1157
-257.812 234.375 1067
195.312 -39.0625 987
-429.688 296.875 1264
-140.625 -421.875 978
-132.812 31.25 943
179.688 -304.688 1022
-484.375 -23.4375 1041
-351.562 351.562 1206
-23.4375 -367.188 1101
-265.625 296.875 1273
-125 -218.75 992
367.188 351.562 1259
70.3125 218.75 1785
-429.688 -156.25 951
117.188 -187.5 918
-421.875 328.125 1223
-500 -109.375 1070
-453.125 335.938 1193
328.125 -54.6875 1004
289.062 -203.125 918
-437.5 335.938 1206
101.562 195.312 1776
-156.25 7.8125 956
-242.188 335.938 1210
125 -31.25 978
-234.375 -148.438 915
210.938 -23.4375 967
453.125 312.5 1297
-406.25 296.875 1268
-484.375 179.688 998
-367.188 351.562 1202
492.188 273.438 1322
-273.438 312.5 1241
-492.188 273.438 1123
-156.25 -406.25 978
-414.062 359.375 1202
-234.375 312.5 1138
343.75 359.375 1206
359.375 -210.938 918
-500 -218.75 1105
382.812 -218.75 918
281.25 -203.125 920
-70.3125 39.0625 943
-359.375 -101.562 954
-335.938 351.562 1202
414.062 234.375 1278
-500 -304.688 2432
-328.125 -125 975
-242.188 7.8125 962
-437.5 328.125 1223
-390.625 312.5 1236
335.938 7.8125 951
-250 312.5 1232
-351.562 -23.4375 1028
46.875 -23.4375 978
203.125 -250 954
-390.625 -39.0625 946
-398.438 312.5 1241
-390.625 -179.688 970
-171.875 -156.25 915
-406.25 -39.0625 946
179.688 -335.938 1022
-359.375 312.5 1241
-125 429.688 1255
234.375 15.625 948
179.688 335.938 1359
-437.5 -148.438 946
-382.812 7.8125 973
-117.188 -421.875 984
-398.438 -164.062 951
-250 257.812 1077
-406.25 15.625 959
-54.6875 218.75 1776
-398.438 359.375 1189
343.75 429.688 1312
-351.562 -15.625 1007
-421.875 296.875 1268
203.125 -195.312 920
-234.375 15.625 948
-171.875 7.8125 954
460.938 257.812 1264
-70.3125 -320.312 1022
406.25 0 954
-46.875 -234.375 992
-421.875 -125 946
-351.562 7.8125 967
-359.375 351.562 1206
460.938 320.312 1292
-375 7.8125 973
-445.312 179.688 995
-7.8125 0 948
304.688 -54.6875 1007
335.938 -203.125 920
203.125 -31.25 981
109.375 -31.25 981
-437.5 359.375 1197
398.438 343.75 1264
-54.6875 382.812 1433
-242.188 15.625 948
-320.312 54.6875 943
-343.75 351.562 1202
-468.75 304.688 1268
-132.812 -164.062 918
-390.625 -101.562 946
132.812 -15.625 959
148.438 -195.312 915
-429.688 328.125 1223
-320.312 351.562 1206
-453.125 304.688 1259
109.375 -15.625 959
-328.125 -31.25 975
7.8125 0 946
140.625 281.25 1470
-406.25 328.125 1227
-39.0625 218.75 1804
-500 -93.75 1070
156.25 367.188 1349
-78.125 39.0625 943
-351.562 54.6875 940
-429.688 23.4375 948
-125 93.75 1688
-351.562 312.5 1236
-273.438 296.875 1268
460.938 -367.188 1227
476.562 -70.3125 1025
-234.375 23.4375 943
-421.875 257.812 1070
101.562 -15.625 964
-242.188 -148.438 913
-445.312 -203.125 1165
-242.188 312.5 1241
-257.812 273.438 1302
-375 15.625 956
187.5 -23.4375 967
-148.438 -382.812 987
-257.812 70.3125 989
-320.312 312.5 1236
421.875 242.188 1268
-359.375 -171.875 967
-187.5 -453.125 1177
-382.812 296.875 1268
-390.625 359.375 1189
-85.9375 421.875 1283
-429.688 -140.625 943
78.125 -375 1080
39.0625 359.375 1445
70.3125 226.562 2078
140.625 -15.625 956
250 -23.4375 959
445.312 39.0625 1013
359.375 -187.5 925
-78.125 -7.8125 970
-7.8125 -15.625 975
7.8125 -7.8125 959
-234.375 335.938 1219
-351.562 289.062 1278
445.312 -179.688 1268
335.938 -187.5 925
132.812 -187.5 918
78.125 -187.5 918
-414.062 -125 946
375 -210.938 918
421.875 312.5 1245
179.688 359.375 1359
453.125 -70.3125 1022
-437.5 23.4375 946
125 164.062 1739
312.5 -281.25 1057
-218.75 -273.438 1165
187.5 -335.938 1019
-328.125 -62.5 964
-460.938 179.688 992
375 437.5 1297
-85.9375 -273.438 1038
-156.25 367.188 1232
62.5 -265.625 1067
-195.312 46.875 943
-492.188 -31.25 1060
390.625 234.375 1283
-117.188 -367.188 998
375 328.125 1297
445.312 242.188 1273
453.125 -179.688 1278
-289.062 273.438 1302
-242.188 351.562 1189
-257.812 15.625 954
132.812 -257.812 1019
-367.188 312.5 1241
31.25 -7.8125 954
-148.438 -367.188 989
-85.9375 -164.062 918
-382.812 -148.438 951
164.062 -23.4375 967
-164.062 -210.938 981
-382.812 312.5 1236
242.188 15.625 951
421.875 328.125 1278
-93.75 -250 1047
-359.375 257.812 1044
375 320.312 1297
414.062 39.0625 1010
335.938 -257.812 989
-437.5 -164.062 954
-85.9375 218.75 1757
-117.188 -218.75 992
-171.875 -210.938 975
320.312 -54.6875 1004
328.125 -210.938 918
-335.938 54.6875 940
-109.375 -273.438 1034
265.625 -46.875 998
164.062 -218.75 915
-210.938 15.625 948
-484.375 312.5 1223
-320.312 -39.0625 975
242.188 -46.875 1001
-382.812 101.562 995
54.6875 226.562 1705
-117.188 -328.125 1013
-398.438 273.438 1307
62.5 -23.4375 978
93.75 210.938 1776
179.688 -296.875 995
-421.875 273.438 1312
-382.812 -109.375 948
-54.6875 -320.312 1025
125 421.875 1359
343.75 -132.812 948
453.125 31.25 1010
-62.5 -226.562 978
226.562 -234.375 951
93.75 203.125 1776
-429.688 15.625 962
421.875 226.562 1288
-70.3125 -343.75 1013
250 -187.5 923
-390.625 -109.375 948
-171.875 406.25 1206
-117.188 437.5 1264
195.312 328.125 1365
-437.5 31.25 938
54.6875 375 1415
-429.688 304.688 1259
-390.625 15.625 962
-351.562 15.625 956
-492.188 78.125 928
-390.625 -156.25 951
140.625 -31.25 981
-335.938 -125 973
54.6875 31.25 946
132.812 -31.25 981
-62.5 -242.188 1025
-398.438 -132.812 1007
-429.688 265.625 1333
-132.812 -351.562 998
-54.6875 390.625 1427
296.875 -203.125 918
367.188 -195.312 920
476.562 31.25 1010
-265.625 289.062 1278
-46.875 -398.438 995
-390.625 296.875 1268
-148.438 -343.75 1001
-414.062 -156.25 946
242.188 375 1421
-78.125 0 956
125 -15.625 956
-445.312 265.625 1333
-304.688 -15.625 1004
382.812 -265.625 975
367.188 -187.5 925
437.5 343.75 1264
218.75 -23.4375 967
-421.875 -101.562 943
-156.25 -156.25 920
117.188 187.5 1776
406.25 39.0625 1010
109.375 187.5 1776
-132.812 -406.25 978
-484.375 -31.25 1054
-109.375 -359.375 1001
234.375 -203.125 918
-445.312 23.4375 948
-414.062 328.125 1227
7.8125 367.188 1458
-125 7.8125 948
250 367.188 1427
-281.25 93.75 995
39.0625 -257.812 1047
-39.0625 -359.375 1010
-343.75 -117.188 964
-351.562 328.125 1227
445.312 421.875 1302
242.188 343.75 1433
23.4375 -7.8125 954
-312.5 429.688 1365
-250 273.438 1307
406.25 343.75 1264
140.625 -273.438 1025
375 164.062 1073
-382.812 328.125 1232
492.188 31.25 1010
250 15.625 951
-257.812 296.875 1273
0 367.188 1464
-390.625 -140.625 951
476.562 -375 1223
492.188 -359.375 1223
195.312 -257.812 951
-257.812 46.875 940
-210.938 46.875 943
-375 257.812 1070
-367.188 -46.875 951
54.6875 -23.4375 978
140.625 382.812 1354
-289.062 -7.8125 987
179.688 -23.4375 970
359.375 218.75 1126
-367.188 296.875 1273
179.688 320.312 1392
-93.75 62.5 992
257.812 62.5 1013
-375 312.5 1268
117.188 -23.4375 973
-359.375 328.125 1236
468.75 296.875 1322
-375 296.875 1273
210.938 -234.375 956
101.562 203.125 1776
-414.062 375 1452
39.0625 -7.8125 956
-156.25 -375 987
-421.875 328.125 1223
195.312 375 1398
85.9375 15.625 943
164.062 367.188 1354
-70.3125 -414.062 987
-382.812 -171.875 962
195.312 -296.875 1001
-23.4375 -367.188 1101
203.125 -296.875 1013
-7.8125 -375 1087
-31.25 328.125 1536
-250 15.625 951
-140.625 93.75 1022
-281.25 -148.438 913
-109.375 -382.812 992
-140.625 421.875 1250
-132.812 -367.188 995
46.875 -7.8125 954
-460.938 -218.75 1157
-382.812 351.562 1193
273.438 -31.25 975
-414.062 101.562 995
-390.625 -23.4375 954
156.25 -367.188 3064
-203.125 -156.25 915
-359.375 351.562 1206
242.188 -31.25 981
-476.562 -140.625 1010
-421.875 -132.812 946
468.75 304.688 1302
-351.562 351.562 1206
-23.4375 -171.875 920
70.3125 226.562 2078
-382.812 304.688 1264
-421.875 -171.875 964
468.75 250 1278
484.375 -367.188 1223
468.75 -179.688 1268
-242.188 359.375 1189
-15.625 -15.625 975
-445.312 -148.438 962
203.125 -39.0625 992
164.062 -281.25 954
-421.875 -93.75 943
-78.125 -359.375 1004
179.688 -148.438 938
-250 296.875 1278
-93.75 0 954
-460.938 257.812 1070
-148.438 359.375 1227
-406.25 -39.0625 946
-484.375 -164.062 940
-140.625 -164.062 918
-390.625 257.812 1070
-398.438 -54.6875 943
-406.25 -101.562 943
-46.875 203.125 1776
78.125 -281.25 1123
-375 351.562 1197
-375 -187.5 984
390.625 23.4375 1004
-500 101.562 984
359.375 429.688 1317
-132.812 7.8125 951
-367.188 -210.938 975
125 -187.5 918
-500 265.625 1063
-468.75 -164.062 948
367.188 328.125 1302
-54.6875 39.0625 943
-46.875 -281.25 1038
-93.75 -359.375 1001
-78.125 -257.812 1047
-125 -406.25 981
-460.938 -164.062 948
-93.75 -351.562 1004
312.5 -39.0625 984
46.875 31.25 946
-484.375 101.562 992
445.312 335.938 1264
-109.375 351.562 1236
445.312 281.25 1278
-335.938 312.5 1232
414.062 281.25 1259
-421.875 31.25 940
-164.062 0 964
203.125 304.688 1398
265.625 62.5 1025
78.125 375 1359
70.3125 218.75 1785
-85.9375 -414.062 984
-179.688 -398.438 978
-140.625 -398.438 978
-109.375 -242.188 1047
382.812 335.938 1297
-101.562 414.062 1268
-156.25 0 964
-343.75 54.6875 940
-445.312 335.938 1197
-109.375 -39.0625 970
195.312 -39.0625 987
62.5 -179.688 920
179.688 -234.375 962
-210.938 -320.312 1227
117.188 -15.625 956
171.875 -15.625 954
226.562 -203.125 918
-296.875 46.875 940
-445.312 -117.188 967
70.3125 -15.625 964
-148.438 -359.375 992
-179.688 46.875 943
62.5 31.25 946
-429.688 164.062 995
-46.875 -421.875 984
-289.062 15.625 951
125 335.938 1359
-93.75 85.9375 1016
-265.625 -148.438 910
351.562 -93.75 964
218.75 -31.25 975
-117.188 -406.25 984
-414.062 -148.438 946
-359.375 304.688 1273
-257.812 398.438 1415
-273.438 359.375 1206
179.688 335.938 1359
0 -179.688 918
-226.562 328.125 1141
-242.188 289.062 1130
-265.625 15.625 946
-460.938 -132.812 1010
-54.6875 304.688 1579
-414.062 257.812 1070
429.688 304.688 1245
-500 -257.812 2415
-476.562 304.688 1268
-195.312 -296.875 1013
-312.5 312.5 1250
359.375 335.938 1297
-492.188 195.312 1041
398.438 -250 923
-273.438 328.125 1223
164.062 328.125 1349
382.812 343.75 1264
156.25 -250 962
-140.625 7.8125 954
-109.375 320.312 1557
-117.188 320.312 1564
-85.9375 -7.8125 973
-70.3125 -7.8125 970
-367.188 351.562 1202
335.938 343.75 1197
460.938 398.438 1333
-93.75 -7.8125 975
-46.875 0 948
148.438 210.938 1748
-117.188 351.562 1236
-148.438 39.0625 946
-414.062 -7.8125 973
-476.562 101.562 992
7.8125 -382.812 1077
-453.125 257.812 1067
-429.688 351.562 1193
-382.812 296.875 1268
78.125 210.938 1785
-468.75 257.812 1067
-265.625 46.875 940
-421.875 304.688 1259
-367.188 -148.438 1019
-367.188 234.375 1063
-500 351.562 1119
46.875 -179.688 918
-70.3125 -179.688 913
-289.062 296.875 1268
179.688 375 1354
476.562 273.438 1359
-328.125 328.125 1227
468.75 15.625 1001
-484.375 -39.0625 1070
171.875 -218.75 915
-70.3125 -304.688 1028
195.312 257.812 1464
-414.062 296.875 1273
132.812 289.062 1464
257.812 -312.5 1185
492.188 375 1343
421.875 -179.688 1283
-343.75 234.375 1060
-476.562 54.6875 935
226.562 15.625 951
320.312 -210.938 918
-78.125 -7.8125 970
23.4375 -257.812 1050
343.75 375 1223
359.375 -39.0625 975
-195.312 -156.25 915
-156.25 -453.125 1161
-78.125 -289.062 1034
-132.812 93.75 1688
78.125 -15.625 962
375 359.375 1259
-289.062 304.688 1264
-250 304.688 1232
-226.562 -148.438 918
117.188 187.5 1776
-468.75 54.6875 935
-101.562 -343.75 1010
-156.25 -281.25 1022
-421.875 -156.25 946
-351.562 -39.0625 964
-453.125 -164.062 946
-39.0625 39.0625 946
210.938 -39.0625 992
-7.8125 -7.8125 959
-445.312 328.125 1232
-437.5 343.75 1206
-125 46.875 943
148.438 -179.688 925
335.938 -54.6875 1004
335.938 54.6875 1025
-15.625 -171.875 920
-164.062 7.8125 956
-421.875 -148.438 946
-109.375 -367.188 998
468.75 328.125 1268
7.8125 359.375 1483
125 -31.25 978
171.875 375 1354
-343.75 93.75 995
-273.438 -148.438 910
390.625 203.125 1094
148.438 203.125 1748
-445.312 -31.25 951
-500 -289.062 2432
-234.375 359.375 1206
-70.3125 218.75 1757
-500 -273.438 2415
-164.062 328.125 1227
-156.25 7.8125 956
-390.625 -31.25 954
343.75 351.562 1206
-93.75 -234.375 1019
351.562 359.375 1206
382.812 132.812 1060
-7.8125 -15.625 975
-375 359.375 1193
-429.688 -164.062 951
-304.688 351.562 1206
-484.375 304.688 1264
367.188 -39.0625 975
328.125 7.8125 951
109.375 242.188 1550
265.625 -46.875 998
156.25 -250 962
179.688 179.688 1776
-187.5 -414.062 973
46.875 195.312 1776
210.938 398.438 1387
-500 -296.875 2432
70.3125 -23.4375 973
-15.625 359.375 1483
-429.688 -156.25 951
460.938 -179.688 1273
-492.188 101.562 992
460.938 -203.125 1322
390.625 78.125 1031
304.688 -203.125 918
-23.4375 -367.188 1101
-242.188 203.125 1050
-367.188 -109.375 951
-289.062 -140.625 913
437.5 335.938 1264
-125 -164.062 918
-359.375 -39.0625 962
-218.75 -148.438 920
-328.125 93.75 995
93.75 -187.5 915
15.625 -367.188 1080
-429.688 335.938 1206
437.5 195.312 1090
-312.5 -39.0625 989
-367.188 -171.875 964
132.812 70.3125 1016
-437.5 296.875 1264
171.875 -257.812 956
0 -15.625 975
-15.625 7.8125 943
-7.8125 -171.875 918
-453.125 101.562 992
406.25 234.375 1283
-367.188 70.3125 940
312.5 -210.938 918
445.312 320.312 1297
-312.5 -70.3125 981
468.75 289.062 1333
-414.062 -164.062 951
62.5 70.3125 1016
-289.062 234.375 1063
-406.25 289.062 1292
-375 234.375 1063
-359.375 -218.75 987
-476.562 -218.75 1149
257.812 -46.875 998
203.125 -234.375 954
-31.25 -406.25 1149
132.812 335.938 1349
-445.312 296.875 1268
-296.875 -23.4375 1022
-398.438 -140.625 951
-429.688 54.6875 938
93.75 203.125 1776
-93.75 -164.062 918
-492.188 -218.75 1141
-46.875 39.0625 943
-54.6875 -226.562 978
-23.4375 85.9375 1696
-476.562 265.625 1067
-492.188 312.5 1115
-109.375 -218.75 987
382.812 320.312 1297
-429.688 328.125 1223
-125 265.625 1663
-460.938 351.562 1197
359.375 210.938 1126
-132.812 421.875 1245
-132.812 429.688 1255
-304.688 70.3125 946
421.875 0 954
-406.25 -156.25 946
-328.125 54.6875 940
-304.688 54.6875 940
406.25 -187.5 933
-187.5 46.875 943
-414.062 -132.812 946
406.25 -7.8125 954
-390.625 351.562 1189
-445.312 304.688 1259
0 -7.8125 959
187.5 -195.312 920
-140.625 -367.188 992
-492.188 -109.375 1073
-320.312 234.375 1063
-7.8125 54.6875 992
-351.562 -101.562 956
335.938 367.188 1214
-398.438 -179.688 967
-453.125 -210.938 1165
23.4375 -179.688 918
375 -218.75 918
-226.562 -132.812 925
-210.938 -148.438 918
-367.188 -15.625 1007
85.9375 -187.5 918
382.812 -101.562 964
468.75 265.625 1264
-242.188 7.8125 962
-476.562 265.625 1067
-406.25 359.375 1202
234.375 -31.25 981
-218.75 359.375 1185
296.875 -31.25 973
-359.375 7.8125 967
-62.5 -320.312 1022
-226.562 7.8125 959
-109.375 -406.25 984
-390.625 -140.625 951
195.312 328.125 1365
-117.188 93.75 1688
-367.188 -187.5 981
-367.188 -46.875 951
-171.875 -398.438 978
367.188 351.562 1259
-203.125 15.625 946
406.25 179.688 1084
-226.562 15.625 951
-414.062 15.625 962
-242.188 15.625 948
-421.875 -132.812 946
429.688 281.25 1264
390.625 328.125 1297
-31.25 -320.312 1025
-117.188 328.125 1219
-125 -273.438 1034
117.188 171.875 1748
171.875 281.25 1470
-390.625 289.062 1283
78.125 -7.8125 948
390.625 54.6875 1016
-218.75 15.625 951
-406.25 -7.8125 995
-492.188 62.5 940
-398.438 296.875 1268
382.812 -109.375 962
-398.438 -46.875 943
132.812 -31.25 981
-343.75 -23.4375 1025
140.625 -31.25 981
78.125 179.688 1766
-382.812 351.562 1193
171.875 273.438 1470
-148.438 0 964
132.812 -187.5 918
-367.188 0 981
-406.25 101.562 995
140.625 289.062 1464
-343.75 351.562 1202
-312.5 234.375 1063
-343.75 -54.6875 954
-289.062 289.062 1278
-429.688 101.562 995
-156.25 -210.938 970
-234.375 7.8125 959
-492.188 -164.062 940
-187.5 -156.25 915
328.125 -54.6875 1004
62.5 210.938 1785
-62.5 -406.25 989
-281.25 234.375 1067
-304.688 296.875 1268
-468.75 -39.0625 973
257.812 -85.9375 962
-390.625 7.8125 975
-78.125 -164.062 918
-31.25 0 948
-62.5 62.5 992
-453.125 179.688 995
-437.5 101.562 992
-453.125 359.375 1197
-445.312 289.062 1288
328.125 -31.25 967
-109.375 398.438 1250
-101.562 -242.188 1047
375 -39.0625 975
70.3125 226.562 2078
-398.438 -164.062 951
437.5 226.562 1283
281.25 -31.25 978
328.125 390.625 1223
-273.438 93.75 995
-226.562 359.375 1185
390.625 335.938 1297
-31.25 -367.188 1010
-156.25 -156.25 920
218.75 -195.312 920
78.125 -23.4375 973
-289.062 46.875 940
-54.6875 0 948
-296.875 328.125 1241
335.938 -210.938 918
-421.875 312.5 1236
414.062 351.562 1264
125 171.875 1748
-265.625 296.875 1273
132.812 382.812 1343
296.875 -203.125 918
-54.6875 -171.875 915
-85.9375 -164.062 918
-31.25 218.75 1785
-445.312 101.562 992
62.5 226.562 1705
273.438 312.5 1415
-328.125 -31.25 975
-148.438 429.688 1259
-273.438 335.938 1210
-398.438 -187.5 964
101.562 -187.5 915
-382.812 -179.688 967
-273.438 -140.625 913
-375 351.562 1197
-101.562 -7.8125 975
335.938 351.562 1202
-234.375 -273.438 1210
265.625 -23.4375 962
-406.25 296.875 1268
398.438 320.312 1250
351.562 -242.188 938
-218.75 -398.438 1202
437.5 312.5 1245
-62.5 0 951
-445.312 -23.4375 951
-398.438 -39.0625 946
335.938 -54.6875 1004
-15.625 0 948
-62.5 390.625 1338
421.875 429.688 1297
-54.6875 382.812 1433
-367.188 -140.625 1022
-476.562 -179.688 951
148.438 -15.625 956
359.375 -234.375 920
390.625 343.75 1264
-312.5 -101.562 981
-312.5 0 978
15.625 -7.8125 956
-140.625 -390.625 984
195.312 -23.4375 964
-70.3125 -304.688 1028
-164.062 -210.938 981
-320.312 390.625 1433
93.75 210.938 1776
-296.875 320.312 1241
23.4375 -23.4375 978
-476.562 257.812 1067
-273.438 320.312 1236
-101.562 -218.75 981
93.75 -15.625 962
-31.25 39.0625 948
-125 39.0625 946
-187.5 15.625 946
-250 -78.125 940
-437.5 -226.562 1169
-382.812 -156.25 951
-148.438 -210.938 967
-460.938 -156.25 995
-164.062 -453.125 1165
-367.188 -117.188 956
-117.188 7.8125 946
242.188 -203.125 918
15.625 -257.812 1050
-398.438 351.562 1189
-398.438 101.562 998
-414.062 -62.5 943
-335.938 234.375 1060
70.3125 31.25 946
375 -62.5 1010
-109.375 445.312 1273
476.562 265.625 1359
164.062 -195.312 915
-453.125 328.125 1232
-242.188 296.875 1130
-429.688 359.375 1193
-296.875 359.375 1206
429.688 328.125 1297
-367.188 -156.25 956
-484.375 -210.938 1145
203.125 359.375 1381
492.188 312.5 1297
156.25 23.4375 946
-93.75 -375 998
273.438 -46.875 995
125 242.188 1483
54.6875 250 1516
-406.25 -109.375 943
7.8125 -15.625 973
-429.688 -125 948
179.688 382.812 1387
78.125 -125 938
-39.0625 -250 1044
289.062 -31.25 973
-54.6875 7.8125 943
234.375 -250 989
-117.188 -406.25 984
0 359.375 1483
203.125 -335.938 1019
-390.625 -164.062 954
-101.562 7.8125 946
-15.625 -367.188 1094
101.562 382.812 1354
-148.438 -156.25 923
-289.062 359.375 1206
-62.5 -226.562 978
-78.125 -351.562 1010
-164.062 -250 1038
-296.875 289.062 1278
-437.5 171.875 995
-23.4375 0 948
62.5 234.375 1705
0 351.562 1496
-429.688 -7.8125 964
-312.5 7.8125 964
-320.312 328.125 1236
-390.625 -132.812 1013
210.938 335.938 1392
-70.3125 -7.8125 970
437.5 39.0625 1010
-140.625 -312.5 1013
-468.75 101.562 992
-195.312 15.625 946
85.9375 -15.625 959
-195.312 359.375 1173
-54.6875 62.5 998
273.438 -117.188 951
-500 -281.25 2432
164.062 -70.3125 964
320.312 -31.25 967
-460.938 54.6875 935
203.125 -39.0625 992
-117.188 -382.812 989
460.938 335.938 1264
62.5 -7.8125 951
-445.312 164.062 1001
-281.25 320.312 1236
-445.312 -39.0625 951
-429.688 296.875 1264
-460.938 -125 1016
210.938 -195.312 920
-62.5 -7.8125 967
-234.375 351.562 1206
-117.188 -7.8125 973
179.688 -15.625 956
-140.625 375 1312
-39.0625 218.75 1804
-85.9375 -218.75 978
-312.5 54.6875 943
109.375 421.875 1365
-351.562 320.312 1236
437.5 320.312 1297
-132.812 367.188 1214
-421.875 -7.8125 973
-375 -195.312 975
-78.125 398.438 1328
-296.875 54.6875 940
-101.562 390.625 1255
421.875 218.75 1297
234.375 -195.312 920
-257.812 351.562 1202
109.375 187.5 1776
-31.25 -257.812 1050
-382.812 -132.812 1019
-476.562 351.562 1202
343.75 -31.25 973
179.688 375 1354
484.375 328.125 1264
164.062 421.875 1359
31.25 -7.8125 954
265.625 -179.688 930
-414.062 -7.8125 973
-484.375 62.5 938
-421.875 23.4375 951
-148.438 -382.812 987
-289.062 93.75 995
-132.812 -320.312 1010
-54.6875 -406.25 989
-500 62.5 928
-140.625 -257.812 1038
187.5 -210.938 918
-148.438 -453.125 1157
226.562 -23.4375 967
359.375 390.625 1365
-421.875 54.6875 940
-320.312 335.938 1210
-414.062 312.5 1236
140.625 382.812 1354
-398.438 -62.5 943
-312.5 320.312 1236
-109.375 -273.438 1034
195.312 250 1464
-54.6875 250 1696
-468.75 62.5 938
-328.125 351.562 1206
-242.188 335.938 1210
-500 -226.562 1108
-250 -148.438 913
140.625 367.188 1349
-500 257.812 1063
-445.312 328.125 1232
-257.812 15.625 954
125 335.938 1359
-382.812 351.562 1193
265.625 15.625 951
31.25 304.688 1445
437.5 304.688 1245
-125 7.8125 948
-140.625 437.5 1259
-437.5 312.5 1232
-273.438 351.562 1206
468.75 273.438 1297
-70.3125 -265.625 1044
265.625 -187.5 923
-164.062 -398.438 978
-304.688 -23.4375 1019
398.438 289.062 1264
-78.125 -265.625 1044
-390.625 -46.875 943
-500 -304.688 2432
101.562 -15.625 964
-250 7.8125 962
-421.875 15.625 959
187.5 -15.625 951
-265.625 -23.4375 964
-437.5 -39.0625 951
-390.625 351.562 1189
-117.188 -164.062 915
-421.875 -156.25 946
-320.312 7.8125 967
-39.0625 -171.875 918
242.188 382.812 1404
109.375 328.125 1365
-421.875 179.688 1031
484.375 312.5 1297
-85.9375 -304.688 1028
31.25 367.188 1464
-289.062 351.562 1206
453.125 421.875 1307
-257.812 335.938 1206
-382.812 -15.625 956
-140.625 0 962
-31.25 -171.875 918
-195.312 437.5 1210
226.562 -195.312 920
-492.188 343.75 1119
-453.125 296.875 1268
382.812 328.125 1297
-304.688 320.312 1241
-171.875 -203.125 956
140.625 -187.5 918
31.25 -54.6875 967
179.688 -210.938 915
-85.9375 -367.188 1001
-234.375 15.625 948
39.0625 210.938 1776
7.8125 -171.875 918
445.312 195.312 1090
23.4375 203.125 1785
-132.812 -328.125 1007
-351.562 -109.375 959
-109.375 7.8125 946
93.75 70.3125 1016
164.062 70.3125 1680
-382.812 -164.062 956
421.875 351.562 1259
468.75 257.812 1264
453.125 312.5 1297
-367.188 -171.875 964
-468.75 335.938 1236
-429.688 -148.438 946
-296.875 335.938 1210
117.188 187.5 1776
-46.875 -171.875 918
-23.4375 7.8125 946
-398.438 257.812 1070
-218.75 70.3125 992
-179.688 -359.375 989
54.6875 -7.8125 954
-195.312 -320.312 1001
-234.375 335.938 1219
289.062 -179.688 928
148.438 -31.25 981
-78.125 -7.8125 970
-273.438 289.062 1278
-70.3125 -320.312 1022
-492.188 -257.812 2415
-15.625 -7.8125 964
70.3125 -179.688 920
-46.875 218.75 1785
-429.688 289.062 1283
-148.438 7.8125 954
-218.75 7.8125 959
54.6875 -15.625 967
-281.25 335.938 1210
164.062 -257.812 956
218.75 -39.0625 989
-132.812 7.8125 951
210.938 -39.0625 992
382.812 359.375 1259
-85.9375 -359.375 1001
492.188 -265.625 1273
-437.5 281.25 1297
78.125 -23.4375 973
148.438 -187.5 918
7.8125 375 1452
-312.5 -23.4375 1019
-312.5 289.062 1288
-320.312 -46.875 984
-335.938 7.8125 973
-85.9375 7.8125 946
-320.312 0 978
-31.25 -421.875 1149
-500 304.688 1119
-109.375 -164.062 918
-312.5 335.938 1210
-421.875 289.062 1292
-367.188 351.562 1202
117.188 -15.625 956
-156.25 -210.938 970
-437.5 164.062 998
-117.188 -312.5 1019
117.188 242.188 1477
-109.375 -218.75 987
-367.188 15.625 956
39.0625 -7.8125 956
-179.688 7.8125 956
304.688 -31.25 973
-140.625 -359.375 995
-156.25 164.062 1663
-140.625 -210.938 967
-15.625 -171.875 920
-93.75 -328.125 1016
242.188 15.625 951
-437.5 289.062 1283
398.438 -328.125 1259
-406.25 15.625 959
62.5 226.562 1705
-460.938 328.125 1236
-156.25 -218.75 998
-218.75 15.625 951
-437.5 -148.438 946
-484.375 257.812 1063
-328.125 289.062 1283
421.875 39.0625 1013
132.812 -15.625 959
-179.688 15.625 946
218.75 -23.4375 967
359.375 335.938 1297
132.812 226.562 1713
203.125 320.312 1376
164.062 23.4375 943
367.188 23.4375 1004
-148.438 367.188 1227
-359.375 -117.188 959
70.3125 218.75 1785
226.562 312.5 1445
-226.562 335.938 1141
-351.562 265.625 1044
164.062 -218.75 915
-164.062 375 1250
375 328.125 1297
-445.312 23.4375 948
-226.562 226.562 1073
382.812 -93.75 967
-296.875 351.562 1206
-492.188 -265.625 2415
-406.25 351.562 1202
-70.3125 0 954
-500 -39.0625 1073
-414.062 23.4375 951
359.375 -242.188 943
187.5 -250 956
-437.5 328.125 1223
203.125 312.5 1381
210.938 -335.938 1013
-257.812 -148.438 913
-398.438 289.062 1288
39.0625 -179.688 918
492.188 414.062 1288
31.25 343.75 1470
234.375 234.375 1647
242.188 -187.5 923
-359.375 289.062 1297
-390.625 -39.0625 946
-328.125 335.938 1206
-343.75 -70.3125 956
203.125 -23.4375 964
312.5 -203.125 920
-226.562 382.812 1452
320.312 -203.125 920
-265.625 328.125 1227
-476.562 343.75 1202
-421.875 -46.875 946
-414.062 -156.25 946
-164.062 46.875 948
437.5 -203.125 1322
-367.188 -39.0625 954
-250 320.312 1232
-85.9375 0 956
-453.125 382.812 1433
-265.625 304.688 1264
359.375 320.312 1181
-46.875 -320.312 1025
414.062 343.75 1264
70.3125 -7.8125 951
-382.812 15.625 962
-460.938 343.75 1197
-140.625 46.875 946
179.688 70.3125 1688
250 -203.125 918
398.438 234.375 1283
-218.75 -148.438 920
-398.438 -7.8125 995
-414.062 62.5 943
-367.188 328.125 1232
-289.062 265.625 1333
-390.625 -78.125 943
-132.812 -335.938 1007
-164.062 -406.25 975
343.75 -54.6875 1004
-265.625 320.312 1236
-375 304.688 1268
23.4375 343.75 1509
453.125 265.625 1273
-46.875 195.312 1766
109.375 -187.5 918
195.312 -23.4375 964
-398.438 15.625 964
109.375 -15.625 959
-125 -421.875 981
-312.5 -140.625 913
-359.375 351.562 1206
-375 289.062 1283
437.5 -179.688 1273
-171.875 -46.875 964
101.562 -179.688 918
-218.75 -156.25 915
-343.75 -109.375 962
-359.375 -132.812 973
-304.688 0 973
-382.812 289.062 1288
23.4375 -7.8125 954
-343.75 328.125 1227
-132.812 -359.375 998
-148.438 0 964
273.438 62.5 1031
-328.125 -7.8125 987
15.625 -15.625 970
39.0625 250 1696
-398.438 351.562 1189
343.75 335.938 1185
-335.938 0 981
0 -171.875 918
414.062 234.375 1278
-117.188 -273.438 1034
-382.812 -78.125 943
-23.4375 -171.875 920
-46.875 62.5 1001
-23.4375 250 1696
-343.75 320.312 1232
-351.562 -164.062 967
-390.625 31.25 938
-429.688 343.75 1202
-390.625 312.5 1236
453.125 281.25 1288
-398.438 312.5 1241
-312.5 -23.4375 1019
-304.688 335.938 1210
312.5 7.8125 951
343.75 304.688 1169
257.812 -179.688 928
351.562 7.8125 954
-429.688 257.812 1067
-226.562 7.8125 959
-132.812 -460.938 1161
-414.062 -132.812 946
62.5 -23.4375 978
-335.938 328.125 1232
-23.4375 -390.625 1134
-460.938 359.375 1197
-289.062 335.938 1210
304.688 367.188 1264
335.938 359.375 1206
-195.312 7.8125 956
-265.625 15.625 946
-328.125 320.312 1236
328.125 -187.5 925
351.562 359.375 1206
117.188 382.812 1349
62.5 234.375 1705
195.312 328.125 1365
281.25 -46.875 1001
-125 -281.25 1034
140.625 -23.4375 967
171.875 382.812 1392
-101.562 -250 1047
-468.75 343.75 1202
-414.062 265.625 1333
429.688 39.0625 1013
78.125 31.25 946
320.312 31.25 1007
-210.938 39.0625 943
359.375 7.8125 954
70.3125 54.6875 1001
-132.812 390.625 1245
-132.812 -156.25 920
-304.688 234.375 1063
132.812 390.625 1381
125 -23.4375 970
93.75 234.375 1543
85.9375 -23.4375 973
-46.875 -226.562 987
460.938 312.5 1297
312.5 31.25 1004
-484.375 343.75 1202
-476.562 62.5 938
-281.25 54.6875 943
-31.25 62.5 1001
-242.188 -218.75 1031
218.75 -203.125 918
-101.562 -164.062 920
-460.938 -70.3125 962
273.438 -187.5 923
476.562 -390.625 1210
296.875 -31.25 973
-414.062 -171.875 962
421.875 320.312 1245
351.562 -31.25 970
250 -187.5 923
-117.188 -234.375 1025
85.9375 -328.125 1126
195.312 -296.875 1001
109.375 46.875 992
460.938 -367.188 1227
-304.688 46.875 940
-351.562 335.938 1210
78.125 -179.688 920
312.5 -31.25 967
484.375 335.938 1264
-421.875 359.375 1202
-78.125 -164.062 918
-445.312 359.375 1202
-406.25 -226.562 1185
-85.9375 312.5 1579
-437.5 23.4375 946
-445.312 -148.438 962
-242.188 328.125 1227
-359.375 320.312 1236
351.562 54.6875 1084
421.875 312.5 1245
-398.438 93.75 995
242.188 -195.312 920
-320.312 320.312 1236
85.9375 218.75 1785
-62.5 -7.8125 967
375 210.938 1126
-226.562 54.6875 943
-93.75 437.5 1283
-445.312 54.6875 935
-398.438 -101.562 943
54.6875 242.188 1696
-242.188 320.312 1236
-343.75 335.938 1206
-375 -179.688 970
-70.3125 -406.25 989
187.5 39.0625 951
-109.375 359.375 1236
-156.25 -343.75 998
-23.4375 -421.875 1145
-359.375 242.188 1070
-453.125 62.5 938
476.562 296.875 1312
70.3125 210.938 1785
7.8125 -15.625 973
-242.188 335.938 1210
-492.188 257.812 1067
-445.312 -164.062 964
-140.625 367.188 1214
78.125 54.6875 1001
-437.5 54.6875 935
492.188 281.25 1322
-445.312 62.5 938
-414.062 351.562 1202
-171.875 7.8125 954
-257.812 -140.625 918
382.812 23.4375 1004
-273.438 335.938 1210
-117.188 -367.188 998
179.688 351.562 1365
343.75 343.75 1189
-476.562 335.938 1236
-156.25 -398.438 978
-132.812 -343.75 1001
406.25 39.0625 1010
203.125 -195.312 920
-257.812 320.312 1232
-429.688 -7.8125 964
-281.25 320.312 1236
101.562 -15.625 964
-140.625 -156.25 920
85.9375 -7.8125 948
195.312 367.188 1376
453.125 296.875 1328
398.438 343.75 1264
179.688 62.5 1022
-453.125 23.4375 951
-367.188 320.312 1236
-312.5 320.312 1236
351.562 273.438 1153
375 23.4375 1004
156.25 -23.4375 967
390.625 85.9375 1034
93.75 -7.8125 951
-453.125 328.125 1232
-70.3125 -164.062 918
398.438 335.938 1264
-125 -273.438 1034
-406.25 -148.438 946
406.25 203.125 1087
328.125 320.312 1189
-460.938 296.875 1268
0 0 946
484.375 -7.8125 954
-250 273.438 1307
273.438 -179.688 930
-85.9375 -7.8125 973
-140.625 -140.625 925
-85.9375 335.938 1529
328.125 -179.688 928
218.75 7.8125 948
218.75 398.438 1381
-460.938 -54.6875 956
-445.312 296.875 1268
-445.312 -218.75 1169
46.875 -7.8125 954
31.25 -179.688 918
429.688 -179.688 1278
-210.938 -148.438 918
-234.375 296.875 1130
-93.75 -445.312 1169
453.125 -7.8125 954
171.875 62.5 1019
-7.8125 -257.812 1057
-375 320.312 1236
-273.438 320.312 1236
-281.25 335.938 1210
46.875 242.188 1696
-250 335.938 1206
343.75 -210.938 918
-125 -335.938 1007
-226.562 15.625 951
148.438 226.562 1713
-390.625 101.562 995
476.562 257.812 1264
-375 -117.188 951
289.062 -289.062 1090
-242.188 -265.625 1189
-453.125 -218.75 1165
-132.812 0 962
-70.3125 -7.8125 970
-359.375 -46.875 954
171.875 351.562 1359
156.25 -31.25 981
-23.4375 218.75 1785
-390.625 0 984
195.312 -210.938 918
429.688 0 954
187.5 335.938 1359
-242.188 15.625 948
125 171.875 1748
93.75 31.25 943
-367.188 -46.875 951
476.562 335.938 1264
-62.5 -218.75 964
-351.562 -140.625 975
-335.938 312.5 1232
406.25 328.125 1292
-296.875 359.375 1206
-93.75 351.562 1489
-468.75 328.125 1236
93.75 -328.125 1134
351.562 -54.6875 1001
-15.625 39.0625 946
125 296.875 1445
-484.375 -164.062 940
210.938 -23.4375 967
-250 320.312 1232
70.3125 -265.625 1050
-171.875 15.625 946
-7.8125 -171.875 918
125 85.9375 1688
-210.938 7.8125 962
-234.375 320.312 1241
203.125 343.75 1387
54.6875 -359.375 1077
-406.25 -132.812 1004
54.6875 234.375 1705
328.125 -203.125 920
218.75 -39.0625 989
-335.938 320.312 1232
210.938 -39.0625 992
406.25 320.312 1245
-39.0625 -398.438 995
-437.5 359.375 1197
-460.938 62.5 938
398.438 39.0625 1013
156.25 -187.5 918
-265.625 351.562 1206
-257.812 335.938 1206
-460.938 335.938 1197
-234.375 335.938 1219
-203.125 -148.438 918
15.625 -15.625 970
-312.5 312.5 1250
-117.188 -398.438 984
195.312 304.688 1404
-296.875 312.5 1241
484.375 187.5 1087
-140.625 351.562 1219
-148.438 -460.938 1161
-390.625 -164.062 954
-296.875 335.938 1210
218.75 -234.375 951
-351.562 351.562 1206
70.3125 -23.4375 973
-85.9375 -234.375 1019
-406.25 351.562 1202
328.125 390.625 1223
-406.25 101.562 995
265.625 -304.688 1119
-257.812 289.062 1283
-359.375 335.938 1210
445.312 289.062 1288
-335.938 23.4375 943
85.9375 210.938 1785
-265.625 335.938 1210
-226.562 335.938 1141
164.062 -187.5 920
-7.8125 0 948
140.625 -15.625 956
-304.688 289.062 1278
109.375 31.25 943
-500 312.5 1115
195.312 -15.625 951
-390.625 351.562 1189
156.25 281.25 1464
0 -15.625 975
-62.5 -164.062 918
-148.438 -210.938 967
492.188 304.688 1292
-226.562 -281.25 1245
-390.625 320.312 1236
-234.375 359.375 1206
445.312 39.0625 1013
-468.75 -210.938 1153
-398.438 351.562 1189
-390.625 -234.375 1169
-140.625 375 1312
-414.062 -93.75 943
-54.6875 -7.8125 964
-437.5 101.562 992
-398.438 31.25 940
429.688 429.688 1297
-273.438 312.5 1241
390.625 93.75 1038
164.062 -31.25 981
203.125 351.562 1381
-375 335.938 1210
-468.75 289.062 1297
-445.312 101.562 992
164.062 -15.625 954
-375 31.25 935
-359.375 101.562 995
359.375 359.375 1264
-85.9375 -343.75 1013
-289.062 359.375 1206
390.625 437.5 1297
492.188 250 1359
257.812 -187.5 923
476.562 289.062 1328
-101.562 93.75 1688
-492.188 -31.25 1060
-156.25 -460.938 1165
-15.625 -289.062 1115
101.562 -7.8125 948
-7.8125 -289.062 1153
-304.688 359.375 1206
343.75 367.188 1206
-210.938 15.625 948
-460.938 312.5 1255
125 -15.625 956
-320.312 312.5 1236
62.5 210.938 1785
-304.688 320.312 1241
-382.812 -101.562 946
-203.125 -312.5 1227
-421.875 296.875 1268
-70.3125 382.812 1343
-39.0625 0 948
109.375 -7.8125 946
-85.9375 -273.438 1038
429.688 312.5 1245
492.188 335.938 1259
-414.062 351.562 1202
125 -250 1001
218.75 -335.938 1013
-445.312 -39.0625 951
-273.438 359.375 1206
-15.625 218.75 1785
-195.312 -46.875 962
203.125 406.25 1376
-328.125 0 978
78.125 -23.4375 973
-85.9375 -210.938 948
-367.188 335.938 1210
101.562 -328.125 1134
15.625 0 948
-398.438 -156.25 948
414.062 289.062 1264
-117.188 -351.562 1001
195.312 -226.562 920
281.25 -23.4375 967
-242.188 -148.438 913
62.5 -7.8125 951
-429.688 312.5 1232
-101.562 -257.812 1044
-335.938 54.6875 940
406.25 -179.688 951
-421.875 -7.8125 973
-171.875 -156.25 915
179.688 -257.812 962
273.438 -23.4375 967
-468.75 359.375 1202
-281.25 359.375 1206
335.938 -54.6875 1004
281.25 62.5 1028
-484.375 335.938 1206
390.625 335.938 1297
62.5 250 1523
-382.812 -164.062 956
-390.625 -39.0625 946
-218.75 7.8125 959
-382.812 335.938 1210
-429.688 101.562 995
-328.125 23.4375 943
351.562 -242.188 938
-265.625 320.312 1236
-148.438 -257.812 1034
343.75 312.5 1173
85.9375 390.625 1392
-117.188 -203.125 938
359.375 -234.375 920
-328.125 320.312 1236
-351.562 -101.562 956
-15.625 312.5 1572
257.812 -203.125 918
125 46.875 992
-125 -382.812 989
-62.5 -320.312 1022
85.9375 218.75 1785
312.5 -273.438 1038
367.188 320.312 1302
156.25 -210.938 915
-101.562 -406.25 984
-132.812 46.875 943
-257.812 54.6875 938
125 78.125 1016
54.6875 250 1516
-382.812 -140.625 951
93.75 -23.4375 973
0 375 1452
375 -54.6875 1004
85.9375 -23.4375 973
-242.188 312.5 1241
234.375 -195.312 920
-382.812 54.6875 940
460.938 320.312 1292
367.188 7.8125 954
-148.438 -132.812 930
117.188 -187.5 918
-429.688 351.562 1193
-31.25 0 948
476.562 250 1278
-46.875 -7.8125 964
203.125 70.3125 1696
-125 -429.688 981
-15.625 0 948
-85.9375 -335.938 1013
-31.25 218.75 1785
-62.5 -257.812 1050
-109.375 -164.062 918
-390.625 -187.5 967
-117.188 46.875 943
398.438 203.125 1084
-414.062 -156.25 946
-320.312 -31.25 1034
-343.75 320.312 1232
-437.5 -171.875 946
-70.3125 367.188 1458
62.5 226.562 1705
23.4375 -15.625 970
281.25 -46.875 1001
281.25 -46.875 973
343.75 -54.6875 973
-312.5 335.938 1236
-421.875 -125 946
218.75 -23.4375 987
101.562 304.688 1439
117.188 179.688 1757
-304.688 312.5 1268
-281.25 289.062 1297
-265.625 312.5 1273
-117.188 7.8125 967
85.9375 -179.688 915
343.75 335.938 1185
-328.125 312.5 1227
54.6875 242.188 1696
-218.75 437.5 1370
-445.312 -101.562 962
-257.812 312.5 1264
-101.562 -218.75 1013
-140.625 437.5 1250
-406.25 -132.812 948
421.875 351.562 1255
-226.562 359.375 1161
-390.625 -7.8125 951
-414.062 101.562 992
476.562 31.25 1007
-406.25 304.688 1273
218.75 -343.75 1370
-312.5 328.125 1241
484.375 257.812 1387
375 281.25 1268
-429.688 -226.562 1173
-429.688 -132.812 943
-476.562 -125 1010
-429.688 23.4375 967
-367.188 101.562 992
-453.125 -140.625 984
-203.125 -304.688 1181
453.125 335.938 1264
-500 -312.5 2432
-367.188 304.688 1259
-203.125 15.625 964
-78.125 -304.688 1025
-23.4375 0 973
-164.062 -156.25 915
351.562 343.75 1189
250 -23.4375 981
-125 -367.188 995
117.188 -15.625 981
-31.25 -171.875 918
296.875 359.375 1288
-421.875 328.125 1236
101.562 296.875 1452
46.875 -250 1063
382.812 117.188 1044
390.625 -171.875 933
-195.312 -148.438 915
-148.438 -359.375 992
101.562 -398.438 3037
367.188 210.938 1080
460.938 39.0625 1010
-250 359.375 1206
281.25 15.625 951
164.062 382.812 1354
54.6875 210.938 1776
-156.25 -398.438 978
304.688 -203.125 918
148.438 -15.625 975
-406.25 320.312 1268
31.25 -367.188 1077
-328.125 398.438 1433
109.375 117.188 1705
-289.062 296.875 1278
-156.25 7.8125 973
-132.812 -359.375 998
39.0625 250 1705
-250 312.5 1259
-210.938 -320.312 1189
203.125 328.125 1370
-257.812 328.125 1236
453.125 -179.688 1302
109.375 382.812 1349
-421.875 351.562 1202
62.5 234.375 1731
171.875 -70.3125 959
-85.9375 -328.125 1016
78.125 -7.8125 970
46.875 242.188 1696
-187.5 -273.438 1022
-210.938 -398.438 1181
54.6875 234.375 1696
382.812 359.375 1259
-492.188 351.562 1119
437.5 242.188 1283
-265.625 359.375 1202
-351.562 312.5 1268
-164.062 15.625 959
-195.312 -390.625 973
335.938 -179.688 925
148.438 250 1477
70.3125 -179.688 918
-359.375 -46.875 954
-148.438 406.25 1232
-273.438 -140.625 913
-460.938 328.125 1236
265.625 281.25 1445
421.875 281.25 1255
15.625 -328.125 1090
93.75 328.125 1381
-382.812 320.312 1245
7.8125 7.8125 954
-367.188 31.25 951
-132.812 -265.625 1034
-46.875 0 970
-359.375 312.5 1264
-476.562 328.125 1232
-242.188 320.312 1241
414.062 39.0625 1007
125 179.688 1757
-54.6875 0 970
-460.938 -187.5 951
-242.188 335.938 1227
-140.625 -382.812 987
-265.625 -140.625 913
-257.812 320.312 1241
46.875 -257.812 1084
484.375 414.062 1312
125 -265.625 1025
460.938 195.312 1087
-156.25 -242.188 1038
-367.188 93.75 989
-250 -148.438 913
-125 0 978
-125 -343.75 1004
492.188 -179.688 1302
390.625 234.375 1292
289.062 62.5 1022
429.688 242.188 1278
-320.312 -101.562 981
-398.438 101.562 995
-335.938 351.562 1202
156.25 -242.188 959
39.0625 -7.8125 975
-375 -164.062 967
-335.938 -62.5 964
210.938 -242.188 948
-203.125 7.8125 975
171.875 -195.312 915
-335.938 -23.4375 975
-304.688 296.875 1278
-187.5 15.625 959
-296.875 -140.625 913
-226.562 328.125 1145
171.875 -210.938 920
351.562 -210.938 918
7.8125 0 967
351.562 351.562 1197
-406.25 -93.75 946
476.562 328.125 1292
-359.375 -54.6875 954
-195.312 70.3125 946
125 -187.5 915
414.062 -179.688 1322
-78.125 -335.938 1016
-70.3125 7.8125 962
117.188 296.875 1452
-85.9375 -304.688 1025
-218.75 15.625 967
-54.6875 -164.062 915
-421.875 -156.25 962
-117.188 0 978
-296.875 359.375 1206
117.188 -7.8125 967
-453.125 -164.062 946
-476.562 289.062 1297
-125 7.8125 967
-54.6875 -7.8125 987
-343.75 312.5 1268
-460.938 289.062 1292
-125 -203.125 978
-148.438 -289.062 1022
-132.812 39.0625 946
367.188 -226.562 933
-164.062 -398.438 975
265.625 -203.125 918
-257.812 -140.625 915
-398.438 -117.188 946
171.875 -187.5 915
-54.6875 312.5 1579
62.5 -343.75 1101
242.188 -320.312 1288
-164.062 70.3125 948
-234.375 320.312 1141
492.188 187.5 1084
375 351.562 1264
398.438 437.5 1302
-234.375 15.625 970
-101.562 -351.562 1004
187.5 -296.875 1019
-500 -171.875 970
-273.438 54.6875 940
-429.688 187.5 1028
-492.188 -62.5 1073
-23.4375 39.0625 943
-312.5 312.5 1268
-242.188 351.562 1202
-281.25 296.875 1297
-320.312 289.062 1302
-296.875 -7.8125 1007
195.312 -195.312 918
-101.562 7.8125 967
281.25 -171.875 928
-296.875 320.312 1241
-281.25 351.562 1206
468.75 320.312 1297
-117.188 -312.5 1016
-335.938 335.938 1236
-429.688 -7.8125 962
-398.438 328.125 1241
-437.5 -164.062 951
398.438 250 1273
-257.812 359.375 1206
31.25 -351.562 1080
-93.75 -218.75 1010
-390.625 335.938 1236
-312.5 359.375 1202
289.062 -46.875 975
-117.188 -335.938 1007
148.438 281.25 1477
-351.562 101.562 995
312.5 -31.25 992
109.375 -328.125 1322
140.625 289.062 1470
-78.125 0 973
-328.125 335.938 1236
-78.125 7.8125 962
78.125 -179.688 918
-273.438 312.5 1264
-359.375 320.312 1236
-335.938 312.5 1227
-468.75 312.5 1259
-242.188 359.375 1202
187.5 335.938 1359
0 -7.8125 978
414.062 203.125 1087
-382.812 351.562 1206
-398.438 -164.062 964
382.812 109.375 1038
382.812 -39.0625 998
125 335.938 1349
-132.812 7.8125 970
367.188 -179.688 928
-234.375 312.5 1134
-125 -359.375 998
46.875 -179.688 915
-359.375 -15.625 962
382.812 328.125 1288
-414.062 351.562 1206
-289.062 351.562 1206
-367.188 289.062 1297
226.562 -23.4375 987
437.5 218.75 1312
15.625 -7.8125 978
117.188 320.312 1354
351.562 46.875 1019
281.25 359.375 1317
-226.562 351.562 1157
-265.625 23.4375 959
171.875 -23.4375 992
-7.8125 218.75 1785
-429.688 242.188 1057
-375 328.125 1241
406.25 343.75 1264
171.875 -15.625 973
-273.438 320.312 1241
375 242.188 1292
-375 101.562 995
93.75 -23.4375 992
203.125 -125 943
-414.062 -117.188 946
156.25 -15.625 975
54.6875 242.188 1696
132.812 -15.625 978
-117.188 -367.188 995
164.062 -234.375 964
382.812 437.5 1307
-93.75 7.8125 967
304.688 -31.25 989
-140.625 -343.75 1001
-250 351.562 1206
-156.25 359.375 1214
-484.375 187.5 995
460.938 421.875 1307
445.312 195.312 1084
-476.562 187.5 992
109.375 -15.625 984
-390.625 -164.062 967
492.188 273.438 1359
