ply
format ascii 1.0
comment Created by Open3D
element vertex 2365
property double x
property double y
property double z
end_header
476.562 -187.5 923
-476.562 -382.812 2744
-132.812 39.0625 970
328.125 -31.25 970
-367.188 312.5 1022
-242.188 382.812 1197
54.6875 101.562 925
429.688 23.4375 951
273.438 -351.562 1010
-210.938 -93.75 1038
-117.188 -39.0625 940
164.062 -406.25 981
-312.5 101.562 903
0 351.562 1223
257.812 -171.875 920
140.625 -398.438 978
-203.125 -85.9375 1063
156.25 -156.25 910
-460.938 -289.062 2859
273.438 226.562 1680
-250 -78.125 1063
-109.375 320.312 1278
156.25 -218.75 1038
46.875 -429.688 1185
-62.5 -62.5 923
-242.188 359.375 1232
46.875 343.75 1227
-23.4375 289.062 1050
70.3125 -414.062 1161
46.875 -414.062 1173
-226.562 93.75 910
226.562 -234.375 1050
109.375 101.562 975
-445.312 -171.875 2933
492.188 -242.188 962
375 23.4375 943
484.375 -281.25 1025
-54.6875 351.562 1214
-226.562 -15.625 1080
39.0625 304.688 1288
-62.5 78.125 915
-273.438 335.938 1259
226.562 195.312 1776
-31.25 304.688 1288
-484.375 -429.688 2680
234.375 -15.625 967
-7.8125 382.812 1189
-148.438 85.9375 913
382.812 -31.25 970
-265.625 375 1193
54.6875 351.562 1219
-31.25 -93.75 938
-39.0625 93.75 923
-164.062 375 1206
39.0625 351.562 1219
-140.625 367.188 1210
492.188 -31.25 978
132.812 -242.188 1054
-7.8125 304.688 1288
-46.875 -140.625 935
-70.3125 320.312 1283
-132.812 -156.25 928
-85.9375 335.938 1245
-85.9375 117.188 920
296.875 218.75 1705
281.25 -320.312 1112
-78.125 390.625 1181
296.875 -257.812 1123
-140.625 320.312 1278
-367.188 109.375 898
398.438 -195.312 938
203.125 -320.312 1010
-164.062 125 915
101.562 15.625 959
93.75 54.6875 925
398.438 -46.875 970
304.688 -156.25 918
-257.812 398.438 1173
-312.5 359.375 1227
367.188 15.625 946
-281.25 398.438 1197
-203.125 335.938 1268
-62.5 382.812 1177
234.375 -335.938 1010
-93.75 -156.25 938
-250 -109.375 1108
-156.25 85.9375 913
-156.25 109.375 915
195.312 0 964
-125 343.75 1241
-39.0625 -15.625 928
-23.4375 -39.0625 928
-351.562 312.5 1022
-226.562 125 913
-218.75 328.125 1273
210.938 -359.375 995
-62.5 359.375 1219
-195.312 -101.562 1013
101.562 -273.438 1236
-250 -46.875 1084
78.125 -15.625 948
445.312 -54.6875 975
-289.062 398.438 1169
179.688 203.125 1766
-156.25 296.875 1038
-500 -421.875 2659
-171.875 367.188 1210
203.125 -132.812 910
492.188 -226.562 973
-187.5 367.188 1214
226.562 -7.8125 970
-484.375 140.625 891
-93.75 -125 930
23.4375 382.812 1464
-171.875 -23.4375 1090
-101.562 31.25 940
351.562 296.875 1338
-210.938 351.562 1245
15.625 -242.188 1177
-125 210.938 978
187.5 7.8125 967
-234.375 226.562 970
109.375 23.4375 959
7.8125 -23.4375 943
-132.812 343.75 1241
-492.188 -460.938 2639
453.125 -242.188 984
-437.5 -164.062 2933
-117.188 39.0625 951
265.625 210.938 1776
-78.125 31.25 975
46.875 23.4375 970
-445.312 -210.938 2883
-46.875 375 1177
-148.438 132.812 964
-140.625 -101.562 995
-54.6875 -101.562 933
-70.3125 -156.25 954
-187.5 351.562 1232
-78.125 335.938 1245
62.5 78.125 925
-117.188 -179.688 935
-101.562 -31.25 933
-234.375 -23.4375 1090
195.312 -164.062 915
-226.562 375 1197
-203.125 312.5 1038
156.25 -257.812 1019
-476.562 117.188 898
-54.6875 117.188 915
-93.75 281.25 1038
171.875 132.812 1705
-62.5 117.188 915
-109.375 -164.062 935
-15.625 281.25 1050
-125 -132.812 954
-359.375 312.5 1022
-226.562 -164.062 1019
140.625 0 956
-78.125 -148.438 943
210.938 -390.625 987
-250 304.688 1031
-460.938 414.062 1731
-234.375 398.438 1169
-484.375 296.875 2005
-156.25 351.562 1236
-31.25 109.375 923
-250 359.375 1227
-101.562 -171.875 935
125 -437.5 1161
-148.438 328.125 1278
187.5 -7.8125 959
-375 312.5 1019
-140.625 -164.062 928
-210.938 -23.4375 1063
-468.75 125 891
-398.438 148.438 901
-70.3125 -164.062 948
320.312 -7.8125 981
210.938 367.188 1445
-234.375 93.75 910
-195.312 312.5 1038
-132.812 218.75 967
-312.5 140.625 906
-250 382.812 1193
-250 93.75 908
-70.3125 0 938
-179.688 390.625 1177
-85.9375 31.25 946
-453.125 -226.562 2859
210.938 -218.75 1034
85.9375 109.375 975
-156.25 375 1206
453.125 -312.5 1034
-125 195.312 992
-429.688 -125 1421
15.625 328.125 1255
367.188 -39.0625 970
-31.25 93.75 923
-39.0625 -117.188 940
-31.25 -117.188 940
-62.5 -101.562 933
-7.8125 312.5 1273
-125 328.125 1278
273.438 -23.4375 970
78.125 93.75 928
-85.9375 289.062 1041
-23.4375 70.3125 918
320.312 -31.25 970
-289.062 375 1189
-226.562 335.938 1264
109.375 7.8125 956
289.062 -179.688 923
242.188 -343.75 1007
23.4375 367.188 1223
-335.938 398.438 1119
0 289.062 1054
-31.25 351.562 1219
-453.125 -242.188 2789
296.875 -15.625 973
304.688 -375 1185
-101.562 320.312 1278
234.375 -218.75 1028
-453.125 -250 2835
-250 406.25 1161
195.312 -398.438 984
-210.938 -156.25 981
132.812 320.312 1219
335.938 289.062 1381
125 -398.438 987
-179.688 367.188 1210
31.25 351.562 1219
-31.25 375 1189
-78.125 -164.062 943
164.062 -398.438 978
93.75 -320.312 1197
476.562 -62.5 975
39.0625 23.4375 973
-484.375 -328.125 2744
312.5 -31.25 970
-148.438 375 1210
-15.625 312.5 1288
179.688 -203.125 995
-62.5 335.938 1241
-101.562 15.625 933
-187.5 390.625 1173
54.6875 -242.188 1149
187.5 15.625 962
-257.812 351.562 1227
-156.25 398.438 1173
265.625 -15.625 970
-226.562 304.688 1038
-125 -46.875 954
-132.812 375 1210
-140.625 390.625 1173
218.75 195.312 1776
-93.75 335.938 1245
-250 226.562 975
-234.375 406.25 1169
-23.4375 359.375 1214
23.4375 343.75 1227
39.0625 375 1189
-156.25 343.75 1241
421.875 -257.812 1031
-328.125 117.188 901
-179.688 398.438 1173
289.062 70.3125 998
54.6875 320.312 1264
-281.25 312.5 1031
-257.812 382.812 1197
-117.188 359.375 1214
-242.188 304.688 1034
-70.3125 359.375 1219
203.125 0 970
-335.938 148.438 948
-273.438 398.438 1173
296.875 250 1529
15.625 -109.375 964
23.4375 85.9375 925
-234.375 132.812 913
-289.062 320.312 1031
281.25 187.5 1776
7.8125 289.062 1054
7.8125 312.5 1273
-218.75 335.938 1268
-281.25 375 1193
-31.25 335.938 1241
31.25 328.125 1255
179.688 -226.562 1038
-218.75 406.25 1169
-484.375 -421.875 2701
-23.4375 382.812 1185
-320.312 343.75 1227
203.125 -226.562 1047
203.125 -359.375 995
140.625 7.8125 959
250 -226.562 1047
101.562 -148.438 906
375 250 1470
-351.562 289.062 1010
-85.9375 0 938
453.125 -54.6875 978
421.875 23.4375 951
-93.75 359.375 1206
-445.312 -140.625 2908
62.5 320.312 1255
-171.875 -195.312 1161
328.125 -23.4375 973
-453.125 -234.375 2812
54.6875 359.375 1177
-31.25 281.25 1050
218.75 -289.062 1028
-46.875 132.812 970
265.625 -210.938 1004
15.625 -257.812 1227
242.188 -171.875 920
187.5 0 962
-250 351.562 1227
-31.25 257.812 1034
148.438 7.8125 959
39.0625 328.125 1255
-39.0625 351.562 1223
-132.812 414.062 1433
70.3125 78.125 925
70.3125 15.625 975
54.6875 31.25 956
203.125 -281.25 1028
-210.938 335.938 1268
23.4375 -31.25 946
187.5 -210.938 1022
-273.438 281.25 1013
23.4375 39.0625 951
-93.75 367.188 1206
85.9375 15.625 964
-62.5 0 935
31.25 23.4375 973
195.312 -210.938 1019
-281.25 140.625 906
0 7.8125 1001
179.688 0 962
-109.375 -54.6875 946
156.25 -445.312 1189
70.3125 179.688 1007
-500 -414.062 2659
-93.75 31.25 946
-85.9375 343.75 1245
195.312 -289.062 1022
-171.875 390.625 1177
109.375 15.625 959
-93.75 140.625 970
-210.938 390.625 1173
281.25 -242.188 1087
-265.625 351.562 1227
-429.688 187.5 959
-281.25 117.188 903
-445.312 -195.312 2908
460.938 -46.875 981
-7.8125 289.062 1050
-242.188 226.562 973
-46.875 -210.938 1044
445.312 -23.4375 987
-148.438 320.312 1283
-390.625 148.438 896
-429.688 -125 1421
54.6875 -312.5 1223
-31.25 -195.312 981
-476.562 -273.438 2789
78.125 312.5 1108
132.812 210.938 1766
85.9375 -125 903
164.062 -210.938 1028
-296.875 398.438 1165
429.688 -54.6875 975
-54.6875 -31.25 923
179.688 242.188 1688
117.188 234.375 1041
-31.25 328.125 1245
-453.125 -210.938 2883
-359.375 289.062 1010
-117.188 367.188 1210
-257.812 304.688 1028
148.438 335.938 1202
-226.562 367.188 1227
-117.188 -62.5 951
-242.188 -31.25 1112
-23.4375 335.938 1250
-468.75 -312.5 2767
-304.688 398.438 1169
-78.125 -132.812 928
93.75 7.8125 956
-148.438 382.812 1177
195.312 -343.75 998
39.0625 -7.8125 1016
140.625 -156.25 908
132.812 7.8125 959
15.625 0 1004
132.812 -343.75 992
-492.188 -312.5 2116
-23.4375 328.125 1250
-15.625 304.688 1288
-226.562 328.125 1264
-226.562 398.438 1169
-46.875 296.875 1047
-39.0625 312.5 1283
312.5 -7.8125 981
-54.6875 289.062 1047
85.9375 -460.938 1169
-46.875 257.812 1031
-164.062 343.75 1241
-7.8125 -46.875 935
-85.9375 -31.25 930
476.562 -46.875 984
-39.0625 375 1197
-132.812 125 915
117.188 437.5 1193
289.062 0 973
-171.875 125 915
359.375 -7.8125 973
-164.062 296.875 1038
-23.4375 281.25 1050
-62.5 375 1177
-460.938 -23.4375 1149
-46.875 -23.4375 923
-109.375 343.75 1245
-218.75 375 1197
-476.562 -367.188 2744
39.0625 -46.875 959
-101.562 382.812 1181
101.562 7.8125 956
-492.188 382.812 1785
273.438 -15.625 970
-140.625 -7.8125 954
-125 -218.75 1134
-117.188 296.875 1044
-7.8125 328.125 1250
-46.875 359.375 1214
-85.9375 -148.438 943
210.938 -171.875 923
-187.5 375 1206
-85.9375 390.625 1181
242.188 -148.438 915
-242.188 117.188 910
46.875 367.188 1189
-85.9375 -132.812 928
-289.062 398.438 1169
-15.625 382.812 1189
-23.4375 304.688 1292
70.3125 304.688 1108
31.25 273.438 1050
351.562 -39.0625 973
390.625 -46.875 973
-15.625 -15.625 935
109.375 -273.438 1227
-257.812 359.375 1227
23.4375 -226.562 1115
31.25 -46.875 954
109.375 -375 1022
-132.812 -109.375 984
-242.188 398.438 1173
-171.875 343.75 1241
-421.875 414.062 1731
-164.062 398.438 1173
-382.812 117.188 898
-70.3125 382.812 1177
-210.938 -101.562 1038
-164.062 375 1206
132.812 -101.562 915
-39.0625 304.688 1283
335.938 -187.5 928
-484.375 -312.5 2767
15.625 304.688 1292
-210.938 328.125 1273
-171.875 328.125 1268
-85.9375 335.938 1245
-7.8125 367.188 1219
-265.625 382.812 1197
23.4375 367.188 1223
-62.5 390.625 1177
492.188 -54.6875 984
0 -187.5 1001
-85.9375 -156.25 946
-109.375 312.5 1044
304.688 234.375 1536
-46.875 312.5 1283
31.25 375 1477
-242.188 312.5 1038
-93.75 289.062 1041
-273.438 140.625 901
-484.375 117.188 896
85.9375 54.6875 925
296.875 234.375 1536
-312.5 125 903
218.75 -234.375 1050
-187.5 390.625 1173
-382.812 109.375 898
-54.6875 -148.438 943
-218.75 351.562 1241
39.0625 -85.9375 975
-242.188 -93.75 1105
7.8125 109.375 967
-70.3125 335.938 1245
39.0625 -39.0625 964
31.25 304.688 1288
-468.75 -234.375 2701
78.125 -281.25 1245
15.625 -117.188 973
-78.125 0 938
234.375 -7.8125 970
234.375 -171.875 923
-273.438 375 1193
7.8125 281.25 1054
328.125 -187.5 930
-195.312 390.625 1169
-109.375 382.812 1181
-171.875 367.188 1210
-93.75 382.812 1181
-195.312 398.438 1169
-289.062 375 1189
-179.688 -7.8125 1054
23.4375 351.562 1219
140.625 -429.688 1161
367.188 54.6875 995
-70.3125 -31.25 925
398.438 -31.25 984
-23.4375 312.5 1292
23.4375 320.312 1264
296.875 -7.8125 984
-390.625 109.375 901
-78.125 -171.875 943
-140.625 367.188 1210
-148.438 390.625 1177
-234.375 328.125 1044
468.75 -62.5 975
-70.3125 296.875 1047
-179.688 218.75 995
-343.75 179.688 962
-23.4375 -132.812 943
109.375 -414.062 1149
-304.688 179.688 964
-31.25 359.375 1219
-78.125 320.312 1283
-125 -117.188 978
7.8125 -54.6875 943
-78.125 312.5 1278
156.25 -164.062 918
382.812 46.875 948
-179.688 390.625 1177
-164.062 85.9375 913
289.062 210.938 1713
140.625 242.188 1696
-281.25 375 1193
320.312 -23.4375 973
-265.625 375 1193
257.812 -250 1054
-62.5 351.562 1232
-31.25 351.562 1219
117.188 -406.25 989
93.75 -250 1157
-218.75 -23.4375 1067
-234.375 375 1197
-46.875 335.938 1241
93.75 23.4375 959
406.25 -39.0625 973
78.125 -273.438 1245
-101.562 359.375 1210
468.75 -46.875 984
-93.75 335.938 1245
23.4375 328.125 1255
-132.812 -148.438 928
-62.5 -171.875 951
78.125 -304.688 1219
39.0625 296.875 1292
453.125 -46.875 981
-351.562 164.062 954
23.4375 -7.8125 959
31.25 296.875 1292
-140.625 328.125 1278
109.375 -289.062 1054
-132.812 210.938 998
-226.562 -101.562 1101
296.875 -179.688 923
-7.8125 31.25 967
-421.875 164.062 948
-351.562 117.188 901
-85.9375 164.062 981
-93.75 343.75 1245
7.8125 343.75 1219
-179.688 195.312 987
-7.8125 -15.625 940
203.125 328.125 1516
367.188 -414.062 3037
171.875 -406.25 989
-195.312 132.812 915
-93.75 -179.688 964
-281.25 398.438 1197
312.5 226.562 1529
-39.0625 70.3125 918
-210.938 132.812 913
-101.562 -46.875 938
-273.438 335.938 1259
-164.062 351.562 1232
-15.625 15.625 992
-7.8125 -31.25 935
-7.8125 -179.688 1001
328.125 0 967
-265.625 304.688 1025
-226.562 375 1197
-15.625 359.375 1214
-367.188 148.438 896
109.375 -156.25 915
250 343.75 1489
-500 406.25 1739
-257.812 406.25 1161
62.5 359.375 1177
-406.25 414.062 1077
-296.875 312.5 1028
-320.312 148.438 951
-250 117.188 908
390.625 7.8125 948
-109.375 320.312 1278
-460.938 -281.25 2859
-39.0625 328.125 1241
-320.312 140.625 906
7.8125 -7.8125 946
187.5 39.0625 933
-15.625 351.562 1219
-117.188 -54.6875 948
-289.062 140.625 906
437.5 -15.625 973
-218.75 -101.562 1038
-156.25 257.812 1019
-484.375 -437.5 2639
484.375 -54.6875 984
-109.375 -140.625 943
320.312 -15.625 975
-54.6875 -39.0625 923
289.062 -15.625 973
-468.75 296.875 2005
335.938 367.188 1359
-39.0625 257.812 1034
-78.125 390.625 1181
-234.375 335.938 1264
23.4375 70.3125 920
-109.375 359.375 1210
46.875 109.375 973
-226.562 117.188 913
429.688 -281.25 1034
273.438 -156.25 913
-117.188 382.812 1181
-78.125 359.375 1223
-468.75 -328.125 2789
148.438 0 956
164.062 -382.812 978
-54.6875 328.125 1278
-242.188 132.812 954
-265.625 359.375 1227
-93.75 296.875 1047
-179.688 343.75 1241
-351.562 101.562 903
-187.5 367.188 1214
70.3125 93.75 925
-54.6875 0 933
-54.6875 -171.875 956
23.4375 -398.438 1202
171.875 -273.438 1019
-85.9375 -171.875 943
-93.75 367.188 1206
117.188 -289.062 1054
-226.562 335.938 1264
-445.312 -218.75 2908
171.875 0 962
156.25 -414.062 981
-265.625 0 1057
31.25 -70.3125 956
-39.0625 375 1197
-70.3125 -187.5 984
-109.375 -117.188 928
164.062 -414.062 981
39.0625 -382.812 1181
-289.062 281.25 1010
15.625 343.75 1219
390.625 -195.312 935
-93.75 78.125 915
-39.0625 351.562 1223
265.625 -23.4375 967
-296.875 375 1197
-234.375 343.75 1245
-109.375 117.188 913
242.188 7.8125 970
31.25 281.25 1054
367.188 31.25 946
-78.125 382.812 1181
-101.562 78.125 915
382.812 31.25 948
-109.375 78.125 915
171.875 -414.062 989
273.438 -171.875 918
23.4375 62.5 925
156.25 -406.25 981
70.3125 359.375 1185
-31.25 335.938 1241
-257.812 382.812 1197
187.5 -164.062 918
125 375 1236
-62.5 -187.5 967
-46.875 328.125 1241
-179.688 367.188 1210
-109.375 335.938 1241
-15.625 39.0625 959
-265.625 351.562 1227
226.562 -375 992
-39.0625 281.25 1044
289.062 234.375 1536
-171.875 375 1206
468.75 -234.375 975
-351.562 148.438 903
-78.125 -195.312 1077
148.438 23.4375 954
226.562 -234.375 1050
-187.5 390.625 1173
101.562 70.3125 925
70.3125 -281.25 1250
-62.5 101.562 918
-179.688 85.9375 915
-500 -234.375 2143
-156.25 328.125 1278
-281.25 382.812 1193
7.8125 320.312 1255
-78.125 23.4375 951
-414.062 148.438 901
15.625 101.562 964
-171.875 296.875 1038
148.438 -234.375 1034
-164.062 304.688 1041
-85.9375 -164.062 943
-171.875 320.312 1047
328.125 62.5 998
-273.438 406.25 1165
-85.9375 46.875 956
-70.3125 0 938
-54.6875 132.812 970
-320.312 101.562 903
-312.5 101.562 903
148.438 -367.188 978
-140.625 390.625 1173
382.812 -195.312 935
-296.875 398.438 1165
-250 398.438 1173
437.5 -273.438 1034
-85.9375 320.312 1278
-203.125 312.5 1038
195.312 -359.375 995
476.562 -210.938 948
304.688 -179.688 925
39.0625 78.125 920
-195.312 273.438 1022
-23.4375 -203.125 995
351.562 296.875 1338
132.812 46.875 925
-109.375 382.812 1181
-242.188 93.75 908
-31.25 375 1189
-226.562 351.562 1232
312.5 -31.25 970
-375 109.375 898
257.812 195.312 1785
148.438 343.75 1202
-148.438 398.438 1173
164.062 -359.375 987
-257.812 304.688 1028
-226.562 -31.25 1070
335.938 289.062 1381
-15.625 -203.125 998
78.125 -460.938 1177
132.812 -156.25 910
78.125 -429.688 1161
132.812 -445.312 1165
-500 132.812 889
-164.062 -46.875 1044
335.938 -140.625 928
31.25 -429.688 1206
-140.625 -54.6875 967
-328.125 125 901
-62.5 23.4375 987
-187.5 -31.25 1063
304.688 210.938 1713
-15.625 375 1189
-164.062 -156.25 930
-476.562 -289.062 2812
7.8125 -23.4375 943
187.5 85.9375 984
93.75 7.8125 956
-164.062 343.75 1241
-54.6875 -179.688 956
15.625 367.188 1227
-85.9375 0 938
-242.188 398.438 1173
437.5 23.4375 954
-62.5 -93.75 933
7.8125 328.125 1255
-62.5 -101.562 933
125 210.938 1757
367.188 367.188 1333
-140.625 304.688 1038
-156.25 304.688 1038
-210.938 -93.75 1038
-101.562 382.812 1181
390.625 -46.875 973
242.188 -250 1047
-140.625 382.812 1173
-148.438 -93.75 1001
-31.25 -46.875 928
289.062 23.4375 940
-304.688 125 903
437.5 0 954
93.75 -148.438 908
-242.188 328.125 1041
-93.75 390.625 1177
23.4375 351.562 1219
-109.375 39.0625 951
289.062 187.5 1776
0 39.0625 956
-70.3125 23.4375 987
39.0625 304.688 1288
476.562 -234.375 973
70.3125 -429.688 1165
171.875 -234.375 1034
460.938 -203.125 933
-398.438 132.812 898
-54.6875 -140.625 935
-179.688 304.688 1038
31.25 -23.4375 964
-132.812 343.75 1241
-132.812 296.875 1041
148.438 -164.062 918
-171.875 343.75 1241
-312.5 398.438 1165
-468.75 -335.938 2789
23.4375 -70.3125 956
-179.688 -164.062 943
-62.5 0 935
-46.875 -15.625 925
23.4375 273.438 1050
31.25 351.562 1219
-85.9375 -39.0625 933
0 351.562 1223
-289.062 375 1189
-156.25 -39.0625 1034
289.062 -179.688 923
-492.188 117.188 898
31.25 -85.9375 964
-234.375 140.625 956
-203.125 117.188 915
23.4375 78.125 920
242.188 -7.8125 973
-62.5 -179.688 954
-54.6875 -187.5 959
-289.062 398.438 1169
70.3125 7.8125 984
375 -31.25 975
-492.188 140.625 894
-242.188 335.938 1268
367.188 226.562 1477
-328.125 398.438 1157
-7.8125 289.062 1050
-273.438 382.812 1197
492.188 -210.938 935
-101.562 367.188 1210
-179.688 296.875 1034
-437.5 -171.875 2933
-484.375 -335.938 2744
218.75 234.375 1696
-460.938 296.875 1001
93.75 -460.938 1169
-195.312 367.188 1214
390.625 -171.875 918
414.062 46.875 1001
-171.875 398.438 1173
15.625 320.312 1264
-203.125 390.625 1169
-78.125 375 1181
-78.125 -31.25 928
-125 382.812 1181
-273.438 -171.875 1063
-335.938 140.625 903
156.25 -367.188 981
-429.688 -164.062 3010
-468.75 -265.625 2789
445.312 -203.125 940
93.75 15.625 962
164.062 -406.25 981
117.188 -421.875 1149
375 242.188 1477
-250 328.125 1034
210.938 0 970
-242.188 359.375 1232
179.688 -164.062 918
-257.812 359.375 1227
-70.3125 -179.688 951
-414.062 414.062 1073
-179.688 320.312 1041
234.375 -359.375 1001
-265.625 406.25 1165
31.25 328.125 1255
-250 359.375 1227
-101.562 39.0625 946
15.625 250 1038
304.688 -31.25 970
-179.688 125 915
367.188 -171.875 918
-429.688 304.688 1010
-359.375 -125 1392
398.438 250 1464
-398.438 109.375 901
453.125 -296.875 1034
-257.812 390.625 1193
250 -320.312 1019
-117.188 -39.0625 940
-218.75 312.5 1038
-257.812 398.438 1173
-46.875 -187.5 962
-242.188 406.25 1165
-140.625 -46.875 975
101.562 -156.25 915
-125 296.875 1044
-437.5 -179.688 2933
-125 304.688 1044
-296.875 351.562 1259
-148.438 328.125 1278
179.688 -7.8125 959
-250 375 1202
320.312 39.0625 946
-70.3125 -31.25 925
-375 312.5 1019
164.062 242.188 2053
46.875 101.562 925
-179.688 -85.9375 1010
289.062 -328.125 1105
62.5 -148.438 918
203.125 -171.875 933
-437.5 -164.062 2933
85.9375 -343.75 1169
-171.875 351.562 1241
-195.312 390.625 1169
-46.875 109.375 915
-15.625 -125 995
-187.5 218.75 998
-187.5 -156.25 954
-85.9375 -132.812 928
-234.375 109.375 908
-351.562 218.75 975
-101.562 335.938 1245
-101.562 289.062 1038
437.5 -179.688 923
-117.188 39.0625 951
-257.812 351.562 1227
-304.688 -132.812 1387
-476.562 117.188 898
-265.625 304.688 1025
23.4375 328.125 1255
-85.9375 312.5 1278
-70.3125 375 1177
93.75 -304.688 1219
398.438 -195.312 938
-148.438 351.562 1245
320.312 125 1731
-234.375 351.562 1232
-31.25 382.812 1185
-179.688 109.375 915
218.75 195.312 1776
-437.5 -148.438 2984
-109.375 359.375 1210
31.25 375 1477
-343.75 148.438 906
281.25 -15.625 973
-250 382.812 1193
-148.438 367.188 1210
-78.125 335.938 1245
-23.4375 359.375 1214
-148.438 343.75 1245
-320.312 117.188 901
-62.5 289.062 1047
39.0625 367.188 1193
-453.125 -132.812 2908
-250 -93.75 1105
-289.062 304.688 1025
-156.25 390.625 1173
226.562 -171.875 928
-31.25 -195.312 981
-203.125 375 1210
273.438 46.875 940
7.8125 62.5 923
218.75 -7.8125 967
-179.688 343.75 1241
-125 -179.688 935
85.9375 -148.438 910
-70.3125 296.875 1047
-70.3125 320.312 1283
445.312 -289.062 1041
-117.188 78.125 918
-23.4375 312.5 1292
-203.125 343.75 1241
-31.25 -39.0625 925
-125 -46.875 954
-273.438 304.688 1025
-156.25 351.562 1236
257.812 -179.688 933
-500 117.188 898
-179.688 375 1206
-156.25 320.312 1278
-273.438 281.25 1013
-265.625 414.062 1161
-476.562 -281.25 2789
445.312 -250 1019
-132.812 -101.562 975
281.25 70.3125 995
203.125 -398.438 987
125 -132.812 906
70.3125 335.938 1149
-39.0625 281.25 1044
140.625 93.75 981
-132.812 328.125 1278
195.312 -375 987
-101.562 359.375 1210
-39.0625 328.125 1241
-429.688 -148.438 2984
-234.375 328.125 1044
-85.9375 390.625 1181
31.25 304.688 1288
-484.375 -429.688 2680
-78.125 359.375 1223
382.812 242.188 1470
78.125 125 981
7.8125 39.0625 951
31.25 -39.0625 954
54.6875 320.312 1264
359.375 226.562 1477
-101.562 -210.938 1105
-179.688 132.812 964
195.312 -289.062 1022
-39.0625 351.562 1223
-101.562 31.25 940
210.938 -359.375 995
-156.25 -85.9375 1001
492.188 31.25 956
-187.5 367.188 1214
-31.25 46.875 946
148.438 -414.062 1157
-492.188 -375 2701
-31.25 -7.8125 935
-234.375 -23.4375 1090
-343.75 125 901
468.75 -210.938 951
-187.5 85.9375 915
250 351.562 1477
-78.125 351.562 1245
-445.312 -203.125 2883
-453.125 -250 2835
328.125 -15.625 987
-39.0625 359.375 1214
-250 226.562 975
-273.438 359.375 1227
-93.75 46.875 956
-250 203.125 984
242.188 -320.312 1019
-500 -132.812 2170
-367.188 335.938 1050
15.625 -62.5 948
-101.562 -132.812 933
-187.5 125 913
351.562 -7.8125 973
-445.312 -210.938 2883
-15.625 351.562 1219
-148.438 -85.9375 1004
437.5 -203.125 946
-70.3125 382.812 1177
23.4375 320.312 1264
-234.375 335.938 1264
273.438 -23.4375 970
93.75 -156.25 920
-156.25 367.188 1206
-85.9375 -31.25 930
265.625 210.938 1776
171.875 203.125 1766
-273.438 320.312 1034
-484.375 -445.312 2618
-85.9375 343.75 1245
-62.5 296.875 1047
-39.0625 375 1197
15.625 273.438 1050
-46.875 -109.375 935
-164.062 375 1206
-39.0625 -195.312 975
429.688 -54.6875 975
328.125 343.75 1359
187.5 -7.8125 959
-187.5 375 1206
-85.9375 -179.688 946
-320.312 398.438 1165
-421.875 148.438 901
-62.5 -156.25 948
-117.188 343.75 1241
-62.5 -140.625 933
85.9375 7.8125 959
-250 -179.688 1034
-453.125 -125 1370
445.312 -234.375 1019
-476.562 296.875 1993
265.625 -23.4375 967
-78.125 -179.688 946
0 250 1034
179.688 -226.562 1038
-242.188 -54.6875 1080
468.75 -226.562 978
7.8125 101.562 923
15.625 367.188 1227
257.812 -23.4375 964
-500 -437.5 2598
46.875 367.188 1189
476.562 -62.5 975
-39.0625 -23.4375 925
15.625 343.75 1219
-117.188 382.812 1181
-375 -70.3125 1236
78.125 -148.438 910
-93.75 320.312 1278
226.562 -7.8125 970
218.75 -15.625 962
-101.562 343.75 1245
210.938 195.312 1776
31.25 -335.938 1219
-46.875 -78.125 925
-156.25 -164.062 928
-328.125 140.625 906
445.312 39.0625 959
-273.438 312.5 1031
-117.188 320.312 1278
-437.5 414.062 1731
-54.6875 -164.062 964
78.125 367.188 1189
-335.938 343.75 1161
429.688 -335.938 1359
-15.625 328.125 1250
-203.125 -85.9375 1063
187.5 -398.438 981
-460.938 -226.562 2767
39.0625 281.25 1054
15.625 -7.8125 954
-187.5 390.625 1173
195.312 -398.438 984
-93.75 335.938 1245
62.5 -312.5 1214
125 429.688 1232
15.625 -31.25 940
-101.562 101.562 915
-382.812 312.5 1019
-265.625 359.375 1227
453.125 -234.375 984
62.5 101.562 925
-164.062 398.438 1173
-46.875 312.5 1283
476.562 -242.188 967
78.125 234.375 1038
-304.688 375 1202
-164.062 351.562 1232
-46.875 -179.688 962
117.188 -242.188 1063
-312.5 398.438 1165
-421.875 156.25 901
7.8125 343.75 1219
-54.6875 -23.4375 923
421.875 265.625 1421
-31.25 312.5 1288
453.125 -265.625 1013
-414.062 156.25 901
250 -351.562 1007
-156.25 132.812 964
-23.4375 39.0625 959
-468.75 -242.188 2767
218.75 0 973
-125 359.375 1214
-226.562 390.625 1169
242.188 0 978
15.625 351.562 1223
-250 312.5 1034
54.6875 23.4375 970
-460.938 117.188 896
23.4375 281.25 1050
-23.4375 304.688 1292
23.4375 375 1477
-226.562 -23.4375 1077
-54.6875 382.812 1177
195.312 296.875 1594
187.5 -226.562 1041
-250 335.938 1264
117.188 -273.438 1054
171.875 242.188 1680
328.125 234.375 1477
-242.188 218.75 987
-85.9375 -164.062 943
-54.6875 335.938 1241
335.938 -7.8125 975
257.812 -15.625 970
70.3125 359.375 1185
-117.188 195.312 992
210.938 328.125 1529
-203.125 304.688 1038
-140.625 31.25 978
-101.562 335.938 1245
390.625 -23.4375 992
-164.062 -187.5 1165
-156.25 328.125 1278
-195.312 367.188 1214
62.5 335.938 1232
-46.875 257.812 1031
-39.0625 -93.75 935
132.812 445.312 1241
-62.5 -39.0625 925
-468.75 -320.312 2812
-156.25 7.8125 970
54.6875 -15.625 1025
171.875 -390.625 975
296.875 335.938 1387
203.125 -242.188 1041
-78.125 343.75 1245
179.688 -218.75 1038
-289.062 171.875 964
375 -195.312 940
234.375 -250 1047
328.125 281.25 1381
273.438 7.8125 962
-140.625 304.688 1038
-218.75 -15.625 1077
-78.125 296.875 1047
-257.812 -140.625 1087
242.188 -234.375 1054
78.125 -406.25 1153
-46.875 351.562 1214
281.25 -218.75 1016
-132.812 359.375 1210
-265.625 382.812 1197
-78.125 382.812 1181
-78.125 382.812 1181
-257.812 375 1202
171.875 -218.75 1038
234.375 -171.875 923
-23.4375 351.562 1219
-7.8125 -46.875 935
-187.5 -93.75 1013
-140.625 250 1019
-218.75 -46.875 1050
140.625 359.375 1206
414.062 -39.0625 973
-250 398.438 1173
289.062 -265.625 1134
-70.3125 7.8125 933
-85.9375 359.375 1210
320.312 281.25 1404
390.625 343.75 1376
-257.812 398.438 1173
-242.188 382.812 1197
445.312 -304.688 1041
320.312 62.5 995
-31.25 382.812 1185
328.125 -187.5 930
-296.875 406.25 1165
-242.188 335.938 1268
-289.062 406.25 1161
-187.5 132.812 962
54.6875 335.938 1232
-484.375 406.25 1739
15.625 328.125 1255
343.75 -39.0625 970
-125 132.812 967
-375 62.5 964
351.562 -31.25 973
320.312 -250 1090
140.625 -218.75 1050
-117.188 117.188 913
179.688 0 962
140.625 -234.375 1041
54.6875 -7.8125 1016
273.438 62.5 940
140.625 351.562 1206
-210.938 390.625 1173
-171.875 132.812 964
-234.375 -101.562 1105
-171.875 -156.25 933
-195.312 390.625 1169
140.625 -406.25 978
-289.062 375 1189
-164.062 382.812 1206
-101.562 -156.25 933
-148.438 -164.062 930
117.188 -265.625 1070
-23.4375 -54.6875 930
-250 375 1202
-304.688 -164.062 1470
-46.875 -187.5 962
-54.6875 93.75 918
78.125 54.6875 925
359.375 -39.0625 970
-187.5 343.75 1232
132.812 7.8125 959
7.8125 273.438 1050
-78.125 -156.25 948
85.9375 -281.25 1278
-250 406.25 1161
250 -335.938 1016
93.75 -281.25 1268
-117.188 46.875 962
-242.188 398.438 1173
-23.4375 46.875 943
46.875 375 1189
179.688 -281.25 1016
-179.688 -54.6875 1057
-179.688 351.562 1236
289.062 203.125 2103
-226.562 156.25 967
179.688 -359.375 989
-85.9375 7.8125 940
0 328.125 1255
398.438 -39.0625 973
78.125 -382.812 1153
359.375 -31.25 973
390.625 -39.0625 973
-70.3125 351.562 1241
-54.6875 109.375 915
-101.562 296.875 1044
-46.875 375 1177
-296.875 375 1197
62.5 359.375 1177
-54.6875 31.25 973
-343.75 140.625 906
-117.188 -132.812 943
-437.5 -148.438 2984
85.9375 156.25 998
273.438 -15.625 970
289.062 218.75 1713
-164.062 156.25 975
242.188 203.125 1785
117.188 -250 1067
406.25 203.125 1680
-476.562 -390.625 2744
-101.562 367.188 1210
-140.625 -7.8125 954
132.812 -226.562 1057
-453.125 -257.812 2908
-117.188 -164.062 933
-101.562 -31.25 933
117.188 23.4375 956
218.75 -210.938 1016
-117.188 359.375 1214
-54.6875 23.4375 984
-218.75 312.5 1038
179.688 -265.625 1025
234.375 195.312 1785
289.062 -320.312 1108
-195.312 343.75 1236
312.5 -164.062 918
171.875 -7.8125 959
-179.688 398.438 1173
-148.438 304.688 1038
-296.875 140.625 906
-468.75 -226.562 2639
-242.188 390.625 1197
171.875 7.8125 967
-23.4375 39.0625 959
-93.75 -210.938 1101
218.75 -234.375 1050
15.625 281.25 1054
179.688 -375 981
187.5 0 962
-179.688 343.75 1241
-242.188 351.562 1232
234.375 -375 992
-179.688 296.875 1034
117.188 7.8125 956
328.125 -23.4375 973
-445.312 -187.5 2883
-109.375 367.188 1210
7.8125 296.875 1054
-62.5 109.375 915
-125 15.625 943
-85.9375 117.188 920
-304.688 398.438 1169
187.5 -359.375 989
281.25 0 973
-234.375 312.5 1038
-39.0625 281.25 1044
70.3125 -398.438 1153
-203.125 -109.375 1025
-242.188 328.125 1041
-273.438 406.25 1165
382.812 -195.312 935
-54.6875 351.562 1214
-31.25 289.062 1050
195.312 -171.875 933
117.188 234.375 1041
-148.438 359.375 1210
-109.375 335.938 1241
460.938 -289.062 1031
195.312 -296.875 1019
-164.062 328.125 1278
70.3125 7.8125 984
-46.875 281.25 1041
-218.75 390.625 1169
-257.812 -78.125 1219
-156.25 382.812 1173
210.938 367.188 1445
140.625 -437.5 1165
-132.812 -39.0625 943
125 7.8125 959
-304.688 140.625 906
93.75 -265.625 1214
78.125 15.625 975
265.625 390.625 1398
148.438 242.188 1696
-335.938 125 901
-406.25 -117.188 1381
265.625 -15.625 970
445.312 -46.875 981
-296.875 351.562 1259
-125 -117.188 978
0 62.5 923
312.5 -23.4375 973
-437.5 156.25 943
-257.812 312.5 1031
156.25 -414.062 981
23.4375 367.188 1223
-203.125 -15.625 1080
273.438 -179.688 930
429.688 -203.125 948
437.5 -23.4375 989
-132.812 304.688 1044
-210.938 46.875 975
15.625 320.312 1264
210.938 -234.375 1047
-414.062 109.375 903
-117.188 -148.438 933
-460.938 -296.875 2859
-210.938 320.312 1038
-23.4375 -203.125 995
-484.375 320.312 1947
-250 328.125 1034
125 -156.25 915
-46.875 328.125 1241
0 320.312 1268
156.25 242.188 1696
54.6875 343.75 1227
218.75 7.8125 973
-125 382.812 1181
23.4375 304.688 1292
-164.062 -85.9375 1001
-210.938 -23.4375 1063
-171.875 328.125 1268
-156.25 343.75 1241
476.562 -234.375 973
-218.75 218.75 992
85.9375 421.875 1185
70.3125 265.625 1054
39.0625 101.562 925
304.688 -234.375 1050
-195.312 85.9375 915
-195.312 -93.75 1025
-257.812 328.125 1034
210.938 -390.625 987
109.375 -148.438 906
-429.688 164.062 951
-140.625 -109.375 989
-15.625 289.062 1050
-132.812 320.312 1268
140.625 210.938 1766
-171.875 351.562 1241
0 343.75 1223
-203.125 -23.4375 1067
-250 93.75 908
-101.562 390.625 1177
-265.625 -164.062 1057
39.0625 -320.312 1232
-132.812 382.812 1177
-335.938 101.562 901
164.062 0 959
484.375 -23.4375 975
-226.562 429.688 1415
-429.688 148.438 903
-39.0625 -140.625 935
85.9375 15.625 964
-117.188 382.812 1181
-203.125 367.188 1210
-328.125 101.562 906
421.875 -203.125 946
-125 343.75 1241
-39.0625 -15.625 928
335.938 15.625 943
-101.562 -187.5 1115
-15.625 320.312 1283
-312.5 375 1206
-304.688 382.812 1197
23.4375 -54.6875 951
-101.562 312.5 1044
-218.75 304.688 1038
-164.062 320.312 1047
140.625 -164.062 923
359.375 296.875 1343
-85.9375 78.125 915
-273.438 304.688 1025
484.375 -54.6875 984
-31.25 312.5 1288
210.938 -289.062 1028
281.25 23.4375 940
164.062 289.062 1616
-117.188 101.562 915
-257.812 93.75 908
-484.375 -335.938 2744
-281.25 281.25 1013
-187.5 367.188 1214
-62.5 -70.3125 925
85.9375 7.8125 959
187.5 -289.062 1016
-46.875 -195.312 964
-46.875 359.375 1214
-125 101.562 915
-195.312 296.875 1034
-39.0625 359.375 1214
-125 117.188 913
-70.3125 -23.4375 925
-31.25 39.0625 959
296.875 -23.4375 970
117.188 -132.812 903
-468.75 -335.938 2789
-62.5 -101.562 933
-164.062 367.188 1202
0 304.688 1288
-15.625 375 1189
125 351.562 1214
-70.3125 117.188 923
171.875 -375 981
312.5 39.0625 946
-171.875 390.625 1177
-179.688 -31.25 1101
156.25 -242.188 1028
437.5 -250 1044
-265.625 93.75 908
-148.438 -46.875 1019
-15.625 109.375 925
304.688 -242.188 1067
460.938 -62.5 975
-187.5 296.875 1034
-93.75 320.312 1278
31.25 -7.8125 1016
-15.625 -15.625 935
-46.875 304.688 1047
-195.312 367.188 1214
7.8125 281.25 1054
-164.062 -164.062 930
31.25 367.188 1193
-257.812 335.938 1264
406.25 -195.312 933
-210.938 390.625 1173
-171.875 -85.9375 998
-164.062 257.812 1016
179.688 -7.8125 959
226.562 31.25 935
250 -390.625 995
7.8125 304.688 1288
-117.188 335.938 1241
-78.125 -187.5 946
-156.25 -62.5 1022
296.875 328.125 1404
140.625 320.312 1219
15.625 273.438 1050
453.125 39.0625 1004
-476.562 -382.812 2744
429.688 273.438 1404
-54.6875 289.062 1047
-39.0625 328.125 1241
-484.375 -453.125 2659
179.688 -398.438 978
-242.188 367.188 1232
-62.5 335.938 1241
85.9375 -156.25 920
140.625 15.625 967
15.625 -242.188 1177
-250 218.75 987
-117.188 359.375 1214
46.875 242.188 1034
140.625 7.8125 959
-70.3125 312.5 1288
-140.625 85.9375 913
-343.75 187.5 964
171.875 39.0625 930
-281.25 382.812 1193
-109.375 31.25 940
-46.875 351.562 1214
54.6875 359.375 1177
195.312 39.0625 933
-132.812 -54.6875 967
304.688 -7.8125 984
-31.25 15.625 940
382.812 -46.875 970
-132.812 343.75 1241
398.438 -23.4375 992
39.0625 359.375 1193
125 210.938 1757
257.812 -23.4375 964
-210.938 367.188 1206
-453.125 -226.562 2859
-187.5 343.75 1232
-70.3125 39.0625 959
-23.4375 375 1189
-7.8125 250 1031
-164.062 390.625 1177
-484.375 -320.312 2767
-304.688 375 1202
234.375 -7.8125 970
-226.562 218.75 992
171.875 -281.25 1016
-273.438 398.438 1173
-257.812 132.812 908
-164.062 -46.875 1044
-70.3125 46.875 951
164.062 -140.625 906
171.875 0 962
156.25 210.938 1766
-289.062 304.688 1025
140.625 23.4375 956
218.75 -171.875 920
257.812 -7.8125 973
-15.625 281.25 1050
203.125 -7.8125 964
-54.6875 312.5 1283
-242.188 343.75 1245
-117.188 289.062 1041
15.625 351.562 1223
171.875 -164.062 915
-210.938 0 1050
-125 -164.062 930
-257.812 375 1202
-242.188 -39.0625 1080
93.75 -328.125 1185
203.125 -328.125 1007
-234.375 132.812 913
406.25 -15.625 981
429.688 -39.0625 978
-93.75 382.812 1181
148.438 -359.375 981
-140.625 359.375 1210
125 -296.875 1038
328.125 281.25 1381
-101.562 -15.625 933
-46.875 335.938 1241
-460.938 -289.062 2859
-125 359.375 1214
156.25 -406.25 981
289.062 -7.8125 984
-421.875 109.375 903
-328.125 375 1161
-148.438 -171.875 930
-117.188 -125 973
62.5 7.8125 989
-187.5 -101.562 1013
62.5 335.938 1232
453.125 -203.125 938
218.75 -15.625 962
-46.875 289.062 1047
-78.125 -39.0625 928
-187.5 351.562 1232
31.25 343.75 1223
-265.625 398.438 1169
226.562 -171.875 928
171.875 289.062 1616
-7.8125 -54.6875 935
-70.3125 -171.875 948
-171.875 -62.5 1044
62.5 93.75 925
-234.375 343.75 1245
-242.188 -101.562 1105
-62.5 93.75 918
390.625 -46.875 973
-109.375 335.938 1241
218.75 -7.8125 967
-492.188 -367.188 2701
-23.4375 289.062 1050
-226.562 367.188 1227
195.312 -289.062 1022
-265.625 335.938 1268
-156.25 304.688 1038
171.875 -414.062 989
-132.812 101.562 915
-257.812 351.562 1227
-257.812 398.438 1173
-171.875 320.312 1047
-179.688 375 1206
-250 -171.875 1034
-93.75 -93.75 933
23.4375 375 1477
-265.625 132.812 906
-218.75 367.188 1197
187.5 -257.812 1028
148.438 429.688 1227
-31.25 351.562 1219
-85.9375 296.875 1047
-171.875 -39.0625 1047
-226.562 343.75 1259
-484.375 117.188 896
-250 -132.812 1080
390.625 -195.312 935
-476.562 -132.812 3149
15.625 -31.25 940
-195.312 343.75 1236
-23.4375 328.125 1250
-210.938 -46.875 1050
-195.312 -31.25 1063
-54.6875 -171.875 956
-203.125 -31.25 1060
-281.25 398.438 1197
70.3125 343.75 1232
242.188 -179.688 935
-171.875 398.438 1173
-101.562 320.312 1278
343.75 -39.0625 970
-93.75 -179.688 964
242.188 -335.938 1010
62.5 -312.5 1214
117.188 -156.25 915
-15.625 -46.875 933
-484.375 -437.5 2639
-281.25 304.688 1025
234.375 -351.562 1007
-164.062 359.375 1232
101.562 218.75 1028
-187.5 398.438 1173
-445.312 148.438 894
-54.6875 -62.5 923
-70.3125 -187.5 984
-382.812 398.438 1067
-187.5 101.562 913
-375 148.438 901
125 367.188 1149
117.188 -429.688 1153
-7.8125 85.9375 920
15.625 367.188 1227
-218.75 273.438 1022
-250 148.438 962
-101.562 343.75 1245
-93.75 -164.062 938
-117.188 -132.812 943
156.25 -359.375 984
484.375 -234.375 975
140.625 -445.312 1173
101.562 -304.688 1214
31.25 281.25 1054
132.812 -406.25 981
-250 85.9375 920
132.812 -164.062 925
-164.062 343.75 1241
0 85.9375 920
-195.312 375 1210
31.25 320.312 1259
-101.562 -179.688 935
-203.125 390.625 1169
-39.0625 -7.8125 933
-171.875 -164.062 933
62.5 265.625 1054
39.0625 -23.4375 964
-328.125 -164.062 1477
304.688 210.938 1713
7.8125 -250 1189
-218.75 -23.4375 1067
-15.625 -132.812 954
-117.188 -171.875 935
62.5 312.5 1268
-54.6875 375 1177
273.438 70.3125 992
-218.75 390.625 1169
-257.812 367.188 1227
429.688 -250 1060
-54.6875 -148.438 943
-125 335.938 1241
-437.5 148.438 903
-156.25 390.625 1173
-312.5 335.938 1259
-476.562 -375 2744
-39.0625 312.5 1283
210.938 -15.625 962
179.688 242.188 1688
109.375 7.8125 956
-15.625 7.8125 940
15.625 328.125 1255
-54.6875 -179.688 956
-78.125 -23.4375 928
-148.438 -39.0625 946
-468.75 -343.75 2767
-500 -445.312 2579
492.188 -54.6875 984
-140.625 382.812 1173
-7.8125 343.75 1223
257.812 -15.625 970
164.062 203.125 1766
210.938 -265.625 1034
-23.4375 351.562 1219
-125 382.812 1181
-7.8125 351.562 1219
-296.875 304.688 1022
-289.062 281.25 1010
78.125 -148.438 910
210.938 -343.75 1001
-242.188 312.5 1038
-343.75 101.562 901
484.375 -210.938 948
-476.562 406.25 1731
39.0625 -335.938 1202
-203.125 367.188 1210
-187.5 -7.8125 1054
320.312 62.5 995
429.688 -46.875 975
289.062 39.0625 940
335.938 -39.0625 970
164.062 15.625 962
-31.25 382.812 1185
-93.75 367.188 1206
-171.875 382.812 1206
203.125 -234.375 1044
-226.562 -23.4375 1077
476.562 -7.8125 956
-250 335.938 1264
93.75 -382.812 1153
-39.0625 -39.0625 925
23.4375 -398.438 1202
-31.25 375 1189
-140.625 -54.6875 967
-351.562 109.375 901
-46.875 375 1177
-109.375 -171.875 935
-492.188 -359.375 2767
-234.375 -101.562 1105
-429.688 109.375 903
31.25 -320.312 1241
-62.5 -171.875 951
-54.6875 -156.25 948
78.125 -398.438 1153
-195.312 351.562 1236
-250 -93.75 1105
-70.3125 -140.625 933
-62.5 351.562 1232
-234.375 312.5 1038
7.8125 390.625 1458
-46.875 281.25 1041
-39.0625 -62.5 925
23.4375 -226.562 1115
-70.3125 -101.562 928
-484.375 -445.312 2618
359.375 54.6875 951
-500 -343.75 2789
54.6875 -328.125 1206
-203.125 109.375 913
460.938 -23.4375 984
-15.625 -54.6875 935
-273.438 390.625 1197
-445.312 -85.9375 1317
351.562 -23.4375 981
-242.188 218.75 987
-242.188 218.75 987
179.688 -164.062 918
39.0625 -85.9375 975
250 -242.188 1054
-304.688 351.562 1232
171.875 -7.8125 959
250 -7.8125 973
-117.188 343.75 1241
-484.375 -328.125 2744
-171.875 375 1206
210.938 -382.812 987
-125 78.125 918
31.25 -101.562 970
70.3125 -296.875 1245
54.6875 437.5 1370
453.125 -46.875 981
-468.75 -328.125 2789
-320.312 375 1189
-148.438 -46.875 1019
-85.9375 23.4375 946
304.688 -164.062 918
-265.625 375 1193
476.562 -54.6875 984
-132.812 -179.688 1161
-171.875 390.625 1177
-265.625 328.125 1031
-148.438 15.625 970
-468.75 -351.562 2767
-437.5 -171.875 2933
-406.25 132.812 898
210.938 234.375 1696
46.875 320.312 1259
-375 132.812 901
-312.5 398.438 1165
7.8125 273.438 1050
-85.9375 -156.25 946
-359.375 125 901
78.125 -156.25 920
15.625 320.312 1264
-203.125 375 1210
296.875 -187.5 935
-445.312 132.812 896
-500 -421.875 2659
171.875 -390.625 975
15.625 -62.5 948
7.8125 328.125 1255
234.375 78.125 987
-203.125 296.875 1034
-125 359.375 1214
312.5 -187.5 933
85.9375 -304.688 1219
-46.875 328.125 1241
-85.9375 359.375 1210
-421.875 414.062 1731
273.438 -179.688 930
-257.812 359.375 1227
-70.3125 -156.25 954
0 -78.125 940
0 -23.4375 940
-289.062 398.438 1169
195.312 -250 1031
-226.562 390.625 1169
-125 320.312 1278
-195.312 328.125 1264
7.8125 343.75 1219
-39.0625 382.812 1185
125 0 954
-210.938 367.188 1206
-109.375 117.188 913
-101.562 46.875 956
-148.438 382.812 1177
195.312 85.9375 987
-132.812 382.812 1177
-85.9375 -164.062 943
-85.9375 31.25 946
15.625 296.875 1054
-437.5 -179.688 2933
-171.875 328.125 1268
-304.688 304.688 1022
39.0625 281.25 1054
46.875 367.188 1189
-195.312 398.438 1169
312.5 62.5 995
359.375 296.875 1343
-289.062 304.688 1025
-7.8125 -179.688 1001
-296.875 351.562 1259
125 62.5 925
-46.875 -179.688 962
-132.812 78.125 918
-140.625 -164.062 928
-85.9375 367.188 1210
-148.438 304.688 1038
-117.188 335.938 1241
-328.125 328.125 1025
-242.188 132.812 954
-234.375 218.75 989
-476.562 -398.438 2723
85.9375 281.25 1094
-46.875 359.375 1214
156.25 62.5 928
125 437.5 1236
-179.688 390.625 1177
-187.5 304.688 1038
140.625 132.812 1696
109.375 -289.062 1054
-156.25 343.75 1241
-54.6875 351.562 1214
-203.125 304.688 1038
-164.062 328.125 1278
156.25 0 956
-140.625 242.188 970
-257.812 351.562 1227
-265.625 398.438 1169
-453.125 -242.188 2789
234.375 -390.625 992
-117.188 -156.25 933
-117.188 289.062 1041
-476.562 351.562 1863
-93.75 -171.875 938
375 -195.312 940
179.688 -382.812 978
-453.125 148.438 894
-250 367.188 1227
-54.6875 70.3125 918
-7.8125 -195.312 998
46.875 -320.312 1223
265.625 -296.875 1031
-226.562 312.5 1038
210.938 -7.8125 967
328.125 39.0625 948
148.438 289.062 1624
117.188 0 951
54.6875 335.938 1232
-250 218.75 987
171.875 242.188 1680
-453.125 -132.812 2908
460.938 -62.5 975
-93.75 -7.8125 935
-273.438 93.75 908
-62.5 289.062 1047
-132.812 359.375 1210
-31.25 312.5 1288
54.6875 93.75 925
-62.5 70.3125 918
-15.625 250 1031
23.4375 367.188 1223
-70.3125 109.375 923
-492.188 -390.625 2701
-156.25 304.688 1038
-93.75 335.938 1245
-7.8125 -109.375 959
-101.562 359.375 1210
-7.8125 -101.562 946
-54.6875 -78.125 925
-171.875 367.188 1210
-265.625 -164.062 1057
-195.312 125 915
273.438 -132.812 923
54.6875 359.375 1177
-453.125 -250 2835
125 -429.688 1153
-250 312.5 1034
62.5 54.6875 925
7.8125 281.25 1054
-101.562 320.312 1278
171.875 203.125 1766
-23.4375 335.938 1250
-23.4375 -101.562 943
-7.8125 320.312 1273
132.812 320.312 1219
421.875 -54.6875 975
101.562 7.8125 956
132.812 351.562 1206
203.125 -398.438 987
375 -46.875 970
132.812 335.938 1206
304.688 -375 1185
-156.25 -85.9375 1001
-179.688 320.312 1041
0 343.75 1223
46.875 359.375 1189
226.562 -203.125 995
-93.75 382.812 1181
-125 289.062 1038
-218.75 343.75 1268
-218.75 367.188 1197
164.062 -164.062 918
-414.062 414.062 1073
-304.688 93.75 913
-54.6875 -85.9375 930
23.4375 304.688 1292
226.562 -367.188 995
-312.5 304.688 1025
-492.188 406.25 1739
39.0625 367.188 1193
-78.125 257.812 1025
93.75 15.625 962
414.062 -54.6875 973
-15.625 62.5 928
140.625 -406.25 978
-460.938 -304.688 2835
-109.375 289.062 1038
-132.812 117.188 915
-257.812 -148.438 1080
-476.562 -289.062 2812
-320.312 101.562 903
-46.875 335.938 1241
320.312 343.75 1359
-101.562 390.625 1177
171.875 15.625 959
-203.125 125 915
-445.312 -218.75 2908
54.6875 78.125 923
46.875 343.75 1227
406.25 257.812 1452
-429.688 414.062 1739
203.125 -296.875 1019
-453.125 -257.812 2908
289.062 171.875 1776
210.938 -226.562 1050
-132.812 390.625 1177
-31.25 289.062 1050
148.438 -406.25 978
312.5 -31.25 970
-234.375 328.125 1044
187.5 -359.375 989
-132.812 335.938 1241
203.125 296.875 1594
-445.312 -148.438 2908
-93.75 23.4375 943
-46.875 -164.062 959
-109.375 296.875 1044
265.625 -179.688 930
203.125 -375 989
-125 -179.688 935
-273.438 398.438 1173
-117.188 -15.625 933
437.5 -54.6875 975
-242.188 -109.375 1105
-234.375 390.625 1202
-54.6875 -187.5 959
-257.812 328.125 1034
-109.375 320.312 1278
242.188 328.125 1523
23.4375 328.125 1255
-164.062 -15.625 964
218.75 54.6875 938
218.75 195.312 1776
-125 54.6875 954
7.8125 -54.6875 943
-23.4375 312.5 1292
-257.812 117.188 908
-62.5 39.0625 956
-39.0625 312.5 1283
101.562 23.4375 959
-85.9375 -46.875 930
70.3125 367.188 1197
-500 406.25 1739
-468.75 -257.812 2812
-23.4375 15.625 940
23.4375 -39.0625 946
-132.812 -164.062 928
15.625 304.688 1292
-195.312 343.75 1236
-93.75 289.062 1041
-250 132.812 908
-195.312 375 1210
-101.562 -23.4375 933
-312.5 351.562 1232
171.875 62.5 930
242.188 -320.312 1019
250 -23.4375 962
-390.625 -156.25 1464
296.875 -335.938 1090
273.438 218.75 2090
-46.875 -171.875 962
429.688 -203.125 948
-296.875 382.812 1197
-101.562 -171.875 935
-398.438 109.375 901
187.5 -382.812 981
-54.6875 335.938 1241
-445.312 -226.562 2933
-62.5 109.375 915
-15.625 335.938 1241
-54.6875 304.688 1050
-148.438 320.312 1283
140.625 -351.562 984
-265.625 93.75 908
-15.625 -15.625 935
257.812 -23.4375 964
23.4375 343.75 1227
-218.75 296.875 1034
-164.062 304.688 1041
125 234.375 1722
203.125 304.688 1586
-195.312 351.562 1236
-54.6875 359.375 1214
140.625 359.375 1206
179.688 -281.25 1016
-132.812 -54.6875 967
-281.25 328.125 1031
62.5 320.312 1255
226.562 -359.375 998
-179.688 367.188 1210
-31.25 328.125 1245
-117.188 234.375 973
492.188 -242.188 962
-195.312 -39.0625 1060
234.375 -234.375 1050
148.438 -359.375 981
164.062 0 959
-265.625 390.625 1197
-351.562 140.625 903
23.4375 296.875 1050
437.5 -203.125 946
-15.625 351.562 1219
335.938 351.562 1354
-226.562 367.188 1227
15.625 351.562 1223
-179.688 328.125 1264
-101.562 382.812 1181
375 351.562 1338
265.625 70.3125 940
265.625 70.3125 940
-109.375 -31.25 935
250 7.8125 970
-210.938 296.875 1034
-62.5 -164.062 956
-257.812 335.938 1264
-101.562 -156.25 933
-46.875 -62.5 925
-7.8125 101.562 923
-117.188 367.188 1210
-304.688 281.25 1010
-468.75 -265.625 2789
-23.4375 -125 967
-476.562 -296.875 2767
-281.25 398.438 1197
273.438 210.938 1785
-125 359.375 1214
-125 382.812 1181
390.625 31.25 948
-62.5 -62.5 923
-148.438 31.25 987
-492.188 296.875 2005
421.875 -203.125 946
-210.938 390.625 1173
101.562 218.75 1028
-257.812 312.5 1031
-242.188 218.75 987
-101.562 312.5 1044
304.688 -187.5 935
-265.625 351.562 1227
-289.062 375 1189
-187.5 382.812 1202
-304.688 406.25 1165
-78.125 31.25 975
-359.375 117.188 898
-226.562 390.625 1169
-210.938 46.875 975
414.062 -203.125 946
-31.25 351.562 1219
-195.312 -70.3125 1060
-445.312 -210.938 2883
-195.312 218.75 998
210.938 -234.375 1047
406.25 46.875 1001
-265.625 109.375 903
-218.75 390.625 1169
109.375 -312.5 1038
-140.625 -39.0625 943
-140.625 382.812 1173
335.938 265.625 1470
-234.375 304.688 1038
257.812 203.125 1776
-15.625 -117.188 967
-250 -54.6875 1080
-46.875 312.5 1283
-234.375 -54.6875 1077
-117.188 359.375 1214
23.4375 -320.312 1236
-109.375 390.625 1181
-250 -46.875 1084
-203.125 398.438 1169
468.75 -234.375 975
-132.812 320.312 1268
-164.062 390.625 1177
218.75 -265.625 1034
-109.375 -156.25 933
-46.875 382.812 1177
-304.688 359.375 1227
70.3125 -460.938 1185
-398.438 -156.25 3064
242.188 -242.188 1050
-62.5 328.125 1241
-125 -164.062 930
-156.25 359.375 1206
-70.3125 -101.562 928
-132.812 382.812 1177
23.4375 281.25 1050
117.188 -375 998
195.312 -343.75 998
-289.062 382.812 1189
7.8125 320.312 1255
226.562 -7.8125 970
-281.25 132.812 906
-289.062 398.438 1169
-70.3125 132.812 973
39.0625 242.188 1034
-226.562 273.438 1019
-54.6875 289.062 1047
484.375 31.25 956
125 375 1236
-203.125 343.75 1241
-187.5 390.625 1173
-171.875 -195.312 1161
-437.5 109.375 903
-117.188 296.875 1044
-296.875 304.688 1022
-320.312 304.688 1025
-312.5 375 1206
117.188 7.8125 956
31.25 359.375 1219
492.188 -312.5 1034
-23.4375 281.25 1050
-203.125 296.875 1034
-125 -62.5 951
367.188 -257.812 1097
476.562 -23.4375 975
-125 39.0625 956
-62.5 351.562 1214
179.688 -398.438 975
-39.0625 -195.312 970
-78.125 23.4375 981
-210.938 343.75 1245
-109.375 -187.5 1115
476.562 -210.938 938
390.625 46.875 992
-140.625 117.188 915
-234.375 367.188 1210
-78.125 -7.8125 935
-23.4375 250 1031
-164.062 -7.8125 964
78.125 -7.8125 948
343.75 -257.812 1094
46.875 -453.125 1197
-203.125 375 1210
-125 335.938 1245
437.5 39.0625 998
-476.562 -304.688 2812
-140.625 140.625 970
-179.688 390.625 1169
179.688 375 1439
-179.688 -23.4375 1080
210.938 -171.875 918
-109.375 312.5 1278
-78.125 -46.875 925
-414.062 148.438 901
-156.25 7.8125 967
0 -62.5 940
-125 -148.438 948
-210.938 -171.875 989
-437.5 -148.438 1452
117.188 210.938 1748
-132.812 359.375 1210
-234.375 -101.562 1105
-70.3125 15.625 989
-351.562 101.562 901
-164.062 343.75 1232
-31.25 -109.375 943
-195.312 -78.125 1063
-265.625 203.125 978
242.188 -304.688 1025
-304.688 304.688 1025
164.062 7.8125 967
-242.188 328.125 1268
-226.562 218.75 989
492.188 101.562 1236
31.25 -421.875 1193
-78.125 46.875 946
250 -273.438 1041
148.438 351.562 1210
-125 -39.0625 938
453.125 -62.5 973
132.812 62.5 925
0 -54.6875 938
-7.8125 250 1034
-140.625 101.562 915
304.688 39.0625 940
-85.9375 351.562 1210
-125 367.188 1206
-70.3125 -179.688 948
78.125 375 1169
265.625 -273.438 1044
-242.188 -39.0625 1105
156.25 -351.562 987
54.6875 359.375 1189
132.812 15.625 959
343.75 -7.8125 964
-39.0625 39.0625 951
