ply
format ascii 1.0
comment Created by Open3D
element vertex 2441
property double x
property double y
property double z
end_header
335.938 -109.375 839
359.375 210.938 819
101.562 265.625 641
140.625 187.5 668
-226.562 242.188 675
-375 -148.438 741
132.812 23.4375 733
125 -54.6875 769
132.812 31.25 730
226.562 343.75 769
445.312 0 882
335.938 -257.812 2286
-101.562 117.188 655
117.188 335.938 614
289.062 -78.125 973
109.375 257.812 643
-203.125 -85.9375 738
-328.125 7.8125 790
-7.8125 -476.562 2680
117.188 218.75 658
132.812 -85.9375 783
-203.125 218.75 655
125 242.188 648
-343.75 -281.25 790
351.562 -187.5 1034
117.188 375 602
-179.688 226.562 658
-195.312 296.875 652
-343.75 -320.312 787
-375 -39.0625 819
-210.938 187.5 697
328.125 -78.125 967
-187.5 218.75 658
125 234.375 652
-101.562 140.625 664
-85.9375 125 661
-109.375 78.125 664
-265.625 -125 759
-132.812 171.875 659
117.188 320.312 621
125 -132.812 811
132.812 156.25 680
-195.312 125 683
-367.188 -273.438 774
320.312 -109.375 987
109.375 179.688 672
148.438 -304.688 925
7.8125 390.625 607
140.625 -257.812 889
-93.75 132.812 661
117.188 171.875 675
-398.438 -296.875 759
-148.438 -468.75 2723
-156.25 234.375 652
273.438 367.188 755
-398.438 -281.25 759
-351.562 -351.562 787
-140.625 171.875 658
304.688 -78.125 970
148.438 54.6875 722
-406.25 -226.562 769
148.438 -242.188 878
335.938 -250 2286
0 -476.562 2701
148.438 23.4375 731
140.625 70.3125 714
109.375 171.875 675
132.812 328.125 619
125 39.0625 728
132.812 -289.062 910
328.125 -85.9375 973
484.375 -187.5 716
-109.375 156.25 668
-335.938 -15.625 741
250 250 809
109.375 195.312 667
-382.812 -140.625 739
-125 101.562 657
-445.312 101.562 757
-250 -125 755
343.75 -148.438 1010
140.625 195.312 666
148.438 -15.625 749
-359.375 -367.188 783
-320.312 -117.188 750
148.438 -39.0625 761
117.188 312.5 623
140.625 179.688 671
132.812 -101.562 794
-234.375 -156.25 769
140.625 -242.188 878
-117.188 296.875 647
-203.125 -164.062 716
-289.062 -117.188 739
-203.125 125 684
320.312 -132.812 1001
-414.062 -234.375 766
328.125 -195.312 1041
-468.75 -46.875 652
-320.312 -31.25 714
328.125 -203.125 1050
-171.875 140.625 683
148.438 15.625 736
132.812 304.688 627
132.812 -109.375 798
320.312 -179.688 1031
-351.562 -242.188 723
140.625 -148.438 819
-218.75 273.438 662
140.625 62.5 716
-468.75 39.0625 691
-85.9375 140.625 674
117.188 140.625 688
117.188 125 693
-343.75 -289.062 792
148.438 -218.75 860
343.75 62.5 889
-171.875 179.688 661
93.75 335.938 616
7.8125 -476.562 2701
-140.625 187.5 657
-210.938 203.125 691
140.625 187.5 668
132.812 0 746
-140.625 -320.312 973
-250 -109.375 694
148.438 31.25 730
-500 -62.5 624
-437.5 93.75 746
31.25 406.25 619
-351.562 -257.812 720
140.625 -289.062 910
312.5 -62.5 959
359.375 203.125 823
-453.125 -23.4375 664
328.125 -187.5 1038
125 -171.875 833
-164.062 265.625 631
140.625 -218.75 862
101.562 257.812 643
-203.125 -78.125 739
62.5 -320.312 943
156.25 -62.5 771
140.625 -250 880
101.562 351.562 609
125 46.875 725
-492.188 7.8125 666
-164.062 242.188 640
-351.562 -171.875 747
-445.312 -15.625 676
320.312 -78.125 967
328.125 -62.5 959
117.188 39.0625 728
-203.125 195.312 693
117.188 156.25 682
-109.375 132.812 658
-242.188 -203.125 773
-429.688 7.8125 696
-132.812 218.75 661
-460.938 -234.375 752
-140.625 226.562 655
-203.125 242.188 640
-414.062 70.3125 728
-101.562 46.875 749
-421.875 -312.5 747
-117.188 93.75 659
-93.75 125 657
-187.5 234.375 646
140.625 -140.625 815
-453.125 -351.562 744
31.25 -320.312 948
-125 179.688 658
-484.375 -257.812 744
343.75 -156.25 1013
101.562 328.125 619
-109.375 93.75 659
-343.75 -218.75 730
132.812 171.875 674
-351.562 -343.75 785
109.375 164.062 679
289.062 -132.812 1004
132.812 312.5 623
101.562 -320.312 938
93.75 398.438 598
-203.125 257.812 638
390.625 398.438 736
-109.375 62.5 671
-500 -54.6875 623
-484.375 -70.3125 631
-187.5 164.062 664
320.312 -125 998
-320.312 -234.375 739
-156.25 289.062 653
-414.062 62.5 720
78.125 390.625 600
-7.8125 390.625 610
-359.375 -132.812 738
132.812 7.8125 741
468.75 -343.75 627
-101.562 179.688 667
-203.125 281.25 658
148.438 7.8125 739
171.875 -203.125 851
132.812 296.875 629
132.812 289.062 631
-390.625 -187.5 807
-500 -359.375 731
-398.438 -117.188 871
-382.812 -250 722
132.812 140.625 687
-414.062 -296.875 752
-125 203.125 659
-281.25 70.3125 754
398.438 -132.812 785
140.625 -226.562 864
148.438 -46.875 766
-210.938 54.6875 755
125 226.562 654
125 -179.688 837
140.625 -265.625 894
335.938 -179.688 1028
132.812 148.438 683
117.188 296.875 630
148.438 15.625 736
-335.938 -203.125 734
101.562 273.438 638
117.188 312.5 623
125 31.25 731
-437.5 85.9375 739
125 218.75 657
-242.188 -210.938 767
109.375 156.25 682
-351.562 -234.375 727
203.125 -203.125 1063
-343.75 -312.5 787
117.188 304.688 627
-242.188 242.188 676
148.438 85.9375 707
-54.6875 218.75 674
148.438 23.4375 731
-62.5 -54.6875 790
-460.938 -320.312 739
132.812 -125 805
343.75 -132.812 998
-148.438 289.062 653
140.625 -281.25 906
-296.875 -132.812 746
-218.75 62.5 754
-367.188 -93.75 706
-156.25 375 623
132.812 -132.812 811
-93.75 101.562 659
93.75 328.125 620
132.812 320.312 621
-203.125 -54.6875 757
-445.312 -226.562 757
-460.938 -257.812 746
140.625 328.125 619
78.125 -320.312 940
-281.25 -101.562 687
-453.125 -343.75 744
-476.562 -289.062 739
140.625 -273.438 901
148.438 -257.812 887
132.812 187.5 667
-242.188 -140.625 764
140.625 156.25 680
-164.062 289.062 653
117.188 328.125 618
148.438 39.0625 728
125 398.438 601
328.125 -117.188 989
-328.125 -23.4375 728
-437.5 -164.062 809
7.8125 -320.312 951
312.5 -70.3125 964
-421.875 -250 757
-320.312 -62.5 697
-234.375 -195.312 776
125 390.625 600
-289.062 -101.562 687
93.75 312.5 625
-148.438 125 664
-156.25 -320.312 975
-117.188 70.3125 671
117.188 281.25 635
23.4375 -320.312 951
-164.062 85.9375 736
-421.875 -289.062 749
468.75 -46.875 829
335.938 -39.0625 940
-171.875 132.812 683
-226.562 -140.625 704
140.625 179.688 671
-421.875 62.5 716
-210.938 140.625 684
-234.375 226.562 682
140.625 203.125 662
109.375 148.438 686
-406.25 70.3125 731
-296.875 -101.562 690
-125 101.562 657
-406.25 -320.312 752
312.5 -54.6875 956
132.812 -93.75 789
-203.125 -70.3125 742
23.4375 390.625 606
70.3125 -320.312 943
-93.75 62.5 741
-375 -210.938 730
117.188 31.25 733
-210.938 195.312 693
-398.438 -179.688 811
-117.188 304.688 644
132.812 70.3125 714
-398.438 -93.75 858
-203.125 -62.5 749
-109.375 179.688 664
132.812 -15.625 749
-187.5 265.625 663
-320.312 -85.9375 690
-335.938 -210.938 733
140.625 171.875 674
132.812 281.25 634
140.625 62.5 716
-414.062 31.25 720
-187.5 140.625 682
-31.25 171.875 690
15.625 -320.312 954
460.938 -179.688 730
148.438 -39.0625 761
93.75 406.25 603
54.6875 -320.312 946
101.562 226.562 657
148.438 7.8125 739
-85.9375 187.5 663
125 234.375 652
-164.062 273.438 631
-304.688 -101.562 686
-234.375 -187.5 780
-195.312 242.188 641
140.625 187.5 668
140.625 164.062 676
0 -320.312 951
-421.875 -265.625 750
140.625 78.125 711
-500 -242.188 750
148.438 -31.25 757
-343.75 -218.75 730
-257.812 -117.188 755
-62.5 148.438 690
125 382.812 601
-343.75 -296.875 789
109.375 242.188 649
-210.938 171.875 703
-289.062 -109.375 739
125 -187.5 843
-210.938 125 723
117.188 15.625 739
437.5 0 887
320.312 -31.25 940
-296.875 -93.75 690
242.188 328.125 774
359.375 -31.25 896
-273.438 -140.625 800
148.438 46.875 723
125 375 602
-109.375 117.188 655
-484.375 -390.625 730
148.438 -7.8125 747
117.188 289.062 631
-234.375 0 780
101.562 250 648
101.562 289.062 632
109.375 187.5 670
273.438 0 928
320.312 -210.938 1050
-476.562 -281.25 741
148.438 0 744
117.188 148.438 686
132.812 304.688 627
-7.8125 382.812 610
-398.438 -156.25 896
-398.438 -125 875
-492.188 -78.125 630
-234.375 -156.25 769
-351.562 -101.562 700
-164.062 250 635
140.625 46.875 723
140.625 -304.688 925
-164.062 195.312 657
-375 -31.25 817
-406.25 -218.75 774
46.875 -320.312 946
-54.6875 148.438 691
125 15.625 738
273.438 140.625 860
320.312 -140.625 1004
140.625 0 744
156.25 -140.625 813
335.938 -187.5 1034
492.188 15.625 880
101.562 320.312 621
109.375 -320.312 938
132.812 -23.4375 755
132.812 296.875 629
-429.688 -273.438 749
-492.188 312.5 668
132.812 140.625 687
140.625 210.938 659
312.5 -78.125 970
132.812 -140.625 815
109.375 265.625 641
-328.125 -125 781
125 -164.062 831
-320.312 -164.062 741
156.25 39.0625 727
93.75 343.75 613
-476.562 -15.625 647
-476.562 -54.6875 635
-359.375 -359.375 781
-15.625 -476.562 2701
-117.188 101.562 655
-125 171.875 661
125 414.062 742
-335.938 -140.625 766
335.938 -125 992
328.125 -203.125 1050
-179.688 70.3125 746
125 390.625 600
-54.6875 156.25 698
109.375 117.188 698
-382.812 -273.438 766
140.625 140.625 687
-468.75 -242.188 750
-187.5 125 683
343.75 -320.312 2398
-187.5 148.438 684
125 -148.438 821
492.188 7.8125 873
-328.125 -179.688 736
39.0625 406.25 614
109.375 218.75 657
85.9375 390.625 599
-312.5 -101.562 686
-171.875 195.312 661
-78.125 195.312 659
-39.0625 179.688 688
132.812 281.25 634
-437.5 0 686
109.375 140.625 688
-492.188 -367.188 727
-343.75 -164.062 746
132.812 125 691
-7.8125 -320.312 954
-242.188 -140.625 764
140.625 54.6875 722
-289.062 -117.188 739
-195.312 203.125 666
117.188 117.188 698
-23.4375 -320.312 956
-140.625 257.812 631
140.625 -296.875 915
-132.812 367.188 622
-414.062 23.4375 719
289.062 -140.625 1007
-93.75 54.6875 744
132.812 132.812 688
-273.438 -109.375 761
31.25 -320.312 948
-101.562 195.312 666
132.812 265.625 640
125 210.938 661
125 70.3125 716
-210.938 -39.0625 759
101.562 234.375 653
101.562 242.188 650
-406.25 -156.25 833
-414.062 -148.438 896
125 -156.25 825
140.625 148.438 683
-218.75 226.562 641
-421.875 23.4375 704
117.188 23.4375 736
304.688 140.625 854
140.625 156.25 680
-250 -132.812 761
109.375 234.375 652
-23.4375 382.812 612
-351.562 -265.625 720
109.375 390.625 598
125 23.4375 734
101.562 335.938 616
93.75 382.812 601
-101.562 117.188 655
125 7.8125 742
-148.438 375 623
117.188 296.875 630
-187.5 132.812 682
-164.062 296.875 649
-429.688 109.375 750
-476.562 -382.812 730
-335.938 0 794
-382.812 -242.188 722
101.562 296.875 630
132.812 -164.062 829
132.812 39.0625 728
-85.9375 179.688 666
414.062 -398.438 659
-164.062 257.812 632
-179.688 171.875 663
140.625 164.062 676
-125 101.562 657
109.375 109.375 701
125 226.562 654
-390.625 -242.188 722
-109.375 70.3125 671
406.25 -382.812 662
-234.375 234.375 680
62.5 -320.312 943
109.375 125 693
132.812 -148.438 821
148.438 31.25 730
-476.562 -148.438 908
164.062 -195.312 843
109.375 250 647
-320.312 -171.875 741
125 0 746
-343.75 -304.688 787
-367.188 -195.312 731
312.5 -85.9375 973
-148.438 -320.312 975
125 375 602
-164.062 85.9375 736
-296.875 -109.375 742
117.188 101.562 703
0 382.812 609
132.812 -171.875 833
250 218.75 823
109.375 132.812 693
328.125 -7.8125 928
-492.188 -250 747
-195.312 226.562 648
492.188 -187.5 704
-31.25 375 615
-117.188 70.3125 671
-421.875 70.3125 722
132.812 273.438 637
-210.938 367.188 630
-320.312 -62.5 697
-375 -257.812 723
-273.438 -93.75 687
195.312 101.562 885
93.75 296.875 631
-242.188 -117.188 694
148.438 23.4375 731
296.875 -85.9375 975
117.188 281.25 635
-335.938 343.75 647
7.8125 -320.312 951
148.438 -296.875 915
-398.438 -132.812 880
109.375 226.562 655
-234.375 -164.062 781
-351.562 -234.375 727
335.938 -148.438 1010
-148.438 210.938 657
476.562 23.4375 896
335.938 -195.312 1041
-226.562 210.938 687
-351.562 -85.9375 698
-390.625 -289.062 761
-218.75 218.75 686
312.5 -117.188 992
-460.938 -31.25 661
-195.312 195.312 694
242.188 250 809
148.438 -15.625 749
148.438 -39.0625 761
-367.188 -367.188 778
148.438 -23.4375 754
125 203.125 663
-234.375 132.812 722
-31.25 -476.562 2680
-54.6875 140.625 691
-382.812 -265.625 766
-31.25 -320.312 956
-15.625 -320.312 956
109.375 375 603
132.812 250 646
125 62.5 717
-132.812 210.938 661
109.375 203.125 664
335.938 -265.625 2301
-226.562 250 671
125 367.188 604
109.375 382.812 601
-320.312 -85.9375 690
437.5 -351.562 636
101.562 210.938 662
-367.188 -109.375 708
-187.5 210.938 661
-492.188 85.9375 739
-117.188 54.6875 747
23.4375 -320.312 951
156.25 -125 803
-484.375 -273.438 741
-492.188 -273.438 742
-62.5 -320.312 959
15.625 -320.312 954
-39.0625 -476.562 2680
-242.188 -148.438 766
156.25 -156.25 821
-234.375 -171.875 794
132.812 -179.688 837
-273.438 -109.375 761
-257.812 -125 757
-265.625 -125 759
117.188 -78.125 783
-210.938 -7.8125 785
125 -23.4375 755
312.5 -62.5 959
-109.375 78.125 664
-171.875 85.9375 738
-117.188 62.5 671
-375 70.3125 764
132.812 101.562 703
-117.188 101.562 655
-421.875 93.75 746
109.375 93.75 706
117.188 7.8125 742
445.312 7.8125 887
-62.5 0 766
-414.062 54.6875 717
140.625 46.875 723
-179.688 125 684
140.625 132.812 688
140.625 140.625 687
-62.5 156.25 698
-117.188 187.5 661
-109.375 187.5 663
-179.688 195.312 666
-70.3125 382.812 613
93.75 304.688 628
132.812 257.812 642
125 351.562 609
101.562 312.5 624
78.125 -375 2659
156.25 -148.438 817
164.062 -179.688 835
125 -226.562 871
312.5 -70.3125 964
148.438 -31.25 757
132.812 117.188 697
-93.75 46.875 746
148.438 15.625 736
203.125 195.312 839
-31.25 132.812 687
-398.438 335.938 654
117.188 273.438 637
-406.25 -171.875 815
-179.688 -234.375 913
140.625 23.4375 731
-453.125 101.562 757
132.812 265.625 640
140.625 -289.062 910
-23.4375 -39.0625 776
-382.812 -257.812 722
164.062 117.188 691
-140.625 265.625 630
-156.25 -171.875 869
-382.812 -250 722
-437.5 101.562 755
-445.312 101.562 757
-421.875 101.562 754
-421.875 -406.25 771
78.125 -320.312 940
39.0625 390.625 604
0 390.625 609
-257.812 -218.75 766
-351.562 -109.375 707
125 382.812 601
171.875 -218.75 858
31.25 390.625 606
304.688 7.8125 923
-242.188 -203.125 773
148.438 7.8125 739
-414.062 78.125 733
-203.125 226.562 646
-210.938 -195.312 747
-70.3125 -320.312 959
-46.875 164.062 694
320.312 -39.0625 946
109.375 367.188 604
-78.125 382.812 613
-343.75 -210.938 731
117.188 93.75 706
125 46.875 725
-117.188 164.062 664
-359.375 -312.5 778
-312.5 351.562 643
-500 -85.9375 632
125 54.6875 722
-203.125 171.875 703
132.812 289.062 631
-273.438 351.562 640
101.562 359.375 608
125 -15.625 752
-23.4375 -476.562 2680
460.938 117.188 849
-382.812 -218.75 789
93.75 367.188 606
125 -39.0625 762
320.312 -156.25 1016
132.812 -203.125 851
125 195.312 666
-218.75 203.125 691
-492.188 -218.75 759
85.9375 375 604
320.312 -171.875 1028
-179.688 367.188 625
-390.625 -171.875 831
109.375 195.312 667
125 -7.8125 749
117.188 281.25 635
-171.875 234.375 657
-179.688 109.375 728
125 -218.75 862
-390.625 -187.5 807
117.188 265.625 641
-312.5 -148.438 746
-375 -203.125 802
-390.625 -156.25 741
-390.625 -265.625 764
421.875 70.3125 880
-125 93.75 659
132.812 250 646
-351.562 -335.938 781
-156.25 -468.75 2744
-7.8125 -476.562 2680
-234.375 148.438 714
-500 -406.25 749
-54.6875 148.438 691
-148.438 101.562 663
109.375 390.625 598
140.625 31.25 730
148.438 -70.3125 776
-195.312 -70.3125 752
117.188 289.062 631
117.188 125 693
85.9375 359.375 609
-203.125 203.125 691
93.75 375 604
125 218.75 657
117.188 78.125 713
-398.438 -390.625 773
304.688 -62.5 959
54.6875 -320.312 946
125 -31.25 761
-429.688 -257.812 752
179.688 453.125 728
156.25 109.375 697
-85.9375 210.938 679
-453.125 -296.875 741
93.75 273.438 641
140.625 109.375 698
125 -234.375 875
140.625 -312.5 928
-328.125 -453.125 2812
125 -242.188 878
234.375 250 811
312.5 -101.562 984
312.5 -78.125 970
289.062 -445.312 2579
-164.062 -468.75 2744
-304.688 -93.75 691
-414.062 -273.438 754
312.5 -140.625 1007
140.625 -195.312 845
132.812 125 691
-171.875 117.188 684
-179.688 132.812 682
320.312 -164.062 1022
-476.562 -54.6875 635
-117.188 54.6875 747
-445.312 -343.75 744
101.562 203.125 666
125 343.75 612
382.812 265.625 789
-359.375 343.75 650
328.125 -164.062 1022
-257.812 -460.938 2789
437.5 -101.562 792
-78.125 -460.938 2723
-406.25 -101.562 862
132.812 -195.312 845
93.75 351.562 610
-187.5 359.375 628
312.5 -85.9375 973
-265.625 -460.938 2789
109.375 359.375 607
320.312 -117.188 992
-195.312 132.812 682
-382.812 -312.5 761
328.125 -109.375 987
148.438 281.25 634
-421.875 85.9375 739
312.5 -93.75 978
-132.812 164.062 661
-132.812 164.062 661
140.625 -132.812 811
-351.562 -226.562 727
140.625 117.188 696
132.812 234.375 650
-93.75 125 657
-179.688 281.25 655
85.9375 390.625 599
109.375 351.562 610
328.125 -101.562 981
132.812 31.25 730
-359.375 -257.812 722
140.625 -281.25 906
-460.938 -281.25 741
-156.25 164.062 661
101.562 343.75 613
476.562 31.25 891
132.812 -156.25 825
117.188 164.062 678
445.312 -312.5 652
164.062 -132.812 809
-351.562 -164.062 749
-414.062 328.125 658
132.812 242.188 648
117.188 85.9375 710
-203.125 273.438 661
-250 -210.938 769
140.625 281.25 634
109.375 375 603
117.188 351.562 610
-500 101.562 761
125 31.25 731
492.188 -187.5 704
-125 62.5 670
-210.938 265.625 666
125 210.938 661
343.75 -179.688 1028
-78.125 375 614
460.938 -148.438 749
93.75 281.25 637
-15.625 382.812 610
125 -46.875 766
70.3125 -320.312 943
265.625 7.8125 925
429.688 0 889
-460.938 101.562 759
-234.375 -132.812 704
140.625 101.562 701
-39.0625 382.812 612
148.438 -23.4375 754
125 39.0625 728
125 203.125 663
-148.438 226.562 654
117.188 -85.9375 785
132.812 101.562 703
125 -195.312 847
7.8125 -320.312 951
23.4375 -320.312 951
85.9375 351.562 610
132.812 234.375 650
-109.375 46.875 750
-320.312 -195.312 739
117.188 62.5 719
-31.25 -320.312 956
-351.562 -273.438 787
-203.125 -203.125 738
164.062 109.375 697
132.812 23.4375 733
-179.688 -117.188 708
125 -320.312 935
125 179.688 671
101.562 218.75 659
-203.125 218.75 655
460.938 -109.375 780
-46.875 -476.562 2680
-234.375 218.75 686
-257.812 70.3125 752
117.188 -31.25 761
-484.375 -54.6875 630
-101.562 140.625 664
382.812 -7.8125 903
-375 62.5 767
-421.875 62.5 716
117.188 257.812 643
-414.062 -156.25 825
-195.312 218.75 658
-15.625 -320.312 956
414.062 -351.562 648
-140.625 187.5 657
109.375 78.125 713
132.812 93.75 704
164.062 93.75 701
-156.25 156.25 663
117.188 0 746
-203.125 156.25 710
125 343.75 612
460.938 0 880
-78.125 62.5 739
484.375 -179.688 723
-257.812 0 774
-78.125 -320.312 959
117.188 54.6875 722
109.375 85.9375 710
-226.562 0 781
125 187.5 667
-117.188 78.125 664
-257.812 54.6875 761
93.75 414.062 607
343.75 -164.062 1022
140.625 78.125 711
-359.375 -242.188 722
-351.562 343.75 649
-250 -117.188 694
85.9375 343.75 614
164.062 234.375 823
31.25 -320.312 948
-414.062 -132.812 885
312.5 -109.375 987
-250 234.375 680
-328.125 343.75 647
-156.25 234.375 652
-367.188 -328.125 773
132.812 226.562 653
93.75 320.312 622
-414.062 -125 878
-476.562 -242.188 749
101.562 265.625 641
140.625 15.625 736
46.875 390.625 604
-335.938 -328.125 796
250 242.188 813
-476.562 -187.5 778
-85.9375 375 616
312.5 -54.6875 956
85.9375 367.188 606
-406.25 -250 762
-500 -304.688 739
-328.125 -85.9375 694
-421.875 -242.188 757
132.812 242.188 648
117.188 70.3125 716
132.812 -132.812 811
-476.562 -289.062 739
117.188 -93.75 789
-500 -250 747
140.625 0 744
-296.875 -109.375 742
-195.312 234.375 644
-476.562 -46.875 634
109.375 70.3125 716
-359.375 -250 722
304.688 -46.875 951
-382.812 -46.875 825
-296.875 -101.562 690
156.25 125 691
-140.625 218.75 658
312.5 -46.875 948
-265.625 359.375 637
-437.5 328.125 661
-62.5 -320.312 959
109.375 -320.312 938
-335.938 -85.9375 694
-70.3125 -320.312 959
-390.625 -390.625 776
117.188 -39.0625 762
-437.5 109.375 752
-242.188 -148.438 766
-54.6875 -320.312 956
101.562 257.812 643
296.875 -101.562 984
140.625 109.375 698
-500 -85.9375 632
101.562 171.875 676
117.188 -46.875 767
-210.938 257.812 638
-343.75 -7.8125 754
171.875 -179.688 835
-484.375 -39.0625 634
125 335.938 614
93.75 265.625 642
-359.375 -46.875 766
109.375 210.938 661
-500 312.5 670
-367.188 -296.875 769
117.188 265.625 641
125 -62.5 774
-203.125 242.188 640
-125 85.9375 664
164.062 78.125 711
-132.812 156.25 664
132.812 85.9375 707
-210.938 164.062 708
125 -54.6875 769
101.562 195.312 667
156.25 -171.875 831
148.438 -54.6875 767
-484.375 -62.5 630
-179.688 250 646
-429.688 101.562 755
125 23.4375 734
-203.125 367.188 630
85.9375 335.938 618
125 -257.812 889
140.625 85.9375 707
101.562 179.688 674
125 351.562 609
-187.5 148.438 684
-382.812 335.938 653
-453.125 -328.125 741
-273.438 -117.188 762
-195.312 140.625 682
-453.125 320.312 661
132.812 7.8125 741
109.375 343.75 613
320.312 -179.688 1031
109.375 351.562 610
-101.562 54.6875 747
-296.875 -117.188 742
-250 -140.625 764
-226.562 359.375 631
-273.438 -125 764
125 171.875 675
-242.188 23.4375 773
328.125 -234.375 2241
-406.25 -398.438 773
125 -70.3125 780
-328.125 -171.875 739
156.25 -164.062 827
109.375 62.5 719
-492.188 -70.3125 628
-109.375 140.625 667
-62.5 -476.562 2701
-101.562 125 657
132.812 -226.562 869
-289.062 -132.812 744
93.75 335.938 616
-289.062 -101.562 687
117.188 -132.812 813
132.812 -218.75 862
132.812 210.938 659
-375 335.938 650
-351.562 -226.562 727
164.062 281.25 800
-414.062 39.0625 719
117.188 -101.562 794
-320.312 343.75 646
-421.875 78.125 731
-343.75 -54.6875 701
7.8125 382.812 607
125 -265.625 894
117.188 304.688 627
125 -203.125 854
-312.5 -54.6875 696
-171.875 234.375 657
-93.75 -320.312 964
101.562 304.688 628
320.312 -171.875 1028
-296.875 -62.5 693
-218.75 195.312 694
-93.75 179.688 667
-140.625 234.375 654
140.625 93.75 704
-70.3125 382.812 613
-101.562 117.188 655
132.812 218.75 657
132.812 203.125 663
-398.438 -101.562 862
117.188 -23.4375 755
-132.812 203.125 658
117.188 250 646
93.75 359.375 609
117.188 39.0625 728
117.188 242.188 648
101.562 375 604
-70.3125 375 613
-125 367.188 622
-390.625 -179.688 815
140.625 70.3125 714
93.75 398.438 598
-390.625 -328.125 759
453.125 250 790
93.75 312.5 625
125 -109.375 798
109.375 164.062 679
109.375 156.25 682
-132.812 101.562 659
-453.125 -15.625 666
-304.688 -93.75 691
-414.062 -382.812 762
109.375 54.6875 722
117.188 398.438 598
-85.9375 156.25 674
-242.188 -156.25 769
335.938 -289.062 2365
-320.312 -109.375 686
156.25 -218.75 860
484.375 -187.5 716
-101.562 367.188 619
-382.812 -382.812 778
-445.312 -414.062 742
125 -78.125 783
-382.812 -109.375 710
-218.75 140.625 717
-132.812 179.688 657
-289.062 351.562 640
-125 101.562 657
-429.688 -289.062 746
-31.25 382.812 612
-382.812 -234.375 723
-250 242.188 676
125 328.125 618
312.5 -93.75 978
-429.688 15.625 694
296.875 -109.375 989
132.812 234.375 650
140.625 78.125 711
-398.438 -187.5 802
-460.938 320.312 663
15.625 382.812 607
117.188 257.812 643
-335.938 -132.812 766
140.625 -164.062 829
132.812 -242.188 878
93.75 289.062 634
468.75 54.6875 880
367.188 171.875 837
93.75 343.75 613
78.125 398.438 600
273.438 343.75 764
117.188 -54.6875 769
132.812 281.25 634
-468.75 -39.0625 652
-132.812 78.125 668
109.375 171.875 675
132.812 -109.375 798
31.25 398.438 607
-187.5 117.188 683
117.188 -125 805
-171.875 -468.75 2723
351.562 -414.062 2560
-492.188 312.5 668
-117.188 54.6875 747
312.5 -132.812 1001
242.188 320.312 778
117.188 375 602
-171.875 85.9375 738
-85.9375 -320.312 962
-492.188 -242.188 749
-273.438 -125 764
-289.062 -109.375 739
-289.062 -195.312 774
-437.5 -281.25 746
-210.938 -46.875 754
-148.438 367.188 623
140.625 101.562 701
-421.875 -390.625 761
117.188 -15.625 752
117.188 -117.188 803
335.938 -140.625 1004
-203.125 250 640
-320.312 -156.25 742
-148.438 375 623
125 -85.9375 785
-117.188 109.375 655
-289.062 -117.188 739
-164.062 125 684
-437.5 -218.75 761
320.312 -187.5 1038
-492.188 70.3125 723
125 -273.438 898
132.812 -265.625 894
-382.812 -218.75 789
140.625 62.5 716
-414.062 -390.625 762
476.562 0 878
-164.062 234.375 655
125 156.25 682
93.75 234.375 653
125 312.5 623
125 15.625 738
-117.188 70.3125 671
-257.812 -31.25 744
492.188 0 864
101.562 164.062 679
-117.188 117.188 655
-140.625 125 661
-132.812 148.438 667
-23.4375 -476.562 2680
304.688 -15.625 935
101.562 148.438 687
296.875 -93.75 981
-23.4375 -320.312 956
109.375 148.438 686
-484.375 -421.875 766
-328.125 -218.75 734
-31.25 -476.562 2680
289.062 -93.75 981
-492.188 -304.688 738
101.562 250 648
343.75 -351.562 2450
-304.688 -140.625 746
-445.312 -335.938 742
54.6875 390.625 603
-398.438 -164.062 825
-390.625 -93.75 711
0 382.812 609
-414.062 -351.562 752
289.062 343.75 762
-93.75 375 616
-250 -140.625 764
-195.312 210.938 661
117.188 46.875 727
101.562 226.562 657
218.75 343.75 769
296.875 -140.625 1007
250 343.75 767
140.625 -312.5 928
-351.562 -281.25 783
375 273.438 789
93.75 257.812 644
125 31.25 731
-78.125 -320.312 959
312.5 -101.562 984
-39.0625 -476.562 2680
117.188 343.75 613
-179.688 -468.75 2723
414.062 218.75 807
-171.875 78.125 739
132.812 93.75 704
101.562 156.25 683
140.625 -242.188 878
-351.562 -328.125 781
-296.875 -109.375 742
-296.875 -117.188 742
-390.625 -289.062 761
117.188 -140.625 819
125 320.312 621
125 148.438 686
109.375 335.938 615
-187.5 78.125 741
304.688 -54.6875 956
93.75 328.125 620
367.188 187.5 827
140.625 -15.625 749
312.5 -109.375 987
-203.125 304.688 649
-140.625 171.875 658
125 -320.312 935
-476.562 -460.938 2680
-117.188 132.812 658
132.812 187.5 667
-421.875 328.125 659
125 7.8125 742
-500 85.9375 739
-109.375 375 618
-421.875 70.3125 722
242.188 242.188 815
-132.812 101.562 659
-54.6875 375 614
-85.9375 203.125 682
382.812 187.5 827
140.625 0 744
125 304.688 627
320.312 -70.3125 962
-117.188 375 621
-140.625 226.562 655
-460.938 -242.188 750
-328.125 -367.188 819
-265.625 351.562 637
-335.938 -23.4375 741
109.375 312.5 623
-390.625 335.938 653
-367.188 -367.188 778
140.625 46.875 723
-500 312.5 670
328.125 -171.875 1025
-382.812 -156.25 741
125 -93.75 789
351.562 -70.3125 862
257.812 125 867
132.812 -210.938 858
-343.75 -85.9375 697
-234.375 257.812 670
109.375 343.75 613
109.375 304.688 627
-351.562 -210.938 728
242.188 226.562 821
-398.438 -171.875 825
289.062 -265.625 2333
109.375 320.312 620
132.812 78.125 711
-7.8125 375 612
289.062 -179.688 1038
-421.875 -296.875 747
-62.5 -320.312 959
289.062 -7.8125 933
-335.938 343.75 647
-429.688 -265.625 749
-382.812 -210.938 792
320.312 -140.625 1004
-328.125 -117.188 783
125 0 746
85.9375 406.25 604
265.625 -54.6875 959
109.375 359.375 607
-195.312 250 641
-62.5 382.812 613
132.812 85.9375 707
-125 164.062 662
312.5 -117.188 992
132.812 -234.375 875
117.188 250 646
-343.75 -210.938 731
-359.375 -187.5 734
-484.375 312.5 667
-296.875 -125 744
-218.75 -31.25 759
-421.875 -179.688 794
-406.25 -179.688 809
-117.188 406.25 762
-335.938 -85.9375 694
320.312 -125 998
-132.812 70.3125 668
-242.188 -195.312 780
132.812 195.312 666
-117.188 179.688 661
-70.3125 -476.562 2680
132.812 -250 882
109.375 39.0625 730
-390.625 -164.062 741
125 312.5 623
117.188 226.562 654
-140.625 101.562 661
296.875 -78.125 970
-414.062 -242.188 761
140.625 226.562 653
-359.375 -351.562 778
-242.188 351.562 634
-390.625 -125 728
-234.375 226.562 682
-398.438 -109.375 867
-468.75 -414.062 773
-187.5 -468.75 2744
-132.812 375 619
-31.25 125 687
-343.75 -296.875 789
-445.312 -164.062 805
-234.375 351.562 634
164.062 -218.75 858
-210.938 242.188 641
125 171.875 675
125 -289.062 913
-484.375 -250 747
-195.312 148.438 683
148.438 78.125 711
-218.75 187.5 697
-390.625 -312.5 759
-203.125 -250 928
132.812 70.3125 714
-445.312 -312.5 742
-257.812 -125 757
140.625 -7.8125 747
125 -101.562 794
125 140.625 688
343.75 -195.312 1041
-257.812 -132.812 761
140.625 -304.688 925
-70.3125 -320.312 959
125 -312.5 928
-218.75 250 641
140.625 54.6875 722
-281.25 -109.375 739
140.625 62.5 716
-484.375 -289.062 739
101.562 273.438 638
125 164.062 678
-93.75 -320.312 964
445.312 -351.562 632
-140.625 164.062 661
125 -125 805
125 335.938 614
-93.75 109.375 658
125 -117.188 802
140.625 -23.4375 754
484.375 -195.312 710
281.25 140.625 858
-351.562 -320.312 783
171.875 117.188 878
132.812 195.312 666
234.375 -289.062 2398
125 156.25 682
-250 359.375 635
-85.9375 -320.312 962
484.375 0 875
125 -281.25 906
-218.75 171.875 704
-375 -375 778
-242.188 234.375 680
234.375 -7.8125 935
-382.812 -359.375 767
85.9375 398.438 599
343.75 -187.5 1034
132.812 210.938 659
132.812 -296.875 915
125 179.688 671
125 -296.875 918
320.312 -179.688 1031
156.25 304.688 794
320.312 -78.125 967
445.312 -335.938 636
312.5 -125 1001
-414.062 -164.062 825
-460.938 -273.438 742
109.375 117.188 698
109.375 117.188 698
156.25 -117.188 800
343.75 -343.75 2432
117.188 -179.688 839
445.312 0 882
375 187.5 829
-242.188 -7.8125 771
484.375 -187.5 716
-414.062 -250 761
-320.312 -132.812 746
414.062 -296.875 674
-195.312 132.812 682
109.375 296.875 630
-210.938 218.75 686
132.812 -226.562 869
484.375 -351.562 623
-429.688 328.125 659
109.375 179.688 672
-476.562 320.312 666
125 328.125 618
335.938 -156.25 1016
-62.5 140.625 690
453.125 -296.875 657
-351.562 -265.625 720
23.4375 382.812 606
242.188 132.812 864
109.375 46.875 728
406.25 -250 704
-117.188 70.3125 671
296.875 -62.5 962
-140.625 375 622
117.188 31.25 733
-195.312 156.25 708
-78.125 375 614
-218.75 359.375 630
78.125 406.25 606
-273.438 -460.938 2767
23.4375 398.438 607
-343.75 -203.125 733
-164.062 281.25 634
132.812 203.125 663
148.438 -62.5 771
132.812 179.688 671
437.5 7.8125 891
-93.75 156.25 674
132.812 218.75 657
125 460.938 730
164.062 -140.625 813
117.188 15.625 739
-367.188 335.938 650
125 304.688 627
-218.75 265.625 666
-367.188 -265.625 723
-203.125 273.438 661
-320.312 -164.062 741
-23.4375 398.438 627
-257.812 359.375 636
132.812 187.5 667
375 265.625 790
-242.188 -156.25 769
-492.188 -70.3125 628
-343.75 -148.438 755
125 296.875 629
93.75 296.875 631
-406.25 -156.25 833
335.938 -296.875 2365
-351.562 -226.562 727
117.188 234.375 652
-179.688 148.438 683
-101.562 54.6875 747
-359.375 -171.875 744
117.188 398.438 598
484.375 -140.625 750
125 -140.625 817
257.812 343.75 767
101.562 132.812 693
125 359.375 608
140.625 31.25 730
132.812 -257.812 889
-117.188 140.625 671
125 -320.312 935
93.75 320.312 622
-445.312 320.312 659
-125 140.625 672
125 -7.8125 749
-359.375 -242.188 722
453.125 -351.562 631
-101.562 375 618
-15.625 375 613
132.812 -273.438 898
-85.9375 375 616
-273.438 351.562 640
210.938 -250 2349
-242.188 -164.062 781
187.5 429.688 736
187.5 -195.312 837
328.125 -140.625 1004
-78.125 -476.562 2680
117.188 -164.062 831
70.3125 390.625 600
0 375 613
-257.812 351.562 636
140.625 85.9375 707
-250 0 774
-132.812 93.75 661
31.25 382.812 606
335.938 -171.875 1025
-195.312 195.312 694
-109.375 164.062 666
-164.062 367.188 624
-54.6875 125 693
109.375 125 693
117.188 -62.5 774
203.125 210.938 829
-375 -265.625 723
304.688 -39.0625 948
164.062 -39.0625 761
132.812 460.938 728
85.9375 382.812 601
93.75 226.562 657
-164.062 242.188 640
-195.312 164.062 706
140.625 54.6875 722
-179.688 242.188 646
-335.938 -453.125 2812
328.125 -39.0625 946
132.812 171.875 674
-359.375 351.562 652
-210.938 -54.6875 749
-343.75 -85.9375 697
125 31.25 731
-398.438 -187.5 802
-46.875 -476.562 2680
-109.375 101.562 655
-54.6875 382.812 614
117.188 218.75 658
-351.562 343.75 649
140.625 15.625 736
125 289.062 631
328.125 -250 2286
-406.25 328.125 655
93.75 242.188 650
85.9375 312.5 627
-226.562 140.625 719
117.188 -156.25 827
-93.75 179.688 667
320.312 -195.312 1044
-140.625 210.938 657
93.75 218.75 661
-273.438 -132.812 767
-460.938 -414.062 771
140.625 -31.25 759
-156.25 187.5 655
-375 -281.25 769
304.688 -132.812 1004
125 140.625 688
320.312 -187.5 1038
140.625 -46.875 766
140.625 23.4375 731
-453.125 -15.625 666
-500 -23.4375 636
109.375 328.125 618
-320.312 343.75 646
140.625 -39.0625 762
125 -132.812 811
125 -109.375 798
-460.938 0 662
179.688 0 746
-351.562 -289.062 781
-351.562 -85.9375 698
109.375 304.688 627
117.188 226.562 654
-312.5 343.75 643
101.562 218.75 659
93.75 304.688 628
-171.875 195.312 661
132.812 257.812 642
109.375 23.4375 736
-226.562 351.562 634
304.688 343.75 762
-226.562 218.75 686
-171.875 367.188 625
62.5 390.625 601
335.938 -304.688 2365
109.375 187.5 670
-242.188 226.562 682
-265.625 -125 759
46.875 382.812 606
265.625 343.75 766
-500 -367.188 727
85.9375 320.312 623
-468.75 101.562 759
109.375 0 746
125 -15.625 752
-500 -304.688 739
109.375 101.562 704
148.438 -117.188 800
-382.812 -281.25 766
-296.875 -109.375 742
-312.5 -93.75 686
-140.625 382.812 636
-140.625 281.25 655
328.125 -257.812 2301
-304.688 -101.562 686
78.125 375 604
156.25 -93.75 787
109.375 109.375 701
273.438 -54.6875 959
-421.875 62.5 716
85.9375 296.875 631
117.188 23.4375 736
234.375 -46.875 959
-257.812 -132.812 761
109.375 289.062 632
-109.375 367.188 620
132.812 -281.25 906
-375 -132.812 734
-210.938 -62.5 742
-406.25 -179.688 809
156.25 -132.812 809
-250 140.625 720
-406.25 -132.812 885
-39.0625 382.812 612
-242.188 -179.688 789
132.812 70.3125 714
-132.812 171.875 659
132.812 -265.625 894
-125 70.3125 670
484.375 54.6875 878
140.625 234.375 650
406.25 -359.375 647
101.562 187.5 671
-406.25 -109.375 869
-367.188 -85.9375 708
85.9375 289.062 635
148.438 -85.9375 783
156.25 -85.9375 783
-132.812 140.625 672
-125 78.125 667
140.625 39.0625 728
-250 367.188 635
125 281.25 635
-304.688 343.75 641
117.188 273.438 637
39.0625 382.812 607
-46.875 382.812 613
125 148.438 686
351.562 195.312 827
-125 375 622
109.375 93.75 706
171.875 93.75 889
140.625 7.8125 741
-351.562 -218.75 727
-125 250 666
-210.938 273.438 662
117.188 210.938 661
117.188 -148.438 823
117.188 382.812 601
-367.188 -187.5 733
-242.188 -171.875 789
-367.188 -54.6875 708
351.562 203.125 821
109.375 7.8125 742
78.125 367.188 606
-210.938 359.375 630
117.188 7.8125 742
54.6875 398.438 603
328.125 -148.438 1010
125 -23.4375 755
-296.875 -117.188 736
85.9375 281.25 636
-359.375 -93.75 698
-250 -148.438 767
132.812 -125 805
-375 -101.562 706
125 -171.875 833
-210.938 156.25 684
148.438 -101.562 790
-320.312 -93.75 693
109.375 296.875 629
-335.938 -187.5 741
132.812 156.25 680
117.188 -187.5 843
-312.5 -125 746
-210.938 234.375 644
125 132.812 690
265.625 -7.8125 933
140.625 0 744
312.5 -132.812 1001
-359.375 -101.562 701
-414.062 -171.875 815
-226.562 359.375 630
132.812 62.5 716
109.375 31.25 731
-359.375 -179.688 739
15.625 382.812 606
117.188 218.75 657
-156.25 367.188 622
109.375 15.625 739
117.188 62.5 717
-195.312 -468.75 2744
70.3125 398.438 600
312.5 -179.688 1031
117.188 -7.8125 749
-359.375 -257.812 719
-85.9375 -476.562 2701
328.125 54.6875 896
125 -179.688 837
132.812 -289.062 910
312.5 -125 998
-70.3125 375 613
109.375 281.25 635
210.938 375 757
101.562 125 694
125 296.875 631
117.188 398.438 600
468.75 0 878
398.438 0 915
-125 62.5 728
-437.5 -187.5 783
109.375 140.625 688
132.812 164.062 676
-460.938 -320.312 742
132.812 -312.5 928
140.625 -31.25 757
-187.5 289.062 654
140.625 46.875 722
-171.875 226.562 654
-351.562 -312.5 794
117.188 -195.312 847
140.625 15.625 736
-304.688 359.375 641
-406.25 -125 736
125 54.6875 722
-414.062 -179.688 807
-210.938 250 641
125 273.438 638
468.75 7.8125 885
85.9375 304.688 628
210.938 -15.625 940
125 -31.25 759
117.188 390.625 604
-218.75 132.812 683
398.438 -7.8125 894
320.312 -109.375 984
109.375 398.438 600
-375 -93.75 703
-468.75 -250 747
-203.125 132.812 682
328.125 -179.688 1028
117.188 0 746
273.438 -7.8125 933
-179.688 78.125 741
-398.438 -70.3125 841
-453.125 -257.812 749
312.5 -109.375 984
101.562 390.625 598
101.562 117.188 698
-234.375 148.438 714
-421.875 70.3125 727
429.688 117.188 854
-343.75 -226.562 742
-109.375 117.188 658
117.188 406.25 749
-453.125 -304.688 744
328.125 -54.6875 878
132.812 148.438 683
-492.188 -304.688 739
304.688 -31.25 943
-390.625 -273.438 769
-195.312 367.188 627
93.75 250 647
-218.75 -39.0625 764
-484.375 -265.625 742
125 125 693
-398.438 -226.562 728
-140.625 125 658
140.625 -7.8125 747
-148.438 148.438 667
-210.938 218.75 658
328.125 -195.312 1041
117.188 203.125 662
109.375 -70.3125 780
304.688 -195.312 1044
-203.125 156.25 708
-398.438 -179.688 817
117.188 54.6875 720
78.125 359.375 608
312.5 -164.062 1025
164.062 -7.8125 747
320.312 -203.125 1050
-375 -70.3125 710
85.9375 367.188 604
320.312 -195.312 1041
-390.625 -250 722
132.812 171.875 674
156.25 -289.062 908
93.75 273.438 640
-359.375 335.938 649
117.188 375 606
101.562 289.062 632
-281.25 -460.938 2789
-164.062 359.375 625
85.9375 406.25 606
-218.75 164.062 707
-476.562 -46.875 654
-453.125 320.312 662
-132.812 375 618
312.5 -148.438 1013
93.75 203.125 666
132.812 179.688 670
-15.625 382.812 610
132.812 -242.188 878
-218.75 171.875 704
328.125 -156.25 1013
-117.188 375 618
117.188 367.188 608
187.5 281.25 802
15.625 375 609
132.812 -304.688 923
257.812 -7.8125 935
-351.562 -296.875 792
343.75 -109.375 833
304.688 -70.3125 967
140.625 -54.6875 767
109.375 312.5 623
132.812 156.25 680
109.375 289.062 631
140.625 31.25 730
203.125 -15.625 943
140.625 -46.875 764
-132.812 101.562 658
101.562 140.625 688
-335.938 -218.75 747
-414.062 -109.375 869
109.375 -15.625 752
93.75 179.688 675
164.062 0 744
-437.5 7.8125 706
-242.188 125 725
109.375 273.438 637
328.125 -132.812 1001
-210.938 242.188 641
242.188 7.8125 925
-359.375 -234.375 727
312.5 -46.875 948
-484.375 -281.25 739
7.8125 -476.562 2701
109.375 -78.125 783
-406.25 -281.25 761
101.562 109.375 700
-296.875 -85.9375 690
-93.75 -476.562 2701
-484.375 312.5 667
101.562 195.312 667
132.812 187.5 667
414.062 320.312 762
54.6875 382.812 604
85.9375 359.375 607
-406.25 -148.438 739
109.375 78.125 711
125 -148.438 821
-250 359.375 631
117.188 -31.25 761
101.562 210.938 661
-250 -148.438 767
398.438 -382.812 655
-148.438 367.188 622
-132.812 164.062 666
-406.25 -164.062 823
304.688 -62.5 959
-328.125 -453.125 2812
156.25 -187.5 841
-203.125 359.375 628
-265.625 351.562 636
-343.75 -320.312 802
-93.75 218.75 675
125 265.625 641
-328.125 -320.312 823
85.9375 351.562 609
-78.125 375 614
-320.312 -218.75 749
101.562 203.125 663
-351.562 -234.375 730
117.188 -179.688 839
-390.625 -218.75 728
-78.125 367.188 618
132.812 -273.438 898
-406.25 -187.5 803
-257.812 -117.188 693
320.312 -156.25 1016
-476.562 312.5 664
125 117.188 697
-343.75 343.75 647
-429.688 -250 759
93.75 187.5 671
156.25 -210.938 854
-117.188 70.3125 667
-343.75 -46.875 703
-156.25 195.312 655
156.25 -460.938 2639
-382.812 -312.5 771
304.688 -78.125 967
-78.125 -320.312 959
125 343.75 613
-492.188 -70.3125 637
-382.812 -382.812 783
-406.25 -117.188 734
-117.188 54.6875 746
-414.062 -171.875 815
-234.375 15.625 776
-382.812 -445.312 2789
-398.438 -257.812 722
-500 101.562 755
-359.375 -85.9375 698
-195.312 109.375 728
-101.562 257.812 661
-406.25 -445.312 2789
101.562 382.812 601
-62.5 132.812 690
-62.5 195.312 683
117.188 382.812 604
-171.875 250 632
-117.188 148.438 674
125 320.312 623
-179.688 -468.75 2723
-351.562 -85.9375 696
117.188 -15.625 750
-187.5 -468.75 2744
250 -7.8125 935
117.188 70.3125 714
-132.812 93.75 659
-156.25 226.562 655
-351.562 -156.25 744
312.5 -117.188 989
132.812 148.438 683
-117.188 46.875 747
132.812 195.312 666
140.625 0 744
-351.562 -210.938 731
132.812 54.6875 720
-54.6875 195.312 682
-343.75 -140.625 746
-343.75 -453.125 2812
-328.125 -171.875 746
-148.438 265.625 630
-484.375 101.562 759
335.938 -78.125 867
125 -156.25 825
101.562 101.562 704
117.188 -210.938 856
-171.875 257.812 631
-414.062 -101.562 864
-492.188 -273.438 742
-367.188 335.938 649
23.4375 375 610
109.375 -85.9375 787
140.625 7.8125 741
117.188 367.188 608
-390.625 -234.375 722
406.25 -218.75 720
-460.938 -31.25 676
-203.125 367.188 628
-210.938 367.188 629
-304.688 -234.375 766
-335.938 -320.312 805
-109.375 54.6875 746
117.188 195.312 666
132.812 140.625 687
125 132.812 690
-242.188 31.25 769
-125 187.5 664
117.188 210.938 659
437.5 -351.562 632
-195.312 132.812 683
398.438 -359.375 650
476.562 -195.312 711
132.812 46.875 723
312.5 -62.5 959
117.188 -226.562 869
-304.688 351.562 640
312.5 -39.0625 946
-234.375 -7.8125 780
117.188 320.312 620
117.188 351.562 612
328.125 -187.5 1038
-351.562 -218.75 731
-492.188 -23.4375 643
390.625 -7.8125 896
31.25 382.812 606
-70.3125 -476.562 2680
-500 -78.125 630
-85.9375 -476.562 2701
-125 54.6875 747
93.75 210.938 661
-39.0625 117.188 700
125 273.438 638
117.188 -23.4375 755
140.625 -23.4375 754
-492.188 -289.062 739
-445.312 -281.25 746
140.625 23.4375 731
85.9375 273.438 638
460.938 23.4375 898
-70.3125 156.25 698
117.188 -203.125 854
-234.375 250 641
109.375 85.9375 710
-320.312 -101.562 749
125 -164.062 829
132.812 -281.25 906
93.75 265.625 642
-148.438 218.75 661
-156.25 359.375 625
-398.438 328.125 653
-242.188 218.75 686
312.5 -140.625 1004
-218.75 -195.312 738
-148.438 195.312 658
-242.188 -179.688 783
-257.812 -203.125 769
109.375 -23.4375 755
468.75 78.125 869
117.188 375 606
-250 242.188 676
351.562 -39.0625 887
-148.438 125 659
109.375 70.3125 716
-398.438 -265.625 767
-140.625 164.062 663
328.125 -125 992
132.812 39.0625 727
-304.688 -109.375 741
-210.938 -85.9375 741
117.188 320.312 620
-62.5 -437.5 2789
-382.812 335.938 650
-132.812 85.9375 662
-468.75 320.312 663
-117.188 62.5 727
132.812 23.4375 731
335.938 -195.312 1041
125 257.812 642
398.438 -398.438 659
-421.875 -195.312 787
320.312 62.5 891
117.188 46.875 725
-171.875 203.125 658
-187.5 210.938 662
-304.688 -101.562 691
85.9375 335.938 616
-375 -195.312 731
-257.812 148.438 717
-445.312 320.312 661
-93.75 -437.5 2812
484.375 -23.4375 849
140.625 -15.625 749
-171.875 187.5 657
140.625 -31.25 757
-171.875 234.375 650
-226.562 226.562 682
-289.062 -109.375 762
-421.875 -156.25 821
-414.062 -140.625 891
132.812 132.812 688
-62.5 375 613
85.9375 257.812 646
-242.188 7.8125 780
-210.938 179.688 700
320.312 -93.75 975
78.125 351.562 610
-296.875 -125 736
117.188 179.688 671
-93.75 226.562 674
-203.125 250 643
-304.688 -117.188 739
78.125 343.75 614
-54.6875 179.688 687
148.438 -132.812 809
109.375 265.625 640
125 250 644
39.0625 375 609
-140.625 148.438 668
-31.25 382.812 611
101.562 85.9375 710
148.438 132.812 688
140.625 -7.8125 747
-187.5 218.75 661
335.938 -179.688 1025
-234.375 203.125 691
-257.812 -140.625 766
23.4375 382.812 606
-421.875 328.125 659
-218.75 351.562 634
-289.062 -460.938 2789
-125 70.3125 666
-320.312 -93.75 693
476.562 -187.5 717
-203.125 265.625 642
-476.562 -414.062 771
-132.812 101.562 658
101.562 375 602
132.812 125 691
-476.562 -46.875 654
125 109.375 698
164.062 101.562 887
-421.875 23.4375 725
85.9375 250 648
-257.812 23.4375 774
-343.75 -203.125 736
-398.438 -234.375 722
93.75 171.875 676
-226.562 195.312 696
117.188 359.375 610
-343.75 -85.9375 694
-257.812 250 674
93.75 164.062 680
156.25 195.312 841
-203.125 234.375 646
85.9375 265.625 642
-460.938 -23.4375 675
-101.562 -476.562 2701
117.188 351.562 612
125 125 693
117.188 -242.188 878
-93.75 234.375 670
492.188 -351.562 611
312.5 -156.25 1016
140.625 15.625 736
-328.125 -164.062 746
109.375 62.5 719
117.188 203.125 662
-429.688 -242.188 759
132.812 156.25 680
-359.375 -265.625 711
-421.875 46.875 723
109.375 273.438 637
125 304.688 628
109.375 -31.25 761
109.375 54.6875 722
-367.188 -257.812 719
117.188 -46.875 766
101.562 367.188 604
-226.562 -460.938 2767
46.875 382.812 604
-125 125 658
-335.938 -85.9375 693
257.812 -7.8125 935
125 242.188 647
250 125 869
140.625 414.062 746
-453.125 -351.562 749
-62.5 148.438 691
93.75 257.812 643
-421.875 -117.188 878
-242.188 -171.875 789
-500 -304.688 738
132.812 31.25 730
156.25 -195.312 843
-242.188 -195.312 771
117.188 367.188 608
-234.375 140.625 719
-203.125 148.438 684
-492.188 23.4375 678
-273.438 -125 761
328.125 -203.125 1047
125 -171.875 833
-359.375 -234.375 727
125 -125 805
125 265.625 641
304.688 -85.9375 970
-429.688 93.75 742
-359.375 -148.438 754
62.5 382.812 604
117.188 343.75 613
125 281.25 635
117.188 -39.0625 762
101.562 242.188 649
-320.312 -78.125 691
-7.8125 398.438 613
-210.938 226.562 646
-296.875 343.75 640
140.625 0 744
-242.188 359.375 631
-187.5 367.188 625
-39.0625 375 615
-367.188 -343.75 785
-343.75 -23.4375 731
109.375 -46.875 767
-312.5 343.75 642
-382.812 62.5 769
-257.812 351.562 636
-445.312 -312.5 746
140.625 -31.25 757
117.188 39.0625 727
-406.25 328.125 654
-414.062 -187.5 798
70.3125 382.812 604
-210.938 257.812 640
-257.812 -140.625 766
93.75 234.375 653
125 93.75 704
132.812 -187.5 841
-390.625 -265.625 727
304.688 -78.125 967
117.188 187.5 667
140.625 -39.0625 761
-203.125 -468.75 2723
-203.125 218.75 659
406.25 -7.8125 889
-429.688 -367.188 757
-445.312 -343.75 747
-500 -78.125 630
101.562 62.5 719
-359.375 -343.75 790
132.812 140.625 687
-390.625 328.125 653
117.188 -234.375 873
-421.875 -375 762
-398.438 -304.688 766
273.438 273.438 796
125 -210.938 856
-218.75 359.375 630
-312.5 -132.812 747
179.688 -132.812 1013
-250 -156.25 771
109.375 281.25 635
187.5 0 935
132.812 148.438 683
-218.75 281.25 659
-164.062 156.25 664
-164.062 148.438 667
312.5 -148.438 1013
109.375 257.812 643
-351.562 -304.688 792
-179.688 226.562 657
101.562 93.75 707
-117.188 375 618
328.125 -46.875 882
-78.125 156.25 698
-125 46.875 750
320.312 -101.562 981
-171.875 125 684
335.938 257.812 796
101.562 46.875 727
62.5 375 608
-179.688 78.125 741
-203.125 132.812 682
140.625 -46.875 764
125 -203.125 851
117.188 -70.3125 778
-281.25 -117.188 761
210.938 23.4375 920
-476.562 23.4375 675
101.562 359.375 608
117.188 54.6875 720
-93.75 210.938 679
-429.688 85.9375 736
78.125 335.938 618
-132.812 367.188 623
-468.75 312.5 666
101.562 351.562 609
-484.375 -242.188 749
-335.938 -179.688 741
-62.5 125 691
101.562 54.6875 722
125 117.188 697
-304.688 -125 746
140.625 -62.5 771
101.562 148.438 686
117.188 351.562 612
-296.875 -109.375 736
-460.938 -328.125 742
-312.5 -101.562 746
382.812 117.188 860
-187.5 242.188 644
-273.438 -101.562 693
-335.938 -320.312 805
-148.438 359.375 625
117.188 195.312 666
132.812 15.625 736
-289.062 351.562 637
-296.875 359.375 640
-328.125 -117.188 750
414.062 -7.8125 885
-109.375 117.188 658
-265.625 -132.812 761
-117.188 78.125 667
-54.6875 375 613
-406.25 -234.375 774
125 234.375 652
-226.562 179.688 701
117.188 -54.6875 769
-343.75 -320.312 802
171.875 0 935
289.062 -109.375 989
-312.5 -148.438 746
109.375 46.875 727
-46.875 375 615
-125 109.375 657
-242.188 140.625 720
-125 375 620
-78.125 375 614
125 101.562 701
156.25 101.562 701
39.0625 382.812 606
125 -218.75 862
117.188 343.75 613
-281.25 -125 764
-226.562 148.438 684
85.9375 398.438 599
-390.625 -226.562 728
-335.938 343.75 646
125 109.375 698
109.375 39.0625 728
-140.625 93.75 659
85.9375 328.125 619
-500 -273.438 741
-296.875 -226.562 766
-132.812 382.812 618
109.375 250 647
117.188 23.4375 734
132.812 109.375 698
398.438 250 794
-117.188 382.812 618
-203.125 226.562 650
-304.688 -85.9375 691
-484.375 -54.6875 650
-351.562 -148.438 764
-351.562 -320.312 796
-140.625 367.188 621
-382.812 -257.812 728
93.75 312.5 624
-320.312 343.75 644
-406.25 -304.688 759
-500 15.625 668
-296.875 -117.188 736
125 -179.688 837
-367.188 -250 722
-460.938 320.312 663
125 226.562 655
-328.125 -320.312 823
-390.625 -257.812 727
-304.688 343.75 640
-117.188 -476.562 2701
-421.875 -132.812 887
476.562 -187.5 717
101.562 367.188 604
-351.562 335.938 649
-210.938 -140.625 707
125 -7.8125 749
-406.25 -257.812 766
-351.562 -453.125 2789
218.75 421.875 736
132.812 132.812 688
117.188 -62.5 774
117.188 171.875 675
-117.188 171.875 667
304.688 -85.9375 970
93.75 453.125 736
-54.6875 -476.562 2659
101.562 335.938 615
-390.625 335.938 653
-421.875 -242.188 761
-93.75 367.188 618
-164.062 210.938 659
-132.812 54.6875 747
-445.312 -382.812 757
-195.312 195.312 666
-351.562 -312.5 794
-421.875 -148.438 898
-265.625 -460.938 2744
-101.562 179.688 663
125 -195.312 845
242.188 343.75 767
-250 -125 698
85.9375 421.875 627
101.562 70.3125 716
125 -226.562 869
109.375 -39.0625 764
-164.062 -320.312 975
132.812 -453.125 2680
-203.125 210.938 662
-242.188 -460.938 2767
117.188 -78.125 781
70.3125 375 607
101.562 164.062 678
132.812 125 691
-359.375 -226.562 728
-289.062 -109.375 762
78.125 312.5 627
-210.938 359.375 630
242.188 -54.6875 962
-210.938 234.375 644
101.562 78.125 714
-195.312 -468.75 2744
-125 78.125 666
109.375 242.188 649
304.688 -93.75 978
-218.75 242.188 641
-210.938 -468.75 2723
-39.0625 148.438 698
-218.75 234.375 643
156.25 -15.625 754
-39.0625 390.625 612
54.6875 382.812 604
-250 226.562 684
-320.312 -93.75 693
-156.25 -320.312 975
93.75 242.188 650
117.188 179.688 671
367.188 390.625 739
-421.875 -234.375 764
-414.062 -179.688 807
-476.562 -156.25 807
312.5 -156.25 1016
367.188 -15.625 901
445.312 242.188 796
