ply
format ascii 1.0
comment Created by Open3D
element vertex 2381
property double x
property double y
property double z
end_header
-437.5 -273.438 2398
101.562 -187.5 839
-382.812 109.375 901
-375 203.125 908
-421.875 187.5 915
117.188 -242.188 809
226.562 273.438 835
62.5 250 854
-414.062 296.875 1105
-296.875 328.125 1087
-195.312 234.375 882
367.188 93.75 752
-335.938 -398.438 2933
-312.5 210.938 898
62.5 203.125 889
-351.562 -117.188 1073
-437.5 -125 987
117.188 -250 803
-78.125 70.3125 803
-406.25 195.312 913
-39.0625 195.312 898
-273.438 -242.188 1392
15.625 195.312 882
195.312 210.938 875
62.5 281.25 862
39.0625 304.688 1579
101.562 -109.375 882
-453.125 289.062 1115
-148.438 382.812 1145
-328.125 343.75 1278
-335.938 343.75 1278
-414.062 -7.8125 1013
0 -242.188 811
54.6875 -179.688 845
-187.5 62.5 817
234.375 281.25 835
-93.75 70.3125 805
-312.5 -15.625 875
265.625 78.125 766
0 62.5 796
312.5 78.125 761
-148.438 242.188 880
-226.562 -109.375 923
-54.6875 -226.562 825
-390.625 -31.25 871
-226.562 -78.125 906
0 -281.25 807
-210.938 39.0625 827
-7.8125 -281.25 807
-437.5 15.625 1063
-351.562 101.562 901
23.4375 -195.312 837
-296.875 -335.938 3092
-242.188 -31.25 894
-250 226.562 891
-210.938 -210.938 1338
296.875 156.25 802
375 85.9375 752
-296.875 218.75 896
-390.625 -15.625 1013
-234.375 171.875 918
195.312 -265.625 880
390.625 -101.562 815
-390.625 70.3125 915
398.438 273.438 817
-414.062 328.125 1292
54.6875 359.375 1503
179.688 85.9375 774
-312.5 54.6875 875
31.25 -203.125 831
46.875 -187.5 841
93.75 -187.5 837
-289.062 109.375 882
-148.438 390.625 1241
351.562 93.75 755
-375 132.812 951
-445.312 320.312 1302
-312.5 -429.688 2908
156.25 -312.5 943
117.188 -242.188 809
125 203.125 862
-406.25 15.625 1060
-382.812 335.938 1288
-335.938 -15.625 875
31.25 265.625 858
-328.125 46.875 880
-218.75 375 1259
-421.875 -62.5 901
-351.562 46.875 887
-23.4375 -203.125 835
-15.625 70.3125 796
-375 0 1022
-23.4375 273.438 873
15.625 78.125 790
-453.125 234.375 1031
-140.625 375 1141
-359.375 312.5 1090
203.125 -250 875
23.4375 257.812 858
-203.125 234.375 885
-312.5 -281.25 3238
-421.875 -39.0625 1022
-351.562 343.75 1278
-375 281.25 1080
-312.5 -437.5 2908
0 -203.125 833
-468.75 179.688 923
85.9375 -187.5 837
-78.125 445.312 1288
382.812 -15.625 794
-304.688 132.812 896
-273.438 218.75 894
-312.5 351.562 1268
-132.812 187.5 906
-187.5 351.562 1063
-250 39.0625 887
-296.875 359.375 1259
-125 187.5 906
-437.5 187.5 915
-390.625 78.125 913
-382.812 109.375 901
54.6875 218.75 878
-46.875 -156.25 862
-367.188 281.25 1077
-54.6875 -210.938 839
296.875 85.9375 761
414.062 218.75 821
-281.25 -281.25 3208
-109.375 70.3125 805
-210.938 140.625 943
-234.375 367.188 1255
-210.938 375 1255
-195.312 375 1241
-39.0625 -85.9375 910
-437.5 296.875 1108
-109.375 187.5 906
-234.375 343.75 1073
0 203.125 889
39.0625 -195.312 835
367.188 31.25 790
-257.812 343.75 1292
46.875 70.3125 787
-398.438 23.4375 1050
-85.9375 70.3125 805
117.188 -257.812 800
-343.75 343.75 1278
-46.875 -148.438 869
-210.938 62.5 821
257.812 -257.812 975
-257.812 117.188 885
-359.375 203.125 906
484.375 -273.438 1115
-296.875 -203.125 1073
-351.562 -31.25 869
78.125 -328.125 959
70.3125 203.125 889
117.188 -234.375 813
-304.688 -335.938 3092
-171.875 359.375 1067
62.5 -234.375 813
-242.188 85.9375 891
-296.875 132.812 896
-273.438 -195.312 1057
210.938 -281.25 970
-335.938 -39.0625 871
117.188 -218.75 821
-140.625 54.6875 813
15.625 -281.25 805
0 -195.312 837
164.062 -296.875 943
-304.688 -382.812 2984
-421.875 -46.875 885
-23.4375 257.812 862
-492.188 -218.75 1404
117.188 -250 803
-109.375 250 875
117.188 -85.9375 896
484.375 -187.5 989
-382.812 39.0625 1034
-242.188 -31.25 894
203.125 78.125 771
-390.625 85.9375 908
-195.312 0 851
39.0625 70.3125 789
-335.938 117.188 894
7.8125 320.312 1557
-242.188 -132.812 956
156.25 -320.312 940
-78.125 195.312 898
23.4375 78.125 790
390.625 -15.625 803
429.688 -31.25 807
-335.938 54.6875 878
-414.062 195.312 915
-132.812 242.188 875
-296.875 210.938 894
195.312 -273.438 933
39.0625 203.125 887
-257.812 -164.062 1016
-156.25 242.188 885
-421.875 195.312 918
320.312 78.125 762
171.875 85.9375 774
-85.9375 62.5 803
117.188 -226.562 817
-343.75 351.562 1268
117.188 -265.625 798
-351.562 320.312 1090
23.4375 -429.688 959
-312.5 328.125 1087
-179.688 273.438 978
164.062 -351.562 925
-429.688 328.125 1288
187.5 78.125 773
-296.875 -296.875 3149
70.3125 281.25 862
375 93.75 750
179.688 -273.438 935
-164.062 328.125 1044
406.25 93.75 749
117.188 -242.188 809
-351.562 125 908
-421.875 -7.8125 1084
117.188 -210.938 825
117.188 -171.875 845
-328.125 -15.625 875
187.5 210.938 875
414.062 273.438 819
-312.5 -390.625 2933
-7.8125 -320.312 970
-210.938 70.3125 823
179.688 -257.812 885
164.062 85.9375 774
-62.5 250 867
-328.125 -23.4375 880
31.25 203.125 887
31.25 70.3125 789
-304.688 -375 2984
-398.438 31.25 1044
-453.125 -328.125 2271
351.562 218.75 860
-343.75 210.938 906
203.125 382.812 1333
-156.25 -85.9375 930
335.938 109.375 764
429.688 273.438 817
46.875 281.25 858
-367.188 85.9375 906
-46.875 -140.625 871
171.875 281.25 845
375 -70.3125 815
39.0625 -281.25 805
-367.188 343.75 1283
-140.625 242.188 878
218.75 281.25 837
-101.562 70.3125 805
-101.562 250 873
-250 367.188 1264
-257.812 226.562 894
421.875 289.062 813
-476.562 273.438 1101
-328.125 351.562 1268
15.625 296.875 1601
-93.75 257.812 878
-437.5 -117.188 975
398.438 7.8125 767
-414.062 -7.8125 1013
-31.25 250 862
39.0625 -429.688 956
187.5 -257.812 882
-195.312 328.125 1054
-125 54.6875 809
-226.562 367.188 1255
140.625 273.438 845
148.438 -328.125 938
-359.375 109.375 903
-343.75 257.812 1010
-296.875 -351.562 3037
398.438 -31.25 802
156.25 -265.625 903
-203.125 54.6875 819
78.125 -382.812 951
-132.812 398.438 1177
-179.688 398.438 1464
-54.6875 -203.125 841
203.125 210.938 875
156.25 -289.062 930
0 210.938 885
-335.938 320.312 1090
195.312 -351.562 925
-125 -289.062 3208
-210.938 39.0625 827
-257.812 0 878
-39.0625 -70.3125 903
-125 -156.25 995
-375 132.812 951
-171.875 54.6875 813
-296.875 351.562 1264
382.812 -101.562 819
-148.438 296.875 1004
156.25 210.938 878
-296.875 -125 1087
-289.062 -31.25 882
101.562 -187.5 839
78.125 -390.625 951
-148.438 195.312 901
-421.875 -390.625 2241
-398.438 -31.25 869
-179.688 289.062 995
132.812 -320.312 940
23.4375 382.812 1483
171.875 -343.75 925
-367.188 148.438 935
-367.188 148.438 935
-304.688 148.438 935
414.062 289.062 813
-406.25 15.625 1060
367.188 15.625 783
-265.625 -171.875 1034
-296.875 -328.125 3092
-500 375 1292
-210.938 78.125 831
117.188 -218.75 821
179.688 -312.5 930
187.5 359.375 1349
-125 62.5 809
-132.812 -140.625 973
-195.312 62.5 817
-320.312 -429.688 2883
-54.6875 -218.75 825
-15.625 -351.562 962
-54.6875 62.5 798
187.5 273.438 839
0 -226.562 821
-429.688 -85.9375 943
-171.875 382.812 1250
-187.5 -15.625 864
195.312 78.125 771
-210.938 62.5 821
328.125 93.75 759
-250 -46.875 901
-242.188 -46.875 903
-375 70.3125 915
-414.062 0 1077
-31.25 195.312 898
-31.25 195.312 898
195.312 328.125 1392
-312.5 -382.812 2984
-85.9375 195.312 898
195.312 -250 878
117.188 -203.125 829
-484.375 -453.125 2156
-203.125 15.625 841
-382.812 109.375 901
-257.812 23.4375 896
0 -132.812 873
-226.562 -85.9375 906
-242.188 367.188 1255
359.375 -62.5 817
-500 -453.125 2129
-46.875 367.188 1232
117.188 -226.562 817
-367.188 -15.625 867
-39.0625 -78.125 908
195.312 -343.75 933
-62.5 62.5 800
-257.812 367.188 1268
335.938 93.75 759
-148.438 -101.562 943
-203.125 375 1245
-335.938 109.375 887
-429.688 -289.062 2333
-156.25 351.562 1063
179.688 78.125 774
-406.25 304.688 1105
-500 -210.938 1376
148.438 -351.562 930
343.75 7.8125 785
-164.062 351.562 1067
117.188 -171.875 845
-398.438 335.938 1297
-382.812 343.75 1288
-390.625 93.75 903
-359.375 148.438 938
-31.25 62.5 798
-281.25 359.375 1264
-359.375 281.25 1080
109.375 -242.188 811
-265.625 140.625 894
-265.625 -179.688 1034
-367.188 140.625 943
-382.812 117.188 962
-265.625 359.375 1264
-406.25 7.8125 1070
-445.312 -148.438 1013
-156.25 54.6875 813
398.438 0 767
148.438 -335.938 938
93.75 -117.188 880
375 -101.562 825
-187.5 54.6875 817
-343.75 109.375 898
54.6875 -117.188 880
-23.4375 -273.438 805
195.312 -335.938 935
-312.5 -445.312 2812
460.938 218.75 817
-382.812 203.125 910
234.375 78.125 767
23.4375 70.3125 790
492.188 289.062 802
476.562 437.5 1169
-203.125 109.375 854
414.062 -93.75 813
-476.562 -242.188 1433
-421.875 -31.25 1010
-140.625 375 1141
406.25 273.438 817
-320.312 -437.5 2812
156.25 -312.5 943
343.75 -7.8125 780
-195.312 0 851
429.688 289.062 813
117.188 -273.438 798
-421.875 -257.812 1439
367.188 23.4375 785
31.25 257.812 856
109.375 265.625 849
117.188 -78.125 894
-195.312 -273.438 3238
-281.25 62.5 875
-218.75 375 1259
-15.625 203.125 891
-335.938 312.5 1090
-39.0625 -328.125 987
-312.5 -203.125 1070
117.188 -234.375 813
-54.6875 -203.125 841
54.6875 -171.875 849
117.188 -93.75 889
-351.562 125 908
15.625 70.3125 790
-39.0625 -414.062 987
-70.3125 62.5 802
-171.875 312.5 1022
-343.75 265.625 1034
-476.562 -429.688 2170
367.188 85.9375 752
-375 62.5 918
359.375 85.9375 754
148.438 210.938 878
-367.188 0 875
-296.875 -335.938 3092
164.062 -312.5 935
164.062 257.812 843
-195.312 351.562 1063
39.0625 257.812 854
351.562 85.9375 755
-226.562 226.562 887
156.25 -281.25 928
-281.25 -203.125 1067
273.438 210.938 847
210.938 281.25 837
-54.6875 -226.562 825
-195.312 132.812 860
-367.188 7.8125 875
390.625 289.062 817
304.688 296.875 833
296.875 296.875 835
-320.312 -468.75 2812
-289.062 -273.438 3208
-234.375 15.625 903
-203.125 15.625 841
390.625 273.438 821
46.875 312.5 1572
-500 265.625 1101
-375 343.75 1268
-414.062 0 1077
-375 -31.25 867
171.875 -335.938 925
-148.438 -273.438 3238
70.3125 -117.188 880
-179.688 281.25 984
-78.125 62.5 803
117.188 -117.188 878
382.812 -117.188 827
-390.625 -7.8125 1013
351.562 296.875 827
-179.688 234.375 880
117.188 -101.562 887
-273.438 -187.5 1050
195.312 -320.312 940
-312.5 -414.062 2933
85.9375 -187.5 837
195.312 -328.125 938
-281.25 -117.188 1077
-148.438 54.6875 813
-390.625 195.312 910
-437.5 -125 987
-421.875 -23.4375 1010
-390.625 93.75 903
328.125 0 794
-171.875 187.5 906
-140.625 -125 964
156.25 85.9375 776
-296.875 -289.062 3178
23.4375 -265.625 803
-296.875 -320.312 3092
70.3125 -382.812 948
117.188 -195.312 835
335.938 -85.9375 833
-445.312 320.312 1302
-132.812 406.25 1181
195.312 -312.5 948
203.125 382.812 1333
-250 -140.625 987
7.8125 78.125 794
304.688 343.75 1376
-164.062 -70.3125 906
-437.5 -109.375 975
-304.688 -367.188 3010
-257.812 -156.25 1010
367.188 -62.5 811
-117.188 70.3125 809
-375 54.6875 918
-375 140.625 946
-46.875 -132.812 871
-281.25 367.188 1268
-210.938 31.25 831
-390.625 70.3125 915
-46.875 382.812 1227
-328.125 -468.75 2701
-250 109.375 887
-164.062 273.438 973
171.875 -257.812 889
-156.25 382.812 1236
-226.562 -85.9375 906
-367.188 148.438 935
335.938 7.8125 789
-39.0625 -375 975
-359.375 117.188 903
-31.25 70.3125 798
-242.188 7.8125 903
15.625 203.125 889
-312.5 -375 2984
-242.188 78.125 891
117.188 -109.375 882
-414.062 -15.625 1010
-234.375 -117.188 930
-375 281.25 1080
-296.875 -328.125 3092
-164.062 328.125 1044
-226.562 109.375 906
-398.438 -62.5 889
-320.312 125 887
-351.562 343.75 1278
117.188 140.625 817
-289.062 -31.25 882
179.688 -273.438 935
-304.688 -328.125 3092
335.938 218.75 860
343.75 218.75 860
0 -117.188 885
101.562 343.75 1529
-265.625 117.188 885
195.312 281.25 839
-117.188 187.5 906
-140.625 62.5 813
125 289.062 854
70.3125 -398.438 948
-382.812 335.938 1288
-398.438 359.375 1489
-335.938 -15.625 875
-312.5 -265.625 3208
39.0625 -250 805
-187.5 234.375 882
-164.062 281.25 981
-125 429.688 1219
-320.312 210.938 901
148.438 85.9375 776
-304.688 -203.125 1073
195.312 375 1354
-273.438 359.375 1264
-265.625 -171.875 1034
367.188 0 781
281.25 390.625 1322
171.875 -328.125 925
156.25 -273.438 925
-54.6875 -187.5 839
-179.688 -39.0625 882
-484.375 406.25 1354
-54.6875 -195.312 839
171.875 78.125 774
23.4375 -226.562 819
242.188 320.312 1433
-335.938 -7.8125 869
289.062 382.812 1328
54.6875 320.312 1564
54.6875 -242.188 809
-468.75 257.812 1080
-54.6875 367.188 1236
-476.562 -414.062 2212
117.188 -140.625 862
187.5 -140.625 956
-406.25 -414.062 2301
-179.688 125 860
-187.5 265.625 967
109.375 -351.562 967
195.312 367.188 1354
140.625 85.9375 776
296.875 93.75 761
-46.875 -125 882
-31.25 273.438 873
117.188 -257.812 800
-273.438 125 891
-414.062 -460.938 2415
0 296.875 1586
-7.8125 -226.562 821
-335.938 328.125 1297
-429.688 -78.125 1177
492.188 -234.375 1054
-476.562 -421.875 2212
15.625 -195.312 837
117.188 -85.9375 896
-429.688 -429.688 2349
54.6875 -289.062 811
117.188 -164.062 851
195.312 273.438 837
343.75 93.75 755
406.25 -39.0625 807
-429.688 -132.812 995
23.4375 -281.25 807
156.25 -335.938 928
-468.75 289.062 1119
-335.938 70.3125 878
-179.688 359.375 1264
-312.5 351.562 1268
-320.312 328.125 1087
140.625 -351.562 933
179.688 -281.25 933
335.938 85.9375 755
-226.562 -101.562 918
156.25 78.125 774
117.188 -210.938 821
382.812 -31.25 798
460.938 23.4375 787
-226.562 -54.6875 1063
-468.75 414.062 1354
-406.25 -281.25 2381
85.9375 390.625 1477
-429.688 -273.438 2381
203.125 -257.812 871
437.5 117.188 747
-250 7.8125 913
-281.25 125 887
-375 70.3125 915
132.812 -320.312 935
-398.438 31.25 1047
-226.562 -62.5 903
-429.688 -70.3125 1161
101.562 -421.875 967
-234.375 0 896
-375 0 946
-242.188 -62.5 894
-210.938 46.875 819
93.75 -187.5 837
484.375 85.9375 741
31.25 -250 805
164.062 210.938 873
-375 140.625 946
-226.562 -23.4375 894
375 273.438 821
-7.8125 78.125 794
-296.875 -281.25 3178
312.5 93.75 757
-367.188 93.75 903
117.188 195.312 858
-343.75 -460.938 2560
195.312 -312.5 943
-445.312 -156.25 1288
-156.25 -273.438 3238
140.625 -343.75 940
-492.188 -421.875 2184
-257.812 7.8125 915
234.375 398.438 1312
484.375 -257.812 1087
-93.75 62.5 803
-328.125 132.812 918
-359.375 117.188 901
-421.875 -23.4375 1013
-70.3125 187.5 889
-406.25 23.4375 1050
-148.438 187.5 906
187.5 -289.062 928
289.062 351.562 1376
-250 -39.0625 894
414.062 -23.4375 805
-39.0625 -406.25 981
351.562 -39.0625 811
375 -7.8125 789
-312.5 -273.438 3208
281.25 343.75 1392
-484.375 281.25 1115
-179.688 351.562 1057
476.562 -273.438 1112
-500 398.438 1322
453.125 289.062 809
320.312 93.75 757
-93.75 265.625 878
-429.688 296.875 1108
367.188 289.062 815
46.875 304.688 1579
281.25 93.75 761
-335.938 132.812 915
460.938 203.125 803
-39.0625 -203.125 833
-281.25 335.938 1080
156.25 -328.125 935
-476.562 -242.188 1439
164.062 78.125 774
85.9375 -109.375 880
171.875 -296.875 938
-15.625 -367.188 959
70.3125 -265.625 798
-226.562 -54.6875 1063
-101.562 62.5 803
101.562 226.562 869
-492.188 -414.062 2198
-375 320.312 1097
289.062 359.375 1365
-179.688 296.875 1001
-437.5 -164.062 1034
-62.5 -250 807
445.312 421.875 1028
-460.938 320.312 1297
-476.562 406.25 1338
-171.875 -54.6875 896
132.812 281.25 847
-359.375 351.562 1283
39.0625 -171.875 847
-218.75 62.5 817
-250 15.625 903
-210.938 -273.438 3269
-140.625 382.812 1138
484.375 203.125 802
195.312 -320.312 935
210.938 390.625 1322
429.688 437.5 1054
-390.625 101.562 975
-46.875 -117.188 882
109.375 -117.188 875
-70.3125 195.312 898
359.375 0 774
-445.312 -140.625 1013
62.5 -398.438 946
-304.688 -375 2984
-437.5 -109.375 975
382.812 39.0625 783
351.562 7.8125 780
-187.5 273.438 975
-382.812 117.188 962
31.25 210.938 885
-171.875 320.312 1025
46.875 -390.625 946
-39.0625 242.188 867
62.5 -234.375 811
109.375 -421.875 973
-234.375 70.3125 891
-312.5 -406.25 2908
-320.312 -468.75 2789
109.375 203.125 864
7.8125 -226.562 819
437.5 429.688 1041
-398.438 -93.75 948
-226.562 -31.25 894
-312.5 -367.188 2984
125 367.188 1398
460.938 85.9375 742
-312.5 93.75 875
7.8125 70.3125 790
171.875 -250 891
195.312 -335.938 935
328.125 93.75 755
54.6875 -242.188 807
-429.688 -62.5 898
-265.625 164.062 925
-226.562 -93.75 908
171.875 -289.062 943
335.938 375 1433
-218.75 85.9375 896
-343.75 101.562 891
-31.25 203.125 894
-320.312 -421.875 2883
39.0625 -437.5 954
117.188 -250 802
-203.125 375 1245
148.438 -179.688 938
-218.75 351.562 1073
78.125 -187.5 837
-273.438 -164.062 1060
15.625 70.3125 790
453.125 85.9375 742
359.375 -39.0625 809
-54.6875 -179.688 851
31.25 -132.812 869
-242.188 -78.125 898
-250 -39.0625 894
-195.312 54.6875 817
468.75 85.9375 742
46.875 -179.688 843
70.3125 -359.375 948
-7.8125 -70.3125 898
23.4375 421.875 1433
390.625 23.4375 769
-492.188 171.875 925
492.188 -218.75 1025
-445.312 -132.812 1250
31.25 70.3125 789
-414.062 328.125 1292
328.125 -265.625 891
-468.75 171.875 925
-296.875 70.3125 873
-203.125 54.6875 817
195.312 335.938 1392
0 -195.312 835
-281.25 359.375 1264
-335.938 0 869
343.75 -62.5 833
-484.375 398.438 1328
-125 437.5 1214
195.312 -304.688 948
85.9375 382.812 1477
-273.438 148.438 935
-273.438 148.438 935
289.062 -218.75 878
359.375 218.75 831
-367.188 -265.625 3333
304.688 93.75 759
-7.8125 -234.375 811
0 -242.188 807
101.562 335.938 1536
-335.938 -289.062 3365
195.312 -343.75 928
0 -289.062 815
-296.875 -320.312 3092
398.438 -101.562 811
195.312 375 1354
117.188 -93.75 887
-359.375 -460.938 2560
-62.5 -250 807
-31.25 -203.125 833
-164.062 -78.125 913
-421.875 -367.188 2241
-78.125 382.812 1273
-335.938 210.938 901
54.6875 -132.812 869
398.438 15.625 766
-148.438 62.5 811
171.875 -273.438 898
-414.062 -375 2256
117.188 289.062 858
195.312 -312.5 943
-23.4375 -343.75 967
54.6875 -226.562 817
-164.062 242.188 882
109.375 -296.875 813
-101.562 242.188 869
203.125 382.812 1333
-70.3125 335.938 1322
-39.0625 -414.062 989
148.438 -328.125 933
132.812 85.9375 776
-203.125 117.188 854
375 -78.125 827
148.438 78.125 774
-320.312 -460.938 2812
492.188 -273.438 1112
-351.562 312.5 1087
54.6875 -445.312 951
281.25 320.312 1404
-195.312 -7.8125 862
-414.062 -179.688 1041
54.6875 -289.062 811
398.438 289.062 813
-210.938 31.25 831
62.5 -265.625 798
-484.375 -437.5 2156
39.0625 -148.438 862
-70.3125 343.75 1307
445.312 85.9375 744
39.0625 281.25 864
-406.25 -437.5 2432
-226.562 -54.6875 1063
-351.562 -117.188 1070
-78.125 -109.375 943
-210.938 234.375 882
117.188 273.438 845
-289.062 -23.4375 880
117.188 70.3125 778
109.375 -289.062 805
-148.438 -109.375 946
382.812 85.9375 752
445.312 -23.4375 800
31.25 -351.562 951
46.875 312.5 1572
7.8125 54.6875 798
-125 -164.062 998
187.5 281.25 839
-164.062 54.6875 813
210.938 78.125 769
492.188 85.9375 739
-281.25 218.75 894
179.688 281.25 843
-414.062 7.8125 1070
-421.875 -15.625 1097
-390.625 312.5 1105
-70.3125 250 867
-54.6875 -171.875 851
-218.75 46.875 896
-7.8125 -203.125 831
-187.5 78.125 823
-273.438 -171.875 1050
-257.812 328.125 1073
-445.312 187.5 915
-398.438 328.125 1297
-437.5 -101.562 973
-242.188 367.188 1259
195.312 -296.875 954
-406.25 -289.062 2381
-312.5 -414.062 2908
164.062 -289.062 935
-132.812 359.375 1060
-382.812 125 956
421.875 -54.6875 813
46.875 -195.312 831
-382.812 0 1019
-296.875 101.562 878
296.875 367.188 1343
-320.312 -414.062 2908
-296.875 132.812 894
-414.062 0 1077
-375 78.125 910
-304.688 -367.188 2984
-367.188 -289.062 3399
-304.688 -242.188 1392
-140.625 257.812 887
-171.875 312.5 1016
-132.812 414.062 1181
476.562 85.9375 742
-460.938 226.562 1028
-312.5 -460.938 2812
382.812 15.625 771
0 78.125 792
62.5 -85.9375 898
-429.688 -117.188 992
-46.875 195.312 898
406.25 -234.375 1057
-281.25 -242.188 1392
-367.188 203.125 906
-156.25 -93.75 935
0 156.25 849
195.312 -289.062 930
-242.188 -23.4375 889
-289.062 -281.25 3178
195.312 -328.125 935
-460.938 289.062 1112
484.375 -250 1077
-7.8125 -281.25 807
78.125 -328.125 956
-296.875 -31.25 885
-335.938 132.812 915
179.688 -265.625 887
-304.688 -359.375 2984
15.625 265.625 858
117.188 -125 869
-78.125 375 1273
-117.188 -179.688 1025
-54.6875 -164.062 851
-414.062 -7.8125 1013
359.375 -7.8125 774
23.4375 -132.812 869
289.062 93.75 761
171.875 -257.812 891
-437.5 -148.438 1022
-304.688 -312.5 3120
0 -148.438 860
171.875 -343.75 923
-46.875 -109.375 887
-390.625 101.562 975
187.5 367.188 1343
164.062 -304.688 943
-335.938 101.562 885
-390.625 304.688 1101
-406.25 23.4375 1050
492.188 140.625 750
-468.75 234.375 1038
195.312 -320.312 935
-78.125 445.312 1307
-484.375 -445.312 2156
54.6875 -109.375 880
-398.438 -15.625 1013
70.3125 -109.375 880
-304.688 -320.312 3092
-46.875 -343.75 987
210.938 375 1333
46.875 -398.438 946
62.5 -453.125 948
-125 70.3125 807
-109.375 70.3125 805
-484.375 -414.062 2226
-289.062 -242.188 1398
390.625 85.9375 752
-343.75 -23.4375 875
-437.5 -304.688 2349
-328.125 -460.938 2723
-429.688 -54.6875 1145
-390.625 70.3125 1007
-351.562 109.375 903
-31.25 -367.188 970
-62.5 -382.812 1004
-210.938 23.4375 833
-234.375 -85.9375 903
-492.188 382.812 1297
-312.5 -359.375 2984
-375 15.625 925
-62.5 -250 807
109.375 -289.062 805
-382.812 -289.062 3365
-382.812 -445.312 2485
-234.375 -78.125 901
-273.438 -242.188 1387
-375 140.625 946
-437.5 -93.75 946
-468.75 226.562 1031
-296.875 -312.5 3120
195.312 -250 875
-289.062 156.25 930
-226.562 -62.5 903
-296.875 -242.188 1410
-218.75 62.5 817
-359.375 -445.312 2485
-46.875 -375 981
-445.312 -132.812 1250
117.188 -148.438 858
406.25 -46.875 805
-398.438 78.125 1001
398.438 -70.3125 819
31.25 -179.688 841
437.5 -39.0625 803
-484.375 328.125 1250
-335.938 -460.938 2639
-7.8125 -125 875
-414.062 7.8125 1070
492.188 93.75 733
-429.688 -265.625 2381
-437.5 -421.875 2349
335.938 23.4375 798
-296.875 -273.438 3178
-218.75 375 1259
-210.938 218.75 885
-140.625 390.625 1138
-484.375 -375 2226
-54.6875 257.812 867
-234.375 109.375 896
179.688 -351.562 920
-156.25 62.5 813
0 -242.188 807
-203.125 62.5 817
78.125 -117.188 878
-250 117.188 885
312.5 242.188 845
-39.0625 -203.125 833
39.0625 -203.125 829
195.312 -281.25 930
101.562 -85.9375 894
-500 -437.5 2156
-476.562 -390.625 2241
-62.5 -234.375 1080
23.4375 70.3125 789
-437.5 -398.438 2286
-281.25 -203.125 1070
-54.6875 -187.5 841
-234.375 343.75 1073
-226.562 93.75 894
-242.188 343.75 1073
273.438 93.75 762
-351.562 257.812 1013
-62.5 -226.562 1073
-171.875 328.125 1034
62.5 -101.562 885
-179.688 -46.875 880
-484.375 -406.25 2226
109.375 -281.25 798
-351.562 46.875 889
148.438 -343.75 940
195.312 328.125 1392
320.312 85.9375 757
-46.875 -93.75 923
-312.5 -398.438 2908
304.688 85.9375 759
117.188 -156.25 851
-218.75 -210.938 1343
195.312 -304.688 948
-367.188 23.4375 903
-7.8125 -140.625 867
0 -304.688 823
-132.812 -148.438 987
-453.125 -414.062 2286
-500 -445.312 2156
46.875 -179.688 843
-421.875 -398.438 2271
-398.438 -31.25 867
62.5 -375 946
-398.438 -289.062 2349
-312.5 -406.25 2908
156.25 -289.062 930
-476.562 328.125 1278
406.25 -93.75 811
-273.438 -179.688 1050
-156.25 320.312 1019
-398.438 85.9375 992
-375 125 901
-203.125 125 860
-70.3125 367.188 1236
-257.812 -148.438 1007
-390.625 -406.25 2365
-359.375 125 901
-429.688 304.688 1115
-421.875 -437.5 2415
-218.75 70.3125 817
-351.562 351.562 1268
7.8125 -242.188 809
-7.8125 273.438 867
-312.5 -437.5 2883
476.562 -335.938 2723
-398.438 304.688 1101
132.812 273.438 843
-460.938 304.688 1115
-382.812 304.688 1094
-85.9375 62.5 803
-164.062 39.0625 823
-437.5 257.812 1054
117.188 -78.125 894
-46.875 70.3125 798
-437.5 -312.5 2349
-273.438 -156.25 1025
-359.375 39.0625 901
-500 -31.25 1119
-250 -31.25 887
-351.562 62.5 887
-500 -398.438 2212
-460.938 -398.438 2286
-179.688 382.812 1245
7.8125 -421.875 959
-289.062 328.125 1084
-187.5 265.625 964
-492.188 -414.062 2198
-234.375 -109.375 925
125 210.938 880
351.562 -70.3125 831
101.562 328.125 1543
-265.625 -164.062 1034
-312.5 -210.938 1070
-367.188 101.562 894
125 -312.5 992
210.938 296.875 837
296.875 -265.625 878
187.5 78.125 771
-179.688 289.062 989
359.375 -70.3125 827
-328.125 -468.75 2701
-382.812 132.812 954
-23.4375 -351.562 967
7.8125 296.875 1586
-375 132.812 903
367.188 7.8125 780
195.312 -265.625 880
125 343.75 1427
-375 7.8125 1025
-429.688 -70.3125 1161
-320.312 -429.688 2883
-429.688 -171.875 1031
-210.938 23.4375 833
-54.6875 -210.938 833
-54.6875 -210.938 833
195.312 -296.875 954
359.375 -54.6875 811
-179.688 54.6875 815
351.562 15.625 785
-312.5 -421.875 2883
-148.438 367.188 1063
-62.5 -234.375 1080
-414.062 15.625 1063
187.5 351.562 1387
-250 85.9375 887
210.938 390.625 1322
-171.875 296.875 998
312.5 -62.5 871
429.688 421.875 1041
93.75 351.562 1516
-125 421.875 1202
-226.562 -46.875 906
-46.875 -398.438 987
351.562 -23.4375 805
-296.875 -328.125 3092
-390.625 109.375 973
390.625 -54.6875 803
296.875 85.9375 759
484.375 -234.375 1050
-265.625 -242.188 1404
406.25 -23.4375 803
437.5 265.625 821
-281.25 -195.312 1067
164.062 85.9375 774
492.188 -226.562 1038
-421.875 -15.625 1097
-375 -195.312 1057
-62.5 -226.562 1073
-343.75 -203.125 1073
-54.6875 -156.25 858
-187.5 -31.25 875
-296.875 -203.125 1070
-132.812 406.25 1181
109.375 343.75 1523
-140.625 -132.812 964
-492.188 390.625 1317
-218.75 39.0625 831
-304.688 -31.25 880
390.625 39.0625 781
109.375 -265.625 796
-429.688 250 1038
195.312 156.25 813
140.625 -335.938 935
-109.375 250 871
54.6875 -281.25 802
-414.062 335.938 1292
-437.5 -382.812 2241
-101.562 250 869
-179.688 304.688 1010
343.75 -54.6875 835
-343.75 62.5 878
-62.5 351.562 1387
-171.875 320.312 1025
-437.5 -93.75 946
93.75 -398.438 954
421.875 140.625 767
-453.125 -398.438 2286
-148.438 -117.188 946
-312.5 148.438 938
-281.25 62.5 875
-117.188 -273.438 3208
-429.688 -46.875 1134
0 -289.062 815
-234.375 -78.125 901
70.3125 -117.188 878
109.375 -281.25 798
-359.375 -468.75 2560
-367.188 109.375 894
289.062 375 1333
-312.5 -390.625 2984
-406.25 -273.438 2349
-289.062 -15.625 878
-453.125 -406.25 2286
-445.312 -125 1241
-468.75 -375 2226
-304.688 -359.375 2984
-398.438 85.9375 992
125 85.9375 776
-304.688 328.125 1087
343.75 -23.4375 809
-289.062 62.5 875
-39.0625 -367.188 975
-484.375 -429.688 2170
-343.75 -15.625 878
-156.25 -101.562 935
195.312 375 1354
-382.812 132.812 954
-382.812 125 956
54.6875 -289.062 811
-218.75 46.875 896
-62.5 -218.75 829
-429.688 -39.0625 1126
-320.312 -406.25 2908
-367.188 -460.938 2560
-468.75 328.125 1288
0 -359.375 956
-210.938 15.625 833
296.875 328.125 1398
195.312 -273.438 928
-226.562 -39.0625 894
132.812 -328.125 935
-437.5 -117.188 992
-109.375 -312.5 3120
-210.938 23.4375 833
-335.938 -203.125 1073
109.375 -273.438 796
187.5 -281.25 930
125 335.938 1433
-250 -54.6875 903
320.312 -62.5 835
-218.75 54.6875 819
-375 -429.688 2415
54.6875 -85.9375 898
484.375 -242.188 1060
-31.25 -203.125 833
-39.0625 -203.125 833
70.3125 -382.812 946
-320.312 351.562 1264
-304.688 -304.688 3149
187.5 -250 880
-343.75 117.188 896
-46.875 -78.125 908
-500 -210.938 1370
-234.375 -70.3125 901
-148.438 335.938 1041
-62.5 335.938 1398
-445.312 -335.938 2301
-359.375 125 901
-351.562 273.438 1031
-414.062 -179.688 1041
-304.688 -351.562 2984
-195.312 -15.625 862
132.812 -335.938 981
187.5 343.75 1392
-398.438 -421.875 2365
78.125 -195.312 831
-218.75 85.9375 896
179.688 343.75 1392
-320.312 -414.062 2908
226.562 398.438 1312
-367.188 -437.5 2503
-375 335.938 1288
171.875 -265.625 898
-265.625 335.938 1080
460.938 -140.625 935
-257.812 109.375 885
93.75 -156.25 854
-390.625 109.375 973
-304.688 -312.5 3120
289.062 234.375 856
-250 -31.25 887
484.375 -250 1077
-343.75 109.375 894
109.375 -242.188 807
-46.875 -85.9375 915
-125 -179.688 1025
-171.875 265.625 959
-320.312 -445.312 2835
-335.938 70.3125 875
281.25 328.125 1398
179.688 -335.938 923
-70.3125 62.5 802
-125 437.5 1214
109.375 -257.812 798
0 70.3125 792
101.562 -367.188 956
0 -351.562 956
-351.562 117.188 903
93.75 -187.5 837
-281.25 179.688 913
-62.5 -226.562 1073
-445.312 -382.812 2226
-445.312 -289.062 3365
273.438 304.688 835
-62.5 -210.938 833
195.312 -289.062 930
-375 85.9375 906
-320.312 -453.125 2835
-414.062 15.625 1063
54.6875 -234.375 811
140.625 -343.75 940
210.938 281.25 835
-156.25 382.812 1236
54.6875 -226.562 817
-367.188 148.438 935
-164.062 -85.9375 930
-406.25 -390.625 2301
-312.5 -367.188 2984
-226.562 85.9375 894
-218.75 39.0625 831
-320.312 -460.938 2812
187.5 -296.875 928
-281.25 125 887
-148.438 -312.5 3149
-328.125 125 894
-203.125 -312.5 3178
-492.188 -375 2226
31.25 -359.375 948
-132.812 -187.5 1292
117.188 281.25 849
-312.5 -359.375 2984
-179.688 187.5 906
289.062 -257.812 871
62.5 398.438 1464
-382.812 281.25 1073
-335.938 31.25 875
-476.562 -242.188 1439
-78.125 62.5 803
429.688 85.9375 746
343.75 85.9375 755
15.625 -171.875 847
-15.625 -281.25 807
-367.188 109.375 894
-468.75 -398.438 2256
-62.5 -218.75 829
-429.688 -31.25 1115
-257.812 -140.625 998
-7.8125 -304.688 823
93.75 273.438 849
195.312 -281.25 930
484.375 273.438 813
171.875 -320.312 928
-476.562 -289.062 3433
156.25 -320.312 935
-328.125 -453.125 2767
0 -414.062 956
-312.5 218.75 898
-15.625 -359.375 959
296.875 289.062 827
-343.75 -289.062 3365
-250 -312.5 3178
289.062 359.375 1365
125 359.375 1427
-351.562 54.6875 882
-156.25 -437.5 2883
109.375 -234.375 807
39.0625 -281.25 803
-7.8125 304.688 1579
-320.312 -468.75 2789
281.25 335.938 1398
445.312 -296.875 1145
-421.875 -7.8125 1084
-359.375 -289.062 3399
-390.625 117.188 964
-164.062 390.625 1241
117.188 -304.688 811
109.375 -226.562 813
-179.688 296.875 995
-23.4375 250 860
-476.562 179.688 920
-437.5 -429.688 2349
-320.312 -406.25 2908
257.812 398.438 1322
-445.312 -421.875 2333
-320.312 -23.4375 880
109.375 -273.438 794
320.312 -70.3125 835
-320.312 -398.438 2908
85.9375 78.125 781
-351.562 -289.062 3399
421.875 -289.062 1138
-125 242.188 873
390.625 101.562 747
-421.875 304.688 1101
-351.562 0 867
109.375 -242.188 805
109.375 -257.812 796
-187.5 179.688 913
-54.6875 -140.625 860
46.875 -171.875 843
-132.812 421.875 1202
-312.5 -351.562 3010
-78.125 390.625 1236
7.8125 -289.062 815
-296.875 -23.4375 878
-460.938 -289.062 3433
148.438 -281.25 925
-375 -453.125 2503
-62.5 -210.938 831
-445.312 -164.062 1307
-171.875 234.375 875
484.375 289.062 803
-335.938 265.625 1007
-39.0625 265.625 867
-15.625 -125 871
-312.5 -398.438 2933
-429.688 -109.375 973
-476.562 -375 2226
-54.6875 -148.438 860
-484.375 -242.188 3238
7.8125 70.3125 790
-257.812 367.188 1259
109.375 -109.375 878
242.188 70.3125 769
-476.562 -414.062 2170
-320.312 132.812 889
421.875 -31.25 811
296.875 351.562 1365
257.812 93.75 762
-328.125 -445.312 2835
-406.25 31.25 1047
179.688 265.625 841
359.375 15.625 780
273.438 109.375 767
328.125 85.9375 755
-320.312 359.375 1268
-7.8125 -234.375 809
-304.688 359.375 1264
-406.25 -257.812 2415
-445.312 -117.188 998
-148.438 375 1115
-140.625 398.438 1161
187.5 359.375 1365
-62.5 -203.125 831
289.062 367.188 1349
-265.625 -156.25 1013
-406.25 -93.75 948
109.375 -265.625 794
46.875 -289.062 811
-343.75 70.3125 875
-54.6875 195.312 894
-429.688 -31.25 1115
-500 382.812 1297
-414.062 -414.062 2286
46.875 -93.75 889
-492.188 -406.25 2198
-500 -375 2226
-328.125 109.375 878
109.375 -234.375 807
156.25 -296.875 935
78.125 -351.562 948
-429.688 -101.562 967
-421.875 0 1077
-398.438 -187.5 1047
-453.125 -156.25 1288
-421.875 335.938 1421
70.3125 -101.562 880
109.375 -343.75 964
453.125 93.75 739
-156.25 -312.5 3120
148.438 -289.062 928
367.188 15.625 778
-242.188 -117.188 946
390.625 -62.5 805
-375 148.438 938
351.562 23.4375 792
-242.188 31.25 889
-54.6875 390.625 1227
109.375 -281.25 798
-265.625 -15.625 878
-343.75 -7.8125 871
-484.375 179.688 923
296.875 93.75 755
195.312 234.375 858
-359.375 367.188 1503
54.6875 -281.25 800
-390.625 335.938 1288
-406.25 335.938 1283
-218.75 62.5 817
-234.375 -23.4375 894
-125 109.375 831
-320.312 -437.5 2859
109.375 -218.75 817
-406.25 -398.438 2301
78.125 359.375 1516
-218.75 109.375 906
140.625 -359.375 923
-367.188 281.25 998
132.812 -375 975
-398.438 -7.8125 1013
-398.438 93.75 987
-250 -132.812 967
-437.5 -132.812 1007
85.9375 273.438 847
-148.438 -132.812 973
289.062 375 1333
460.938 -289.062 1134
-7.8125 -179.688 839
125 -343.75 975
-429.688 -93.75 954
164.062 -281.25 928
-484.375 -390.625 2241
-492.188 179.688 923
351.562 -70.3125 829
351.562 -15.625 774
-54.6875 -398.438 1001
171.875 -281.25 943
-156.25 187.5 906
-31.25 -398.438 970
-351.562 164.062 925
-226.562 -312.5 3178
-46.875 -328.125 987
109.375 -164.062 843
-312.5 -382.812 2984
-15.625 -78.125 901
-125 -312.5 3120
-226.562 70.3125 894
-125 -171.875 1007
-265.625 367.188 1264
-132.812 -312.5 3120
109.375 -210.938 821
-390.625 117.188 964
-242.188 -78.125 896
-398.438 -398.438 2301
476.562 -265.625 1094
125 78.125 774
15.625 -281.25 805
156.25 78.125 774
-437.5 -85.9375 1185
-23.4375 78.125 794
-273.438 -171.875 1034
-234.375 164.062 923
-218.75 85.9375 827
-250 -62.5 891
375 -101.562 823
-328.125 140.625 894
-468.75 320.312 1292
-296.875 39.0625 880
226.562 85.9375 766
109.375 -93.75 887
132.812 -351.562 978
-171.875 328.125 1034
-250 -46.875 901
-304.688 335.938 1080
85.9375 -187.5 835
-54.6875 -132.812 959
-62.5 -203.125 831
-31.25 328.125 1543
109.375 -195.312 827
125 218.75 873
-257.812 -70.3125 891
-351.562 15.625 867
-320.312 -429.688 2883
-250 39.0625 887
109.375 -226.562 813
78.125 351.562 1523
46.875 -445.312 946
-320.312 31.25 920
-421.875 328.125 1421
468.75 218.75 813
-445.312 -406.25 2271
-500 -429.688 2156
351.562 -101.562 875
-210.938 109.375 843
148.438 85.9375 773
7.8125 -437.5 962
-210.938 54.6875 819
-437.5 -140.625 1007
-320.312 -39.0625 871
-500 -390.625 2226
-406.25 -453.125 2467
-195.312 -15.625 864
-382.812 132.812 954
210.938 390.625 1328
-132.812 367.188 1119
-234.375 -109.375 925
-31.25 -203.125 829
437.5 109.375 742
140.625 78.125 773
-7.8125 359.375 1516
234.375 85.9375 764
-195.312 351.562 1060
-335.938 351.562 1273
-382.812 140.625 946
148.438 -312.5 938
31.25 -171.875 843
468.75 437.5 1169
-226.562 375 1255
-492.188 351.562 1245
109.375 -250 800
281.25 85.9375 759
406.25 85.9375 747
-156.25 54.6875 811
-398.438 85.9375 992
-187.5 289.062 987
-390.625 281.25 1077
-304.688 101.562 875
-421.875 0 1077
437.5 85.9375 746
-273.438 7.8125 869
-304.688 -296.875 3149
-390.625 70.3125 913
-382.812 62.5 913
-7.8125 -226.562 817
-445.312 -117.188 998
-445.312 -109.375 1214
-23.4375 -234.375 811
375 0 774
406.25 -31.25 803
195.312 -257.812 871
-7.8125 -132.812 869
-351.562 343.75 1283
-476.562 375 1283
320.312 218.75 862
-367.188 7.8125 869
-226.562 343.75 1063
171.875 -257.812 889
-296.875 -31.25 882
-101.562 62.5 802
109.375 -257.812 796
-39.0625 343.75 1529
-171.875 -70.3125 903
179.688 -257.812 885
-453.125 -148.438 1278
312.5 273.438 825
-460.938 -406.25 2271
140.625 85.9375 773
-148.438 -125 964
-218.75 39.0625 827
0 -429.688 959
-312.5 -343.75 3037
343.75 -7.8125 774
164.062 -296.875 938
-359.375 320.312 1090
359.375 304.688 823
-132.812 -156.25 987
476.562 -117.188 908
312.5 85.9375 755
-171.875 54.6875 813
-226.562 101.562 896
-15.625 78.125 794
125 328.125 1433
398.438 85.9375 747
468.75 320.312 811
-23.4375 -367.188 962
-281.25 -187.5 1063
101.562 289.062 856
109.375 85.9375 776
109.375 -218.75 817
-429.688 -62.5 898
-429.688 -437.5 2365
179.688 -296.875 925
132.812 -359.375 978
-351.562 -390.625 3149
-257.812 -140.625 995
-62.5 -210.938 831
492.188 218.75 803
343.75 0 778
117.188 85.9375 774
-203.125 375 1250
-132.812 375 1126
-109.375 62.5 803
-476.562 312.5 1278
132.812 78.125 774
109.375 -78.125 891
398.438 -31.25 798
-312.5 -390.625 2958
-484.375 -242.188 3238
46.875 -132.812 864
-453.125 187.5 915
-343.75 109.375 887
156.25 -257.812 901
109.375 -234.375 807
-320.312 -390.625 2908
281.25 -179.688 920
-148.438 62.5 809
-406.25 367.188 1464
328.125 -54.6875 831
390.625 -46.875 798
-234.375 -85.9375 903
375 289.062 813
148.438 -335.938 935
-390.625 -390.625 2398
-398.438 93.75 987
-382.812 -421.875 2415
-359.375 -117.188 1067
-7.8125 -312.5 975
-54.6875 382.812 1227
23.4375 -117.188 878
-62.5 -195.312 837
46.875 359.375 1489
-179.688 304.688 1004
117.188 -335.938 970
-367.188 117.188 896
-101.562 70.3125 802
-406.25 -23.4375 869
-250 7.8125 918
-117.188 70.3125 803
335.938 7.8125 785
468.75 351.562 948
-382.812 -242.188 1421
281.25 343.75 1392
-265.625 343.75 1077
-7.8125 70.3125 792
-414.062 382.812 1445
70.3125 265.625 849
-164.062 62.5 811
203.125 -250 871
-429.688 -390.625 2241
7.8125 281.25 860
-226.562 62.5 891
-15.625 -375 959
-242.188 125 887
78.125 273.438 847
-500 -421.875 2170
-281.25 148.438 896
-257.812 15.625 906
93.75 -187.5 835
101.562 -351.562 956
156.25 -351.562 920
-437.5 -78.125 1173
-289.062 -187.5 1070
-257.812 -109.375 928
-429.688 -23.4375 1105
-414.062 23.4375 1054
-93.75 242.188 867
-304.688 -343.75 3037
-375 15.625 1028
-148.438 367.188 1060
70.3125 -382.812 946
-312.5 -31.25 875
335.938 -54.6875 831
85.9375 375 1477
-171.875 242.188 878
-320.312 -445.312 2835
-343.75 132.812 910
492.188 -226.562 1041
-382.812 -210.938 1365
-250 367.188 1255
-7.8125 78.125 790
-320.312 -15.625 875
-46.875 93.75 805
0 -421.875 959
-375 93.75 898
164.062 -351.562 918
242.188 93.75 764
109.375 -101.562 880
281.25 93.75 759
195.312 382.812 1333
-54.6875 70.3125 796
-132.812 70.3125 805
-210.938 117.188 913
429.688 -62.5 837
-273.438 -187.5 1050
-398.438 -62.5 891
7.8125 -210.938 821
101.562 210.938 882
-437.5 -70.3125 1161
-304.688 -203.125 1070
109.375 -226.562 813
171.875 78.125 773
-125 382.812 1134
265.625 93.75 762
-343.75 -257.812 3300
-289.062 -125 1084
-7.8125 265.625 860
359.375 23.4375 783
-429.688 -78.125 906
109.375 -296.875 811
-242.188 343.75 1070
-46.875 -70.3125 903
31.25 -250 803
-265.625 -62.5 885
-320.312 -289.062 3208
226.562 398.438 1312
351.562 31.25 790
125 -382.812 970
54.6875 335.938 1523
187.5 -250 878
-164.062 382.812 1236
-93.75 62.5 802
140.625 -335.938 935
-234.375 -31.25 896
-242.188 -117.188 946
312.5 218.75 862
-179.688 382.812 1241
109.375 -156.25 851
-437.5 -62.5 1153
-390.625 125 959
125 -320.312 984
109.375 -203.125 825
-445.312 -109.375 1214
-460.938 -179.688 1328
-382.812 0 943
0 -281.25 805
164.062 78.125 773
367.188 23.4375 778
187.5 367.188 1349
328.125 23.4375 798
273.438 390.625 1333
-164.062 187.5 906
-31.25 78.125 794
-453.125 -140.625 1268
148.438 78.125 773
109.375 -171.875 841
-62.5 367.188 1236
0 70.3125 790
-445.312 -328.125 2301
484.375 -226.562 1041
-453.125 320.312 1302
-85.9375 437.5 1273
-343.75 70.3125 875
-476.562 335.938 1273
-265.625 -148.438 1013
109.375 -265.625 794
-414.062 -31.25 871
-250 -125 967
-195.312 265.625 962
-179.688 359.375 1063
-398.438 101.562 978
187.5 -351.562 918
-390.625 343.75 1288
101.562 -265.625 794
-273.438 -265.625 3238
-93.75 195.312 898
-406.25 -31.25 869
-367.188 117.188 896
-421.875 -7.8125 1084
-265.625 -312.5 3208
-320.312 328.125 1084
148.438 -312.5 938
-429.688 -23.4375 1105
-117.188 -312.5 3120
-281.25 359.375 1264
-15.625 -226.562 817
421.875 85.9375 747
-210.938 -312.5 3178
-15.625 -414.062 962
343.75 -78.125 829
476.562 -257.812 1087
-171.875 -312.5 3149
351.562 304.688 821
-210.938 375 1250
-492.188 -453.125 2103
257.812 -234.375 864
-328.125 -437.5 2859
-320.312 23.4375 864
156.25 -273.438 923
-289.062 -203.125 1060
-187.5 -39.0625 878
-54.6875 -125 954
-281.25 -109.375 1063
-328.125 -39.0625 869
-39.0625 -70.3125 903
-460.938 -437.5 2241
187.5 -343.75 920
78.125 -187.5 835
164.062 -273.438 923
-351.562 39.0625 878
-226.562 117.188 903
-54.6875 -203.125 831
-289.062 367.188 1268
132.812 -351.562 978
23.4375 203.125 887
39.0625 70.3125 787
-62.5 -195.312 837
-421.875 0 1077
-390.625 335.938 1288
23.4375 281.25 860
375 85.9375 750
484.375 -242.188 1057
132.812 -187.5 831
-484.375 -421.875 2170
468.75 -281.25 1123
-289.062 359.375 1264
-335.938 320.312 1090
-156.25 70.3125 811
-312.5 -335.938 3064
-375 148.438 938
-304.688 359.375 1264
-15.625 -85.9375 898
187.5 -335.938 923
-429.688 -85.9375 951
7.8125 265.625 856
-367.188 210.938 906
117.188 226.562 869
109.375 -93.75 887
109.375 210.938 880
-15.625 -328.125 967
-445.312 -156.25 1025
476.562 101.562 736
-273.438 343.75 1077
-15.625 -132.812 869
-132.812 429.688 1202
-335.938 273.438 1001
117.188 210.938 878
-320.312 351.562 1268
-453.125 -289.062 3433
-406.25 31.25 1047
234.375 320.312 1433
-15.625 -320.312 970
335.938 85.9375 755
109.375 -109.375 878
93.75 85.9375 780
-117.188 62.5 805
312.5 289.062 823
140.625 -351.562 923
476.562 218.75 811
-375 343.75 1283
85.9375 -109.375 878
-437.5 304.688 1112
-257.812 -39.0625 894
-15.625 70.3125 794
-437.5 -281.25 2333
-46.875 -406.25 992
-359.375 343.75 1283
31.25 -132.812 867
-437.5 328.125 1387
7.8125 390.625 1477
-304.688 -304.688 3092
273.438 328.125 1404
46.875 -171.875 843
-289.062 -109.375 1067
195.312 -273.438 925
46.875 -242.188 803
-179.688 320.312 1025
-117.188 414.062 1181
-421.875 328.125 1421
-140.625 -140.625 973
460.938 85.9375 741
195.312 -351.562 920
78.125 85.9375 781
15.625 250 856
70.3125 -390.625 946
7.8125 -101.562 887
-351.562 132.812 906
-140.625 187.5 906
109.375 -85.9375 889
-320.312 -273.438 3269
414.062 85.9375 747
-375 281.25 998
117.188 -320.312 981
15.625 335.938 1543
179.688 281.25 839
140.625 -328.125 935
-62.5 -187.5 835
-414.062 -289.062 2381
-203.125 351.562 1063
-343.75 351.562 1273
-359.375 281.25 989
85.9375 -187.5 835
-351.562 -460.938 2560
406.25 -15.625 803
-140.625 406.25 1177
-226.562 375 1255
171.875 -273.438 896
-296.875 218.75 889
39.0625 -398.438 943
218.75 93.75 767
109.375 -218.75 817
382.812 7.8125 769
-273.438 -101.562 1057
-242.188 328.125 1060
109.375 -210.938 821
-359.375 125 901
39.0625 304.688 1586
195.312 382.812 1333
-218.75 31.25 831
445.312 85.9375 744
-46.875 -179.688 841
132.812 85.9375 774
62.5 -359.375 946
-125 250 873
-312.5 23.4375 862
375 304.688 821
15.625 -132.812 869
15.625 -226.562 813
-320.312 -429.688 2883
-62.5 -203.125 831
210.938 70.3125 773
-46.875 273.438 869
117.188 -304.688 811
-359.375 7.8125 869
257.812 210.938 843
187.5 -320.312 930
304.688 273.438 827
-421.875 -445.312 2398
-414.062 23.4375 1054
-343.75 328.125 1094
109.375 -242.188 805
289.062 85.9375 759
-476.562 328.125 1278
-296.875 -273.438 3208
109.375 -148.438 856
343.75 304.688 825
-7.8125 382.812 1489
-125 70.3125 805
187.5 -273.438 928
125 367.188 1427
-335.938 125 891
-39.0625 273.438 871
-296.875 -46.875 875
328.125 304.688 829
-257.812 -23.4375 885
296.875 85.9375 755
109.375 -117.188 873
93.75 -375 948
-476.562 257.812 1070
250 93.75 762
-460.938 187.5 918
-125 62.5 805
234.375 93.75 764
179.688 359.375 1365
-265.625 367.188 1264
453.125 85.9375 742
460.938 101.562 738
-320.312 -382.812 2984
-304.688 -335.938 3064
171.875 -312.5 925
273.438 320.312 1404
-281.25 335.938 1080
-390.625 125 959
-382.812 335.938 1283
-484.375 -414.062 2170
-250 78.125 882
125 78.125 774
-390.625 0 1013
-414.062 15.625 1060
109.375 -101.562 880
-15.625 320.312 1557
187.5 335.938 1392
-15.625 343.75 1529
-39.0625 -203.125 829
-382.812 140.625 946
54.6875 -234.375 807
187.5 375 1343
-250 367.188 1255
-304.688 -289.062 3178
-398.438 101.562 978
320.312 375 1381
62.5 -109.375 880
-359.375 210.938 903
-15.625 -125 871
257.812 281.25 829
-46.875 -203.125 829
70.3125 273.438 849
-289.062 -179.688 1073
-250 375 1255
101.562 85.9375 778
117.188 390.625 1458
-164.062 382.812 1236
-31.25 -343.75 970
-382.812 78.125 910
195.312 -257.812 871
390.625 85.9375 750
-179.688 -54.6875 894
390.625 -54.6875 803
101.562 78.125 778
93.75 -109.375 878
-70.3125 242.188 862
-445.312 -101.562 1206
351.562 23.4375 792
-476.562 320.312 1283
-187.5 351.562 1070
445.312 304.688 813
-257.812 -132.812 998
-296.875 -23.4375 878
109.375 -140.625 860
-390.625 -351.562 3238
-429.688 304.688 1108
-406.25 -93.75 948
-234.375 -93.75 908
320.312 304.688 829
-70.3125 -343.75 1019
281.25 351.562 1387
-7.8125 296.875 1594
-367.188 312.5 1090
31.25 304.688 1579
78.125 398.438 1452
156.25 -265.625 901
-359.375 273.438 989
-195.312 273.438 973
-62.5 195.312 894
-54.6875 -117.188 885
-500 -414.062 2184
-15.625 -281.25 805
-15.625 195.312 880
-437.5 -62.5 1153
-312.5 -453.125 2835
187.5 -328.125 925
-437.5 -273.438 2398
382.812 273.438 821
-15.625 390.625 1483
-242.188 23.4375 896
85.9375 -265.625 796
-117.188 195.312 901
117.188 78.125 774
-31.25 -78.125 903
406.25 93.75 744
-281.25 -164.062 1028
281.25 343.75 1392
-375 7.8125 943
109.375 -296.875 811
-117.188 265.625 875
164.062 -148.438 959
-351.562 62.5 878
-7.8125 -203.125 827
54.6875 382.812 1477
-179.688 125 849
-484.375 -242.188 3238
62.5 320.312 1564
-164.062 257.812 880
117.188 -242.188 802
-328.125 210.938 894
-187.5 382.812 1236
93.75 335.938 1536
-164.062 54.6875 811
-195.312 -23.4375 869
-15.625 -382.812 956
-351.562 328.125 1090
-7.8125 -117.188 878
70.3125 -187.5 833
343.75 -23.4375 805
-382.812 -15.625 867
-445.312 -148.438 1019
382.812 85.9375 752
-312.5 -468.75 2789
-320.312 -15.625 875
-15.625 -70.3125 898
328.125 -15.625 829
289.062 367.188 1349
148.438 -304.688 935
117.188 -101.562 880
-281.25 -179.688 1063
-250 -70.3125 891
109.375 -195.312 827
468.75 -70.3125 864
-179.688 312.5 1013
-23.4375 335.938 1543
-289.062 359.375 1264
-289.062 125 880
-148.438 382.812 1134
-156.25 312.5 1010
109.375 382.812 1477
148.438 -289.062 928
-437.5 296.875 1105
-375 101.562 891
-125 390.625 1145
-234.375 -85.9375 903
-164.062 -93.75 935
343.75 289.062 819
-296.875 -296.875 3149
-62.5 273.438 871
-304.688 -390.625 2984
125 359.375 1427
39.0625 320.312 1564
46.875 -265.625 798
359.375 -62.5 817
-320.312 -437.5 2859
-390.625 125 959
-304.688 -328.125 3092
-351.562 117.188 898
-156.25 382.812 1236
-460.938 -351.562 2286
-195.312 125 851
-437.5 -125 998
-429.688 -164.062 1031
-54.6875 -343.75 989
-343.75 -468.75 2618
7.8125 -195.312 833
-320.312 -421.875 2883
-187.5 296.875 995
85.9375 289.062 860
281.25 375 1338
367.188 304.688 821
125 429.688 1415
-187.5 359.375 1070
39.0625 -203.125 827
164.062 -257.812 894
-23.4375 -203.125 829
-398.438 312.5 1097
62.5 -398.438 943
-500 281.25 1119
210.938 93.75 767
78.125 390.625 1470
-234.375 -31.25 896
273.438 93.75 761
-15.625 265.625 862
-320.312 171.875 915
429.688 85.9375 747
203.125 390.625 1328
-343.75 132.812 910
-250 -109.375 928
-7.8125 70.3125 792
93.75 343.75 1523
62.5 273.438 849
-179.688 54.6875 813
7.8125 375 1496
-492.188 179.688 923
125 -320.312 984
164.062 -335.938 923
0 -70.3125 898
-125 -179.688 1041
-437.5 -78.125 1173
93.75 210.938 880
156.25 -289.062 928
468.75 -273.438 1108
179.688 -289.062 928
-312.5 -367.188 3010
-414.062 23.4375 1054
-375 156.25 930
-335.938 140.625 943
-367.188 164.062 925
375 -23.4375 800
343.75 23.4375 794
-421.875 7.8125 1073
-250 -23.4375 885
-437.5 -70.3125 1161
234.375 218.75 869
101.562 -429.688 970
203.125 85.9375 767
-437.5 -289.062 2333
-328.125 -429.688 2883
-429.688 -15.625 1097
-250 -78.125 896
-15.625 -187.5 837
85.9375 210.938 880
109.375 78.125 776
-187.5 -312.5 3149
54.6875 -234.375 807
-312.5 328.125 1087
15.625 210.938 885
-156.25 187.5 906
-39.0625 -93.75 894
-406.25 78.125 1001
-46.875 -78.125 908
-7.8125 328.125 1557
39.0625 78.125 785
-54.6875 375 1232
-78.125 203.125 891
7.8125 -164.062 847
-164.062 226.562 878
164.062 -265.625 896
281.25 85.9375 759
31.25 -351.562 948
54.6875 398.438 1464
-328.125 -468.75 2701
289.062 140.625 787
-390.625 281.25 1077
93.75 -171.875 841
-273.438 -164.062 1028
460.938 -281.25 1123
-257.812 117.188 882
54.6875 -117.188 875
93.75 -195.312 829
-414.062 -281.25 2398
-390.625 203.125 906
328.125 -85.9375 829
-210.938 375 1250
-476.562 296.875 1112
-359.375 320.312 1090
46.875 -242.188 803
46.875 -242.188 803
250 320.312 1421
-343.75 62.5 875
70.3125 -171.875 843
46.875 -289.062 811
-7.8125 -382.812 954
109.375 359.375 1496
-289.062 335.938 1087
-85.9375 195.312 898
-31.25 -70.3125 901
-54.6875 -109.375 940
320.312 359.375 1398
-257.812 -39.0625 894
-70.3125 195.312 894
-31.25 320.312 1557
187.5 -351.562 918
-320.312 -414.062 2908
-359.375 31.25 896
78.125 -335.938 951
-328.125 -445.312 2835
-382.812 23.4375 1038
-476.562 414.062 1354
-382.812 320.312 1097
-39.0625 -101.562 889
101.562 -195.312 827
328.125 7.8125 796
-187.5 -31.25 871
-335.938 -453.125 2701
39.0625 -281.25 803
-406.25 -15.625 1010
-148.438 70.3125 811
-429.688 -23.4375 1105
-390.625 335.938 1288
-343.75 109.375 887
296.875 218.75 837
195.312 382.812 1333
85.9375 382.812 1477
445.312 101.562 741
273.438 289.062 829
-375 -289.062 3399
250 406.25 1312
-250 343.75 1073
-101.562 62.5 802
62.5 382.812 1483
-187.5 54.6875 815
-296.875 -320.312 3064
-500 -421.875 2170
-312.5 -328.125 3092
-476.562 -398.438 2226
