ply
format ascii 1.0
comment Created by Open3D
element vertex 2325
property double x
property double y
property double z
end_header
-367.188 -195.312 964
-46.875 -437.5 987
359.375 -296.875 1073
406.25 -156.25 933
187.5 0 940
-31.25 -296.875 1031
359.375 -359.375 3037
62.5 210.938 1785
226.562 -289.062 981
226.562 -289.062 981
-242.188 304.688 1245
156.25 398.438 1354
-85.9375 -273.438 1034
406.25 -296.875 1322
-226.562 117.188 1016
93.75 320.312 1404
375 -359.375 1404
-429.688 -164.062 995
-23.4375 289.062 1609
-335.938 -23.4375 956
-39.0625 289.062 1586
359.375 -335.938 3092
-453.125 -85.9375 1070
343.75 335.938 1268
-23.4375 296.875 1579
-226.562 328.125 1210
281.25 -218.75 910
406.25 -421.875 1227
398.438 132.812 1067
382.812 132.812 1119
437.5 296.875 1273
-179.688 -23.4375 973
-23.4375 -23.4375 970
-226.562 250 1349
359.375 -390.625 2883
-46.875 -429.688 984
164.062 359.375 1343
484.375 210.938 1278
406.25 -187.5 923
-421.875 289.062 1273
429.688 289.062 1245
-156.25 -375 992
-437.5 -171.875 948
398.438 -359.375 1338
-320.312 -164.062 962
-429.688 -15.625 1010
-273.438 -78.125 975
-335.938 -171.875 962
-281.25 250 1073
7.8125 179.688 1766
445.312 398.438 1312
351.562 265.625 1236
312.5 179.688 1359
-54.6875 445.312 1322
359.375 -429.688 2958
148.438 62.5 1671
414.062 -164.062 930
273.438 171.875 1564
414.062 312.5 1283
-382.812 304.688 1245
187.5 -70.3125 967
-117.188 406.25 1259
-179.688 -390.625 1193
195.312 343.75 1354
140.625 54.6875 1013
85.9375 -46.875 981
-234.375 171.875 1041
-367.188 -54.6875 946
-468.75 304.688 1236
-382.812 -31.25 964
54.6875 218.75 2078
414.062 78.125 1031
-15.625 -39.0625 973
148.438 70.3125 1671
484.375 -406.25 1197
-226.562 226.562 1070
218.75 -265.625 954
140.625 140.625 1739
-156.25 382.812 1193
-31.25 -445.312 989
187.5 367.188 1343
359.375 -289.062 1041
265.625 -218.75 910
492.188 281.25 1312
-382.812 -132.812 951
226.562 281.25 1421
-164.062 -289.062 1241
-421.875 -132.812 1016
-367.188 -164.062 951
-218.75 242.188 1077
-242.188 -179.688 923
78.125 203.125 1776
-312.5 7.8125 956
-406.25 -164.062 987
-31.25 367.188 1458
484.375 -289.062 1259
-250 304.688 1245
-265.625 -31.25 1016
-210.938 281.25 1278
-398.438 -85.9375 962
-70.3125 -289.062 1028
-109.375 -31.25 973
382.812 140.625 1119
445.312 -218.75 913
70.3125 203.125 1776
-453.125 -109.375 1077
-492.188 -164.062 1427
-335.938 -179.688 962
-328.125 -164.062 962
-492.188 -85.9375 1177
-164.062 -375 992
-132.812 343.75 1250
-140.625 -406.25 975
-500 -101.562 1227
476.562 7.8125 992
7.8125 -421.875 1145
359.375 -406.25 2908
23.4375 304.688 1550
101.562 -62.5 962
171.875 -265.625 1016
-31.25 289.062 1586
-468.75 -156.25 1094
359.375 -351.562 3037
265.625 -351.562 1354
406.25 -179.688 923
-109.375 -421.875 975
367.188 -78.125 962
-70.3125 375 1255
492.188 -132.812 1108
-328.125 -179.688 964
-23.4375 -406.25 992
-39.0625 296.875 1572
-265.625 39.0625 940
359.375 312.5 1206
140.625 -296.875 1130
429.688 398.438 1317
-179.688 382.812 1433
-218.75 234.375 1073
-210.938 -375 2958
-312.5 328.125 1206
289.062 -62.5 998
-421.875 -226.562 1165
-250 62.5 989
-445.312 156.25 1025
-289.062 -93.75 970
-265.625 328.125 1210
382.812 179.688 1123
164.062 250 1470
-85.9375 375 1245
-421.875 265.625 1338
398.438 -93.75 964
-203.125 296.875 1278
-414.062 265.625 1307
-101.562 -445.312 1153
406.25 -140.625 943
-78.125 367.188 1250
-437.5 -140.625 1016
7.8125 -414.062 992
62.5 218.75 2078
70.3125 210.938 2103
382.812 148.438 1119
367.188 -242.188 913
-343.75 -15.625 995
367.188 273.438 1181
414.062 70.3125 1025
359.375 -226.562 908
-406.25 -39.0625 956
460.938 390.625 1317
-39.0625 -359.375 1007
476.562 218.75 1264
304.688 -226.562 908
-70.3125 429.688 1268
398.438 -101.562 962
468.75 -7.8125 946
78.125 179.688 1766
359.375 -328.125 3064
382.812 -273.438 995
148.438 54.6875 1013
-140.625 -281.25 1025
406.25 -203.125 918
375 -78.125 962
-304.688 62.5 943
140.625 -7.8125 935
406.25 -226.562 910
-382.812 -54.6875 954
187.5 -265.625 962
-296.875 335.938 1206
406.25 -164.062 930
-429.688 -234.375 1165
109.375 -375 1077
-492.188 335.938 1123
-445.312 -195.312 962
421.875 164.062 1070
109.375 -203.125 908
-492.188 -78.125 1157
-132.812 -320.312 1010
210.938 -289.062 954
-156.25 -148.438 923
234.375 -289.062 978
-210.938 15.625 943
-78.125 -281.25 1031
-453.125 -101.562 1073
359.375 -414.062 2908
-429.688 -218.75 1157
328.125 -226.562 908
-390.625 -39.0625 959
-31.25 -281.25 1038
460.938 289.062 1236
406.25 -250 925
-46.875 -179.688 913
-460.938 -242.188 1157
-382.812 265.625 1307
85.9375 -195.312 913
-492.188 -125 1288
148.438 -289.062 1108
140.625 -226.562 915
250 -242.188 940
-234.375 289.062 1278
203.125 320.312 1349
-289.062 23.4375 940
-500 328.125 1115
-250 140.625 1022
406.25 -171.875 928
-273.438 265.625 1302
406.25 -242.188 913
-164.062 -281.25 1202
-351.562 289.062 1278
-226.562 335.938 1210
-296.875 265.625 1312
-187.5 359.375 1477
140.625 70.3125 1680
-109.375 312.5 1219
-343.75 273.438 1302
-226.562 242.188 1073
-257.812 109.375 1007
101.562 187.5 1776
-210.938 335.938 1210
304.688 148.438 1398
-109.375 -343.75 1001
140.625 93.75 1696
406.25 70.3125 1044
-421.875 335.938 1206
93.75 -7.8125 935
117.188 -7.8125 935
23.4375 289.062 1594
406.25 -234.375 910
-320.312 0 967
-171.875 -320.312 1392
-210.938 312.5 1250
-164.062 -273.438 1138
-328.125 -31.25 959
-195.312 -335.938 3037
-250 -273.438 3037
289.062 -335.938 1214
195.312 304.688 1365
-476.562 -179.688 1050
460.938 257.812 1245
242.188 281.25 1404
203.125 -62.5 964
-85.9375 281.25 1616
-460.938 -54.6875 1094
414.062 7.8125 989
-351.562 -78.125 943
-210.938 273.438 1307
-492.188 -296.875 2333
-242.188 171.875 1038
468.75 390.625 1317
-328.125 -140.625 967
218.75 -234.375 925
125 0 935
117.188 -171.875 923
-265.625 -31.25 1016
117.188 265.625 1410
429.688 -273.438 1283
-54.6875 -351.562 1010
-445.312 -15.625 1010
375 -250 923
-351.562 -179.688 962
367.188 281.25 1181
-328.125 -70.3125 948
-234.375 304.688 1245
375 -226.562 910
-382.812 -210.938 964
-93.75 -156.25 923
-359.375 -179.688 964
-179.688 -382.812 1197
-164.062 -429.688 1177
-46.875 -445.312 987
-125 -437.5 1157
414.062 46.875 1019
-179.688 -429.688 1197
-46.875 -429.688 984
-390.625 -226.562 1181
-39.0625 -437.5 987
-171.875 -429.688 1181
-320.312 23.4375 938
-218.75 289.062 1278
-148.438 390.625 1197
-460.938 312.5 1241
54.6875 -218.75 915
-406.25 0 984
-359.375 -218.75 973
-500 -187.5 1464
148.438 46.875 1013
304.688 -328.125 1173
-179.688 390.625 1421
-500 -93.75 1206
335.938 -304.688 1101
242.188 0 943
-242.188 164.062 1034
-23.4375 281.25 1624
-382.812 -187.5 959
195.312 -117.188 948
210.938 -335.938 1019
-328.125 -179.688 964
-453.125 -31.25 1047
-242.188 179.688 1044
359.375 -398.438 2933
-476.562 312.5 1241
406.25 -195.312 920
-492.188 -187.5 1084
-109.375 -460.938 1161
296.875 -218.75 908
351.562 15.625 992
-70.3125 -296.875 1025
-117.188 335.938 1227
78.125 15.625 940
-273.438 -70.3125 984
382.812 125 1126
78.125 195.312 1776
78.125 203.125 1776
-289.062 -78.125 964
-304.688 -109.375 959
-101.562 -320.312 1013
-429.688 -156.25 998
484.375 164.062 1073
257.812 -70.3125 970
101.562 -187.5 915
-328.125 -93.75 948
398.438 -70.3125 998
-335.938 234.375 1067
-164.062 -320.312 1250
210.938 -257.812 959
-429.688 -226.562 1165
242.188 304.688 1376
359.375 -421.875 2958
85.9375 -171.875 918
398.438 125 1077
-265.625 70.3125 992
-164.062 343.75 1169
140.625 351.562 1338
351.562 281.25 1241
-484.375 -62.5 1130
125 156.25 1748
-218.75 250 1077
-429.688 -78.125 964
148.438 39.0625 992
-351.562 0 973
-101.562 -351.562 998
-468.75 31.25 938
414.062 39.0625 1022
-390.625 0 975
-296.875 250 1077
-484.375 -70.3125 1130
281.25 -226.562 910
62.5 210.938 2103
-132.812 335.938 1236
140.625 31.25 989
-328.125 234.375 1070
164.062 -257.812 981
-85.9375 -312.5 1019
-437.5 156.25 998
54.6875 218.75 1688
156.25 -273.438 1034
-328.125 273.438 1307
-500 -101.562 1210
484.375 273.438 1317
-85.9375 273.438 1624
-203.125 15.625 940
156.25 257.812 1477
226.562 31.25 1016
-109.375 437.5 1268
-335.938 46.875 940
-367.188 289.062 1273
-390.625 289.062 1278
-281.25 -85.9375 975
210.938 31.25 1016
-171.875 414.062 1223
-445.312 -85.9375 973
414.062 132.812 1057
406.25 -210.938 915
-39.0625 273.438 1624
-62.5 203.125 1766
-414.062 273.438 1302
-7.8125 23.4375 943
289.062 23.4375 1001
-265.625 -156.25 913
-390.625 273.438 1307
390.625 -265.625 951
-109.375 320.312 1219
0 -414.062 995
-460.938 -195.312 959
-132.812 343.75 1232
-140.625 -273.438 1025
-296.875 -70.3125 967
-304.688 -85.9375 962
187.5 242.188 1483
-406.25 -78.125 954
-500 -179.688 1477
70.3125 -382.812 1067
359.375 -289.062 1025
210.938 -234.375 920
132.812 210.938 1705
-492.188 -289.062 2365
406.25 117.188 1050
-351.562 234.375 1070
140.625 62.5 1671
-492.188 367.188 1145
195.312 -289.062 951
218.75 -281.25 951
-257.812 93.75 1001
-101.562 -265.625 1038
250 -281.25 940
-46.875 -359.375 1007
375 226.562 1138
-289.062 -132.812 978
-351.562 328.125 1210
7.8125 -429.688 1141
-70.3125 273.438 1624
-218.75 -390.625 2933
-109.375 304.688 1223
-39.0625 -351.562 1010
-210.938 304.688 1250
359.375 226.562 1177
-359.375 328.125 1210
-375 289.062 1278
-453.125 335.938 1202
-484.375 -273.438 2835
-125 -335.938 1004
-242.188 156.25 1034
343.75 382.812 1241
164.062 257.812 1483
359.375 312.5 1193
257.812 304.688 1452
351.562 273.438 1202
242.188 312.5 1404
-218.75 242.188 1073
390.625 -398.438 1302
-273.438 85.9375 998
54.6875 304.688 1421
-39.0625 -359.375 1007
-398.438 -203.125 956
-203.125 335.938 1210
78.125 -203.125 908
-328.125 -226.562 995
375 328.125 1197
-31.25 -46.875 967
-320.312 273.438 1302
70.3125 210.938 2103
406.25 -218.75 913
390.625 -343.75 1307
140.625 140.625 1739
-210.938 273.438 1126
179.688 -312.5 1019
-46.875 70.3125 1013
-218.75 265.625 1312
-421.875 -46.875 954
7.8125 -414.062 1145
93.75 -312.5 1119
343.75 -226.562 908
226.562 -312.5 998
39.0625 -367.188 1090
140.625 39.0625 1007
-187.5 296.875 1138
-281.25 289.062 1278
-171.875 -312.5 1292
140.625 148.438 1748
-445.312 -148.438 1007
-429.688 -93.75 975
468.75 257.812 1255
-453.125 -39.0625 1054
140.625 101.562 1705
132.812 140.625 1739
-195.312 320.312 1153
-273.438 31.25 938
-414.062 -187.5 951
-296.875 62.5 987
210.938 265.625 1458
-179.688 320.312 1157
-453.125 -187.5 951
414.062 164.062 1073
117.188 -46.875 984
-484.375 367.188 1338
132.812 296.875 1365
-93.75 328.125 1227
492.188 382.812 1307
-203.125 -328.125 3064
-31.25 -429.688 984
-250 39.0625 940
429.688 -226.562 910
-468.75 234.375 1070
414.062 101.562 1044
359.375 234.375 1181
109.375 171.875 1766
390.625 -382.812 1338
-85.9375 -289.062 1028
-468.75 335.938 1202
-7.8125 234.375 1696
-320.312 39.0625 940
-375 273.438 1302
218.75 328.125 1365
406.25 -117.188 954
343.75 -140.625 943
-7.8125 -312.5 1034
-234.375 250 1338
476.562 -359.375 1227
382.812 171.875 1097
-445.312 -140.625 1019
7.8125 281.25 1601
-226.562 101.562 1010
382.812 187.5 1115
-179.688 343.75 1173
414.062 -226.562 910
-460.938 -187.5 951
70.3125 203.125 1785
-93.75 375 1259
-93.75 78.125 1016
210.938 312.5 1349
-398.438 273.438 1312
-31.25 -289.062 1034
-132.812 335.938 1236
-437.5 289.062 1273
-85.9375 -406.25 984
-492.188 -78.125 1149
-15.625 406.25 1387
382.812 117.188 1090
-31.25 -406.25 992
140.625 46.875 1016
218.75 -335.938 1007
31.25 -359.375 1101
421.875 289.062 1250
-101.562 -437.5 987
382.812 -273.438 989
351.562 351.562 1223
-429.688 335.938 1206
445.312 164.062 1080
-312.5 234.375 1070
-484.375 375 1333
-343.75 -78.125 946
-23.4375 -398.438 998
-54.6875 -437.5 987
406.25 85.9375 1034
398.438 171.875 1077
398.438 -218.75 913
-500 -117.188 1250
62.5 218.75 1705
140.625 54.6875 1016
-46.875 -296.875 1031
312.5 -226.562 910
-390.625 -15.625 978
-460.938 234.375 1067
359.375 335.938 1206
281.25 -218.75 910
492.188 234.375 1264
-421.875 -171.875 951
-335.938 -140.625 959
-179.688 390.625 1197
359.375 -343.75 3010
-250 148.438 1028
-179.688 -375 1197
-85.9375 -437.5 981
-351.562 273.438 1307
367.188 320.312 1193
-132.812 414.062 1227
437.5 398.438 1312
-125 406.25 1255
398.438 -273.438 989
-468.75 406.25 1359
-70.3125 195.312 1776
-437.5 -23.4375 1019
-257.812 109.375 1010
125 -39.0625 970
-500 -328.125 2271
-250 132.812 1022
156.25 -70.3125 964
-304.688 250 1108
-476.562 -70.3125 1080
-39.0625 -445.312 987
-359.375 343.75 1206
-132.812 -328.125 1007
421.875 -312.5 1268
-93.75 429.688 1264
-70.3125 -257.812 1047
-289.062 -78.125 973
-132.812 -398.438 978
-460.938 -46.875 1077
-93.75 304.688 1227
-203.125 -398.438 1202
-312.5 -62.5 954
-500 -101.562 1210
226.562 -78.125 967
-39.0625 -343.75 1013
-398.438 156.25 1004
-289.062 -148.438 989
-85.9375 289.062 1586
429.688 -257.812 908
-437.5 -78.125 962
218.75 -78.125 964
140.625 78.125 1688
-351.562 -46.875 951
-500 343.75 1130
-429.688 304.688 1241
-437.5 273.438 1297
85.9375 179.688 1776
-148.438 -359.375 989
-171.875 -31.25 973
226.562 273.438 1427
-304.688 -101.562 964
375 179.688 1126
-234.375 125 1022
-46.875 -421.875 984
-31.25 54.6875 1013
-132.812 351.562 1236
-195.312 343.75 1177
-109.375 421.875 1264
-359.375 265.625 1317
132.812 156.25 1757
-218.75 312.5 1245
-421.875 -242.188 1169
406.25 62.5 1025
-382.812 -203.125 962
-500 -289.062 2365
-414.062 54.6875 938
31.25 335.938 1496
-437.5 335.938 1202
7.8125 -421.875 1145
-414.062 -117.188 970
-62.5 -304.688 1025
406.25 -109.375 959
-140.625 -312.5 1013
-398.438 335.938 1210
-320.312 -171.875 973
109.375 335.938 1354
390.625 62.5 1063
-500 -343.75 2286
-242.188 179.688 1044
23.4375 281.25 1609
-117.188 -296.875 1022
-304.688 273.438 1297
-101.562 -351.562 998
-273.438 -39.0625 1028
-273.438 -62.5 992
-78.125 -281.25 1034
54.6875 218.75 1688
-210.938 171.875 1044
-328.125 -85.9375 951
-46.875 273.438 1624
390.625 421.875 1288
-187.5 -421.875 1193
-484.375 -117.188 1097
-335.938 250 1057
-367.188 -140.625 1007
78.125 195.312 1776
-265.625 414.062 1376
273.438 164.062 1523
-78.125 -273.438 1038
406.25 -125 951
85.9375 195.312 1776
-117.188 335.938 1223
-46.875 -414.062 987
-70.3125 445.312 1317
-414.062 140.625 1019
-304.688 234.375 1070
-39.0625 -351.562 1010
-445.312 304.688 1245
398.438 195.312 1112
304.688 375 1376
437.5 281.25 1241
-78.125 -367.188 998
257.812 281.25 1427
-421.875 -164.062 1001
492.188 234.375 1264
367.188 -281.25 1016
-85.9375 273.438 1624
-429.688 -226.562 1165
-23.4375 -375 1010
375 -226.562 910
203.125 265.625 1464
398.438 117.188 1057
-328.125 265.625 1307
-343.75 398.438 1404
-15.625 -437.5 987
-46.875 -343.75 1013
406.25 -148.438 940
414.062 23.4375 1007
-156.25 375 1193
390.625 -320.312 1322
54.6875 -46.875 989
-484.375 -156.25 1097
39.0625 -46.875 973
-414.062 148.438 1016
-15.625 -351.562 1016
-117.188 -351.562 998
-351.562 250 1057
-296.875 -70.3125 967
-273.438 -78.125 987
-164.062 -265.625 1130
179.688 -328.125 1241
351.562 -132.812 946
406.25 -140.625 946
242.188 195.312 1739
-156.25 -375 987
359.375 242.188 1181
406.25 -132.812 951
343.75 320.312 1223
359.375 -382.812 2958
23.4375 296.875 1572
335.938 -164.062 933
-476.562 -171.875 1031
-187.5 367.188 1185
-406.25 -179.688 956
-101.562 -382.812 989
-140.625 -406.25 975
-429.688 -171.875 951
437.5 195.312 1283
390.625 -265.625 951
-171.875 421.875 1223
7.8125 -414.062 1145
-187.5 -406.25 1189
-140.625 -304.688 1019
-421.875 -46.875 954
-343.75 -171.875 959
-101.562 398.438 1245
164.062 195.312 1731
203.125 445.312 1297
328.125 -226.562 910
-492.188 -257.812 2349
-257.812 101.562 1007
-218.75 -382.812 2933
-484.375 -257.812 2883
-117.188 -23.4375 973
-46.875 -398.438 992
375 218.75 1134
-398.438 -179.688 964
359.375 -289.062 1025
-421.875 -218.75 1169
-445.312 -187.5 951
93.75 -335.938 1108
-250 148.438 1028
-257.812 -31.25 1010
-492.188 -179.688 1050
-78.125 -289.062 1031
-109.375 -312.5 1016
-351.562 -148.438 1019
140.625 132.812 1731
-117.188 312.5 1219
117.188 164.062 1757
-242.188 171.875 1041
-195.312 335.938 1165
296.875 -226.562 910
-117.188 -281.25 1028
93.75 -359.375 1094
-70.3125 -453.125 1161
-132.812 -296.875 1019
-93.75 -359.375 998
-132.812 -414.062 975
109.375 179.688 1776
-70.3125 -343.75 1010
-23.4375 -414.062 989
-328.125 -78.125 951
-39.0625 -437.5 984
398.438 140.625 1060
351.562 335.938 1214
406.25 -164.062 933
-70.3125 195.312 1776
343.75 312.5 1227
-23.4375 -406.25 992
-23.4375 390.625 1410
-382.812 -23.4375 964
-46.875 -406.25 989
62.5 179.688 1766
-453.125 -23.4375 1022
-179.688 -421.875 1181
179.688 -320.312 1202
359.375 -226.562 910
382.812 281.25 1165
406.25 273.438 1268
140.625 250 1464
390.625 -367.188 1354
125 156.25 1757
-125 429.688 1283
-132.812 398.438 1214
187.5 398.438 1359
-70.3125 -304.688 1025
335.938 414.062 1268
-101.562 406.25 1245
132.812 132.812 1739
257.812 312.5 1439
218.75 -312.5 998
203.125 257.812 1464
-7.8125 -421.875 987
-460.938 -46.875 1077
492.188 210.938 1288
125 195.312 1766
-164.062 335.938 1169
-148.438 421.875 1227
23.4375 289.062 1594
-429.688 -70.3125 962
-500 -320.312 2365
476.562 210.938 1278
-54.6875 210.938 1757
390.625 179.688 1087
-109.375 -273.438 1031
-242.188 187.5 1047
-429.688 -62.5 956
-273.438 -62.5 992
-304.688 -148.438 978
-62.5 -281.25 1034
-296.875 -109.375 970
406.25 54.6875 1022
289.062 148.438 1439
203.125 -273.438 951
-265.625 78.125 995
-7.8125 -437.5 987
39.0625 226.562 1688
398.438 109.375 1050
-101.562 320.312 1219
-367.188 -195.312 962
-46.875 -351.562 1010
359.375 -242.188 910
406.25 -117.188 954
-125 -421.875 978
-39.0625 -343.75 1013
-85.9375 429.688 1268
-109.375 328.125 1223
-414.062 -195.312 951
-218.75 250 1112
-304.688 328.125 1210
343.75 429.688 1278
257.812 -210.938 913
-164.062 -296.875 1227
-312.5 -78.125 954
-218.75 -421.875 2859
210.938 -273.438 954
-492.188 -125 1278
-250 -273.438 3064
-304.688 -125 964
-484.375 -179.688 1031
-312.5 289.062 1278
70.3125 -398.438 1067
-414.062 -164.062 970
117.188 289.062 1392
-265.625 -31.25 1010
351.562 343.75 1214
-125 -343.75 1001
250 -273.438 943
-132.812 -312.5 1013
-54.6875 -382.812 995
78.125 203.125 1776
-210.938 281.25 1130
445.312 273.438 1255
39.0625 -39.0625 975
-234.375 210.938 1063
-179.688 398.438 1210
343.75 382.812 1241
210.938 296.875 1392
70.3125 328.125 1398
-492.188 250 1063
78.125 367.188 1427
218.75 289.062 1398
93.75 -375 1070
-414.062 156.25 1004
-414.062 156.25 1004
437.5 171.875 1077
187.5 -289.062 951
-382.812 289.062 1278
-250 156.25 1031
484.375 171.875 1073
-164.062 -375 987
406.25 -171.875 930
156.25 39.0625 1010
-70.3125 -289.062 1031
390.625 -328.125 1317
359.375 -367.188 3010
-484.375 312.5 1236
343.75 -296.875 1028
-320.312 -148.438 978
203.125 -257.812 959
-289.062 250 1073
343.75 375 1241
289.062 -85.9375 964
-335.938 -70.3125 948
-328.125 250 1057
468.75 179.688 1084
-367.188 -109.375 940
-429.688 -218.75 1161
226.562 289.062 1392
-500 -93.75 1189
-39.0625 -335.938 1016
390.625 -273.438 987
-164.062 -257.812 1101
109.375 187.5 1785
-171.875 -414.062 975
-54.6875 -343.75 1013
414.062 250 1264
-289.062 -132.812 978
-195.312 351.562 1177
-429.688 140.625 1019
398.438 -257.812 930
-187.5 304.688 1145
-500 -335.938 2271
-492.188 -132.812 1312
-203.125 234.375 1077
367.188 257.812 1157
406.25 -179.688 928
492.188 304.688 1255
-500 -101.562 1210
-31.25 -421.875 987
234.375 70.3125 1696
-117.188 406.25 1255
312.5 -320.312 1119
7.8125 -406.25 1145
-500 -179.688 1477
-101.562 -421.875 978
281.25 -226.562 910
406.25 46.875 1022
-429.688 -78.125 962
476.562 226.562 1264
-453.125 -125 1019
-453.125 -117.188 1080
-406.25 -7.8125 973
453.125 273.438 1245
-85.9375 -281.25 1031
-296.875 -140.625 975
-179.688 390.625 1197
453.125 257.812 1250
-437.5 -7.8125 989
-171.875 421.875 1223
-187.5 359.375 1177
85.9375 312.5 1427
-265.625 -132.812 923
390.625 -265.625 951
414.062 31.25 1010
-78.125 445.312 1278
-492.188 406.25 1161
-117.188 320.312 1219
-234.375 203.125 1060
390.625 -93.75 967
406.25 -140.625 946
406.25 -156.25 938
210.938 -257.812 959
-476.562 -148.438 1080
234.375 62.5 1688
85.9375 187.5 1776
367.188 -164.062 933
-171.875 -312.5 1292
-468.75 70.3125 987
-492.188 -140.625 1338
-125 335.938 1227
375 210.938 1130
-164.062 -250 1041
-140.625 -398.438 978
406.25 93.75 1041
406.25 78.125 1034
-31.25 -398.438 995
-242.188 93.75 1004
343.75 390.625 1250
-335.938 -164.062 956
296.875 -218.75 910
54.6875 304.688 1421
265.625 -234.375 915
296.875 351.562 1410
296.875 351.562 1410
-429.688 -210.938 1157
414.062 -242.188 910
148.438 304.688 1354
-476.562 -195.312 1019
46.875 343.75 1483
-375 -195.312 962
-148.438 414.062 1223
390.625 -234.375 910
312.5 398.438 1338
-210.938 343.75 1210
-93.75 -359.375 998
-468.75 375 1387
62.5 218.75 1705
304.688 -398.438 2958
-187.5 -414.062 1189
406.25 -132.812 951
171.875 250 1477
-210.938 156.25 1038
-39.0625 414.062 1370
-484.375 -250 2933
351.562 351.562 1223
257.812 -218.75 910
359.375 -375 2984
-31.25 296.875 1564
-210.938 -445.312 2812
468.75 226.562 1259
484.375 187.5 1302
164.062 -257.812 981
-171.875 312.5 1149
-398.438 -93.75 946
-171.875 -328.125 1245
132.812 140.625 1739
-93.75 351.562 1214
-312.5 296.875 1273
234.375 54.6875 1680
-265.625 85.9375 998
-242.188 171.875 1041
109.375 281.25 1410
54.6875 62.5 1671
-250 140.625 1022
-31.25 -273.438 1044
-468.75 343.75 1202
406.25 -203.125 920
-171.875 320.312 1157
-226.562 -23.4375 973
421.875 -429.688 1214
-382.812 273.438 1302
-187.5 -421.875 1193
484.375 156.25 1073
468.75 250 1255
140.625 109.375 1713
367.188 -281.25 1016
-296.875 296.875 1273
195.312 -257.812 962
359.375 -453.125 2908
-195.312 -164.062 915
-101.562 62.5 1016
-117.188 335.938 1223
-257.812 125 1016
23.4375 312.5 1536
-468.75 -171.875 1010
-85.9375 -273.438 1034
-23.4375 -429.688 987
164.062 179.688 1776
-460.938 -164.062 1019
367.188 281.25 1173
117.188 304.688 1387
-375 -93.75 940
-117.188 -359.375 998
406.25 -250 918
-328.125 -187.5 975
210.938 -335.938 1013
406.25 -109.375 959
375 242.188 1145
406.25 -164.062 933
328.125 101.562 1288
460.938 257.812 1250
445.312 -398.438 1214
-31.25 -265.625 1047
-46.875 -445.312 984
218.75 250 1458
382.812 101.562 1090
171.875 -140.625 938
406.25 -125 951
-304.688 -54.6875 973
85.9375 195.312 1776
-492.188 -78.125 1149
195.312 -304.688 998
93.75 -328.125 1112
-218.75 85.9375 1010
-273.438 -62.5 992
210.938 382.812 1359
46.875 382.812 1415
-242.188 187.5 1047
-273.438 273.438 1302
476.562 203.125 1288
-492.188 359.375 1138
-148.438 -359.375 989
0 -437.5 1138
250 -304.688 1013
-304.688 -187.5 987
406.25 -195.312 923
203.125 -265.625 954
132.812 312.5 1376
398.438 132.812 1060
406.25 -187.5 925
-468.75 -164.062 1054
-257.812 109.375 1010
398.438 304.688 1297
-328.125 -171.875 967
226.562 312.5 1365
218.75 -312.5 998
-367.188 -148.438 1007
-304.688 -78.125 956
23.4375 296.875 1572
351.562 257.812 1202
117.188 289.062 1392
-117.188 328.125 1223
398.438 -85.9375 967
-15.625 -414.062 989
359.375 289.062 1185
-492.188 343.75 1130
367.188 164.062 1145
93.75 179.688 1776
-414.062 164.062 1001
351.562 335.938 1214
343.75 132.812 1227
406.25 -210.938 915
-398.438 148.438 1007
-460.938 351.562 1202
-343.75 -210.938 975
-210.938 281.25 1130
-195.312 351.562 1177
398.438 -257.812 930
-132.812 343.75 1232
468.75 -398.438 1206
-179.688 375 1193
414.062 15.625 998
-460.938 -46.875 1077
-164.062 -132.812 930
-148.438 -7.8125 954
359.375 296.875 1185
-312.5 -156.25 984
-187.5 375 1193
335.938 406.25 1264
-125 414.062 1268
-265.625 70.3125 992
101.562 281.25 1410
351.562 343.75 1214
164.062 -273.438 1034
-39.0625 273.438 1624
343.75 -226.562 908
-195.312 242.188 1105
-437.5 0 973
109.375 171.875 1766
375 -273.438 987
-171.875 414.062 1223
406.25 -179.688 928
320.312 -312.5 1112
-15.625 -343.75 1022
-429.688 148.438 1019
-289.062 -132.812 978
-171.875 -304.688 1292
23.4375 304.688 1550
85.9375 343.75 1398
187.5 -265.625 959
-492.188 -70.3125 1130
-343.75 -187.5 967
406.25 -156.25 938
218.75 273.438 1439
-218.75 257.812 1119
273.438 -218.75 910
156.25 -265.625 1004
-445.312 -148.438 1007
-46.875 -398.438 992
367.188 -281.25 1016
-421.875 -226.562 1169
-164.062 -367.188 992
140.625 132.812 1731
492.188 179.688 1073
-421.875 -218.75 1169
-203.125 320.312 1214
398.438 125 1057
312.5 406.25 1328
-125 343.75 1227
15.625 343.75 1496
-406.25 140.625 1019
164.062 -281.25 1022
-437.5 -85.9375 973
-234.375 132.812 1022
218.75 -78.125 964
406.25 39.0625 1022
250 -289.062 940
-476.562 -171.875 1031
-421.875 140.625 1022
-109.375 406.25 1250
-429.688 -148.438 1004
234.375 46.875 1019
-31.25 -46.875 967
390.625 -93.75 967
-437.5 -164.062 995
93.75 -304.688 1123
-429.688 -54.6875 956
-46.875 218.75 1739
-46.875 -390.625 992
-93.75 179.688 1766
304.688 -218.75 910
62.5 320.312 1415
382.812 242.188 1141
-414.062 -109.375 967
117.188 351.562 1354
156.25 -70.3125 964
-187.5 -406.25 1189
460.938 250 1250
-453.125 -23.4375 1022
-257.812 117.188 1013
351.562 -226.562 910
-218.75 250 1112
281.25 187.5 1483
-46.875 -406.25 989
257.812 -218.75 910
-500 -85.9375 1173
164.062 -296.875 1016
351.562 -93.75 964
-484.375 -148.438 1349
-242.188 195.312 1050
-132.812 -296.875 1019
-421.875 148.438 1022
398.438 101.562 1047
195.312 -281.25 951
171.875 -265.625 1004
-328.125 54.6875 943
390.625 187.5 1112
-132.812 -367.188 992
210.938 -257.812 959
-500 -93.75 1189
171.875 -132.812 938
-320.312 -234.375 998
132.812 7.8125 938
203.125 -335.938 1016
-398.438 -218.75 1177
-242.188 164.062 1038
390.625 281.25 1165
148.438 -296.875 1019
257.812 250 1616
-203.125 312.5 1153
-484.375 414.062 1317
-414.062 -171.875 975
-210.938 164.062 1041
-210.938 273.438 1126
-421.875 -210.938 1165
0 -406.25 998
398.438 -85.9375 967
-265.625 93.75 1001
398.438 -257.812 930
-429.688 -242.188 1165
-132.812 429.688 1232
-234.375 218.75 1067
-242.188 179.688 1044
343.75 -218.75 910
-46.875 -414.062 987
-70.3125 351.562 1264
-289.062 -117.188 975
-171.875 -351.562 1210
-171.875 429.688 1223
-93.75 289.062 1594
-250 156.25 1031
-140.625 -406.25 975
218.75 289.062 1398
359.375 210.938 1173
-46.875 -421.875 984
382.812 93.75 1087
226.562 -78.125 967
390.625 31.25 1019
140.625 -296.875 1115
281.25 -343.75 1264
-265.625 -54.6875 954
-382.812 -164.062 946
-281.25 -85.9375 975
-70.3125 -382.812 989
85.9375 335.938 1387
-31.25 -187.5 915
156.25 187.5 1776
54.6875 343.75 1483
414.062 7.8125 995
-421.875 -70.3125 959
-164.062 351.562 1177
445.312 -414.062 1206
210.938 273.438 1445
140.625 -289.062 1090
-101.562 -382.812 989
-382.812 -54.6875 946
-140.625 375 1193
367.188 265.625 1161
-257.812 125 1016
-31.25 289.062 1594
-117.188 406.25 1255
-257.812 -132.812 923
390.625 46.875 1063
-187.5 375 1193
-320.312 -164.062 973
-39.0625 -328.125 1019
335.938 -179.688 928
140.625 125 1731
-39.0625 390.625 1410
390.625 39.0625 1067
-93.75 -273.438 1034
-421.875 -164.062 1001
203.125 257.812 1464
343.75 304.688 1232
-39.0625 281.25 1609
250 46.875 1671
15.625 328.125 1503
234.375 179.688 1776
375 203.125 1130
-296.875 -70.3125 967
-70.3125 -367.188 998
-46.875 -289.062 1034
320.312 -226.562 910
15.625 351.562 1483
-328.125 -156.25 975
-195.312 351.562 1177
-171.875 328.125 1161
-164.062 359.375 1181
-109.375 -312.5 1016
406.25 62.5 1025
-265.625 78.125 995
398.438 117.188 1057
429.688 117.188 1047
140.625 117.188 1722
328.125 109.375 1288
406.25 101.562 1044
-351.562 101.562 1004
398.438 93.75 1047
445.312 39.0625 1013
140.625 39.0625 1007
187.5 0 940
-179.688 0 946
335.938 242.188 1227
-351.562 234.375 1070
-335.938 234.375 1070
-46.875 218.75 1739
-39.0625 218.75 1739
0 226.562 1696
398.438 195.312 1112
312.5 195.312 1317
-23.4375 195.312 1776
-382.812 187.5 1044
351.562 187.5 1206
132.812 203.125 2103
-62.5 210.938 1757
437.5 179.688 1077
15.625 179.688 1766
367.188 171.875 1145
343.75 164.062 1236
117.188 164.062 1757
-390.625 164.062 1034
132.812 125 1731
-250 125 1016
312.5 132.812 1365
226.562 320.312 1365
15.625 320.312 1523
-203.125 320.312 1214
-179.688 312.5 1149
125 312.5 1387
-54.6875 328.125 1516
15.625 335.938 1503
-203.125 335.938 1210
-210.938 335.938 1210
101.562 351.562 1359
140.625 351.562 1333
343.75 367.188 1236
-187.5 367.188 1185
109.375 281.25 1410
-367.188 289.062 1273
343.75 296.875 1236
-210.938 304.688 1250
390.625 250 1141
351.562 250 1202
-218.75 257.812 1119
210.938 273.438 1445
-304.688 273.438 1297
-289.062 273.438 1307
421.875 273.438 1250
171.875 398.438 1370
-62.5 390.625 1264
39.0625 382.812 1415
-171.875 382.812 1197
-179.688 406.25 1223
390.625 414.062 1302
-132.812 414.062 1227
-132.812 421.875 1232
-171.875 421.875 1223
-171.875 429.688 1223
-62.5 437.5 1278
-117.188 437.5 1268
281.25 -85.9375 964
-445.312 -85.9375 973
-281.25 -93.75 975
390.625 -93.75 967
445.312 -93.75 1034
-31.25 -93.75 954
-460.938 -93.75 1070
-453.125 -93.75 1073
390.625 -70.3125 995
156.25 -70.3125 964
-437.5 -70.3125 967
-468.75 -70.3125 1080
-375 -78.125 940
398.438 -78.125 1004
429.688 -125 954
-289.062 -125 978
-429.688 -125 1019
226.562 -31.25 951
218.75 -31.25 954
171.875 -31.25 951
148.438 -31.25 956
132.812 -31.25 959
-171.875 -31.25 973
-257.812 -23.4375 998
-281.25 -7.8125 967
-445.312 -7.8125 992
406.25 -46.875 956
398.438 -46.875 959
-39.0625 -46.875 967
-203.125 -46.875 964
-421.875 -46.875 954
429.688 -39.0625 946
406.25 -39.0625 948
-101.562 -39.0625 973
-179.688 -39.0625 967
-398.438 -39.0625 959
210.938 -62.5 995
93.75 -62.5 964
-429.688 -54.6875 956
-421.875 -54.6875 954
296.875 -226.562 910
7.8125 -226.562 938
-31.25 -226.562 946
382.812 -234.375 910
23.4375 -234.375 956
-125 -234.375 1007
39.0625 -250 1004
-46.875 -250 1025
-54.6875 -250 1028
-62.5 -250 1028
-93.75 -250 1041
-164.062 -250 1041
250 -242.188 928
304.688 -242.188 913
406.25 -242.188 910
-367.188 -242.188 1177
78.125 -218.75 910
312.5 -218.75 910
-78.125 -218.75 948
-343.75 -218.75 978
460.938 -210.938 1322
-343.75 -210.938 975
406.25 -203.125 920
-437.5 -203.125 948
-117.188 -195.312 913
85.9375 -171.875 920
-351.562 -187.5 970
-359.375 -140.625 951
156.25 -148.438 935
101.562 -328.125 1119
-187.5 -328.125 1421
-492.188 -328.125 2381
218.75 -320.312 1010
242.188 -320.312 1007
125 -320.312 1130
265.625 -320.312 1181
-500 -320.312 2365
210.938 -335.938 1013
-39.0625 -335.938 1016
93.75 -343.75 1105
109.375 -343.75 1112
-23.4375 -343.75 1022
93.75 -351.562 1101
234.375 -351.562 1013
-46.875 -351.562 1010
-93.75 -351.562 1001
-492.188 -351.562 2398
-367.188 -359.375 2958
-281.25 -359.375 2984
-62.5 -359.375 1004
117.188 -359.375 1115
-492.188 -375 2859
-78.125 -375 995
-328.125 -375 2958
-484.375 -367.188 2859
93.75 -281.25 1041
218.75 -281.25 951
-109.375 -281.25 1031
-70.3125 -281.25 1034
-31.25 -281.25 1041
-187.5 -281.25 1197
-492.188 -281.25 2349
375 -273.438 987
171.875 -273.438 959
39.0625 -273.438 1067
101.562 -273.438 1041
-23.4375 -273.438 1047
-218.75 -273.438 1193
-335.938 -273.438 3064
195.312 -257.812 962
7.8125 -257.812 1001
15.625 -257.812 1019
54.6875 -257.812 1022
-148.438 -257.812 1034
382.812 -265.625 954
218.75 -265.625 951
70.3125 -265.625 1025
54.6875 -265.625 1038
-203.125 -265.625 1149
-484.375 -265.625 2859
273.438 -289.062 992
171.875 -289.062 1013
203.125 -289.062 954
-31.25 -289.062 1034
-117.188 -289.062 1025
-492.188 -289.062 2365
210.938 -296.875 987
179.688 -296.875 1019
117.188 -296.875 1123
-54.6875 -296.875 1031
-15.625 -296.875 1038
-203.125 -296.875 1278
218.75 -304.688 989
-39.0625 -304.688 1028
-54.6875 -304.688 1028
-335.938 -453.125 2859
-421.875 -453.125 2789
-484.375 -453.125 2767
-54.6875 -445.312 989
-234.375 -445.312 2883
-390.625 -460.938 2789
0 -437.5 1138
15.625 -437.5 1149
-54.6875 -437.5 987
-132.812 -437.5 975
0 -429.688 1141
-15.625 -429.688 987
-109.375 -421.875 978
-31.25 -421.875 987
7.8125 -414.062 1145
-343.75 -414.062 2883
-93.75 -414.062 978
484.375 -390.625 1206
-203.125 -390.625 1214
-31.25 -390.625 995
-46.875 -382.812 995
-195.312 -382.812 1206
23.4375 -406.25 1077
-101.562 -398.438 984
-15.625 -398.438 998
-359.375 -398.438 2908
140.625 242.188 1470
132.812 234.375 1458
-226.562 234.375 1077
-78.125 226.562 1722
312.5 218.75 1370
304.688 218.75 1410
289.062 203.125 1483
85.9375 210.938 2078
-15.625 195.312 1785
-242.188 195.312 1050
-242.188 187.5 1047
-281.25 164.062 1034
375 156.25 1126
15.625 156.25 1739
-460.938 171.875 1001
351.562 171.875 1206
140.625 179.688 1776
375 140.625 1119
156.25 140.625 1739
-335.938 148.438 1022
320.312 132.812 1333
296.875 132.812 1398
-390.625 132.812 1016
-406.25 125 1010
414.062 85.9375 1031
390.625 85.9375 1067
375 85.9375 1119
-265.625 85.9375 998
375 78.125 1119
-445.312 78.125 989
406.25 70.3125 1031
-296.875 62.5 987
-382.812 101.562 1001
-289.062 93.75 1001
351.562 93.75 1189
148.438 93.75 1696
-257.812 117.188 1013
171.875 109.375 1722
-289.062 7.8125 948
414.062 0 951
437.5 15.625 1004
289.062 23.4375 1001
406.25 31.25 1019
406.25 54.6875 1022
328.125 54.6875 1288
414.062 406.25 1307
109.375 406.25 1370
421.875 421.875 1288
-304.688 429.688 1354
39.0625 390.625 1398
78.125 390.625 1398
-140.625 390.625 1210
62.5 398.438 1392
203.125 398.438 1365
-179.688 398.438 1210
109.375 382.812 1381
242.188 382.812 1381
-148.438 382.812 1197
257.812 375 1387
156.25 320.312 1354
148.438 320.312 1359
250 328.125 1404
-437.5 328.125 1206
-304.688 328.125 1210
-437.5 335.938 1202
179.688 367.188 1343
-195.312 359.375 1470
-195.312 343.75 1177
406.25 281.25 1278
7.8125 281.25 1601
210.938 296.875 1392
320.312 304.688 1328
304.688 273.438 1410
-85.9375 273.438 1624
-343.75 273.438 1302
351.562 265.625 1206
343.75 265.625 1236
62.5 265.625 1477
484.375 257.812 1268
320.312 257.812 1328
335.938 -226.562 910
-132.812 -226.562 987
15.625 -250 1001
-101.562 -250 1038
257.812 -250 959
31.25 -242.188 978
-484.375 -242.188 1126
-62.5 -218.75 946
390.625 -218.75 913
-46.875 -218.75 935
-312.5 -218.75 995
265.625 -210.938 913
7.8125 -210.938 910
-85.9375 -210.938 925
-335.938 -203.125 981
-351.562 -203.125 973
-62.5 -203.125 913
-117.188 -203.125 918
-171.875 -203.125 940
343.75 -195.312 920
492.188 -171.875 1193
421.875 -171.875 933
-375 -164.062 946
-359.375 -164.062 951
406.25 -164.062 933
320.312 -164.062 935
-39.0625 -164.062 920
-406.25 -164.062 954
484.375 -187.5 1250
406.25 -187.5 925
406.25 -140.625 946
359.375 -140.625 943
-304.688 -140.625 973
351.562 -132.812 946
62.5 -132.812 938
70.3125 -156.25 928
234.375 -156.25 933
-226.562 -156.25 915
460.938 -148.438 1145
390.625 -109.375 959
-117.188 -109.375 943
492.188 -101.562 1038
46.875 -101.562 948
-140.625 -101.562 943
-328.125 -101.562 951
406.25 -117.188 954
-281.25 -117.188 981
-421.875 -117.188 978
203.125 -125 946
226.562 -78.125 967
218.75 -78.125 964
445.312 -78.125 1007
-273.438 -70.3125 989
257.812 -85.9375 962
-390.625 -85.9375 943
-93.75 -39.0625 970
-406.25 -39.0625 956
-460.938 -39.0625 1054
390.625 -46.875 959
304.688 -46.875 964
-23.4375 -46.875 970
-242.188 -46.875 964
-171.875 -46.875 967
343.75 -62.5 989
7.8125 -62.5 964
101.562 -62.5 964
-117.188 -62.5 962
476.562 -54.6875 964
445.312 -54.6875 962
23.4375 -54.6875 967
-164.062 -31.25 975
-312.5 -31.25 1016
-398.438 -23.4375 962
476.562 -7.8125 954
484.375 -7.8125 948
-367.188 -7.8125 984
203.125 -335.938 1016
-476.562 -335.938 2883
-351.562 -335.938 2984
-343.75 -335.938 2984
-257.812 -335.938 3010
-39.0625 -343.75 1013
-445.312 -343.75 2908
-234.375 -328.125 3010
-429.688 -328.125 2933
234.375 -320.312 1007
-210.938 -320.312 2984
-70.3125 -320.312 1019
-273.438 -320.312 3037
218.75 -351.562 1004
-500 -351.562 2286
-46.875 -359.375 1007
-484.375 -375 2859
-156.25 -367.188 989
-500 -367.188 2398
210.938 -281.25 954
351.562 -281.25 1016
-437.5 -281.25 2958
-343.75 -273.438 3064
31.25 -273.438 1067
-382.812 -273.438 3064
-492.188 -273.438 2333
343.75 -265.625 973
304.688 -265.625 981
101.562 -257.812 1004
70.3125 -289.062 1108
156.25 -296.875 1019
-328.125 -296.875 3037
-453.125 -296.875 2958
-398.438 -296.875 3010
171.875 -304.688 1016
109.375 -312.5 1126
234.375 -312.5 1010
179.688 -453.125 2933
-156.25 -453.125 1165
117.188 -445.312 2958
-250 -445.312 2883
-398.438 -445.312 2789
171.875 -468.75 2933
-242.188 -468.75 2859
-273.438 -468.75 2859
62.5 -460.938 2933
-101.562 -460.938 1157
-195.312 -460.938 1219
-31.25 -437.5 987
-414.062 -437.5 2812
-257.812 -437.5 2883
-460.938 -429.688 2812
15.625 -421.875 1145
-54.6875 -406.25 987
-421.875 -406.25 2835
-445.312 -398.438 2835
-445.312 -382.812 2883
-156.25 -390.625 981
406.25 242.188 1264
343.75 234.375 1227
296.875 234.375 1404
101.562 234.375 1523
-109.375 234.375 1722
-460.938 234.375 1067
-398.438 234.375 1070
-328.125 234.375 1070
304.688 226.562 1404
-31.25 226.562 1713
406.25 218.75 1278
-78.125 218.75 1739
445.312 203.125 1283
453.125 210.938 1278
328.125 210.938 1297
117.188 210.938 2078
-468.75 187.5 1044
-382.812 164.062 1034
-250 164.062 1034
140.625 156.25 1748
132.812 156.25 1757
289.062 156.25 1439
312.5 171.875 1317
117.188 171.875 1766
445.312 179.688 1077
-15.625 179.688 1766
390.625 132.812 1073
335.938 132.812 1264
-31.25 132.812 1722
312.5 125 1359
304.688 125 1359
335.938 140.625 1264
359.375 140.625 1177
398.438 140.625 1060
320.312 148.438 1288
367.188 85.9375 1141
320.312 85.9375 1322
-390.625 85.9375 995
-296.875 85.9375 998
-476.562 78.125 992
-328.125 78.125 992
468.75 78.125 1031
351.562 78.125 1185
375 62.5 1115
-242.188 62.5 992
445.312 70.3125 1028
-257.812 117.188 1013
-343.75 117.188 1010
335.938 117.188 1255
382.812 109.375 1090
-453.125 109.375 1004
375 101.562 1123
-429.688 101.562 1001
492.188 93.75 1041
-281.25 93.75 1001
476.562 31.25 1010
343.75 54.6875 1227
437.5 54.6875 1019
382.812 46.875 1084
460.938 7.8125 998
476.562 23.4375 1004
390.625 23.4375 1019
-343.75 15.625 940
492.188 390.625 1288
-242.188 390.625 1415
-125 390.625 1250
328.125 398.438 1292
-23.4375 398.438 1398
-70.3125 382.812 1259
453.125 375 1343
39.0625 375 1433
-15.625 414.062 1376
-117.188 414.062 1259
70.3125 406.25 1376
-39.0625 421.875 1354
-359.375 421.875 1365
-70.3125 437.5 1283
-171.875 437.5 1241
-375 273.438 1302
398.438 265.625 1278
-210.938 265.625 1119
132.812 257.812 1458
210.938 250 1464
-109.375 250 1671
-93.75 250 1671
-15.625 250 1671
-234.375 250 1338
398.438 289.062 1292
406.25 289.062 1283
-320.312 289.062 1278
-382.812 289.062 1278
421.875 281.25 1245
382.812 281.25 1165
0 281.25 1601
-7.8125 281.25 1609
429.688 296.875 1278
15.625 304.688 1557
-132.812 367.188 1273
23.4375 351.562 1489
-195.312 351.562 1177
-218.75 335.938 1214
382.812 328.125 1197
351.562 312.5 1206
156.25 312.5 1354
15.625 312.5 1536
-242.188 312.5 1227
-312.5 -226.562 998
15.625 -234.375 954
-62.5 -242.188 1001
328.125 -210.938 915
-54.6875 -218.75 940
148.438 -195.312 913
429.688 -203.125 920
406.25 -179.688 928
70.3125 -179.688 920
-414.062 -179.688 951
-437.5 -179.688 951
-453.125 -187.5 951
-335.938 -171.875 962
-343.75 -164.062 956
375 -164.062 935
31.25 -164.062 923
148.438 -164.062 925
-218.75 -132.812 928
-445.312 -132.812 1022
148.438 -140.625 938
296.875 -148.438 940
-218.75 -148.438 923
375 -156.25 940
328.125 -156.25 935
343.75 -156.25 933
382.812 -101.562 964
445.312 -109.375 959
-226.562 -117.188 933
-23.4375 -117.188 943
460.938 -78.125 1004
-335.938 -78.125 948
398.438 -70.3125 995
312.5 -70.3125 1001
109.375 -70.3125 964
-265.625 -70.3125 946
296.875 -85.9375 967
390.625 -85.9375 967
-437.5 -85.9375 973
-281.25 -85.9375 975
296.875 -39.0625 959
-257.812 -46.875 954
-273.438 -46.875 1034
109.375 -62.5 967
-7.8125 -62.5 964
484.375 -54.6875 962
-273.438 -31.25 1007
-226.562 -23.4375 973
-406.25 -23.4375 959
-93.75 -7.8125 951
-54.6875 -320.312 1022
-468.75 -335.938 2908
-484.375 -351.562 2883
-390.625 -375 2883
-242.188 -367.188 2958
-375 -273.438 3064
-414.062 -289.062 3010
-359.375 -460.938 2812
-312.5 -460.938 2859
101.562 -445.312 2984
-484.375 -421.875 2812
-304.688 234.375 1070
429.688 226.562 1264
-437.5 195.312 1047
-429.688 164.062 998
492.188 156.25 1073
367.188 156.25 1145
-250 156.25 1031
-101.562 125 1722
7.8125 109.375 1713
-367.188 93.75 998
156.25 54.6875 1013
-195.312 414.062 1381
-312.5 429.688 1354
-398.438 375 1445
-296.875 273.438 1307
-273.438 273.438 1302
-218.75 265.625 1312
-15.625 281.25 1609
85.9375 343.75 1398
320.312 335.938 1333
85.9375 320.312 1404
15.625 -15.625 946
-359.375 -54.6875 948
-468.75 -70.3125 1080
-343.75 -437.5 2859
-187.5 -296.875 1283
-476.562 -273.438 2958
-31.25 -320.312 1025
-234.375 -320.312 3037
-289.062 -320.312 3010
-312.5 -375 2958
-296.875 -367.188 2958
-70.3125 242.188 1688
85.9375 234.375 1680
-343.75 234.375 1070
-390.625 234.375 1070
-468.75 234.375 1070
46.875 218.75 1688
-117.188 218.75 1748
351.562 226.562 1202
-46.875 226.562 1722
-70.3125 226.562 1722
-398.438 226.562 1067
-15.625 187.5 1776
-390.625 187.5 1044
335.938 203.125 1259
343.75 203.125 1232
281.25 203.125 1523
-31.25 203.125 1785
-85.9375 210.938 1766
335.938 156.25 1255
281.25 156.25 1483
-7.8125 156.25 1748
257.812 171.875 1663
304.688 171.875 1404
375 132.812 1126
-54.6875 125 1713
320.312 140.625 1297
226.562 101.562 1722
250 117.188 1663
320.312 109.375 1322
218.75 70.3125 1696
-406.25 414.062 1381
-23.4375 281.25 1609
-93.75 265.625 1639
54.6875 257.812 1639
-281.25 398.438 1404
-382.812 257.812 1317
-265.625 -31.25 1010
-250 273.438 1302
-15.625 289.062 1594
-437.5 -171.875 951
398.438 23.4375 1028
445.312 359.375 1365
-281.25 273.438 1307
-414.062 273.438 1302
117.188 296.875 1387
476.562 406.25 1292
390.625 390.625 1328
-125 375 1250
195.312 -289.062 951
-351.562 -382.812 2933
-406.25 -132.812 967
390.625 -164.062 933
-7.8125 -15.625 948
351.562 -31.25 943
-390.625 -31.25 964
265.625 -23.4375 940
328.125 -62.5 989
421.875 -46.875 954
179.688 -70.3125 970
-109.375 -85.9375 951
148.438 -117.188 946
-460.938 -109.375 1070
-414.062 117.188 1010
375 109.375 1115
351.562 101.562 1189
328.125 78.125 1278
398.438 31.25 1034
453.125 7.8125 995
-226.562 234.375 1077
328.125 218.75 1259
453.125 406.25 1297
-203.125 398.438 1410
460.938 312.5 1259
-85.9375 250 1680
-226.562 304.688 1250
-476.562 -164.062 1087
-101.562 -164.062 920
-187.5 -406.25 1189
-218.75 273.438 1302
-257.812 328.125 1210
7.8125 296.875 1572
-351.562 328.125 1210
-281.25 328.125 1206
-234.375 328.125 1210
-125 -375 987
-320.312 328.125 1206
-179.688 -335.938 1232
281.25 -335.938 1206
-109.375 343.75 1219
-117.188 343.75 1223
-54.6875 -375 998
-23.4375 -406.25 992
-156.25 -242.188 1041
-164.062 -242.188 1041
195.312 -296.875 951
-359.375 328.125 1210
132.812 -296.875 1130
-492.188 -156.25 1381
-70.3125 -257.812 1047
-273.438 328.125 1206
-257.812 -15.625 984
-195.312 289.062 1130
-85.9375 289.062 1586
-93.75 -414.062 978
304.688 -85.9375 964
195.312 -250 962
156.25 -257.812 984
351.562 -328.125 3064
-132.812 -375 987
-328.125 328.125 1206
-312.5 328.125 1210
-132.812 343.75 1232
-304.688 328.125 1210
-445.312 304.688 1245
296.875 -85.9375 967
398.438 304.688 1297
-312.5 -78.125 954
359.375 -85.9375 967
-484.375 -62.5 1112
117.188 195.312 1766
343.75 359.375 1236
-296.875 281.25 1278
140.625 304.688 1354
-226.562 328.125 1214
-195.312 281.25 1130
-218.75 304.688 1250
414.062 312.5 1292
164.062 226.562 1477
-242.188 328.125 1206
156.25 -289.062 1022
304.688 382.812 1365
-164.062 -273.438 1157
-265.625 328.125 1206
453.125 171.875 1080
-242.188 203.125 1057
-93.75 -382.812 989
-210.938 312.5 1241
-109.375 -421.875 978
-492.188 -78.125 1149
226.562 -62.5 998
375 320.312 1193
179.688 -265.625 964
257.812 328.125 1421
-85.9375 -382.812 989
85.9375 179.688 1776
-335.938 328.125 1210
-289.062 328.125 1210
-210.938 304.688 1250
-500 -132.812 1307
328.125 -70.3125 998
-218.75 -375 2958
-210.938 296.875 1250
-93.75 359.375 1214
-117.188 -421.875 975
-492.188 -93.75 1189
382.812 -226.562 910
-250 -15.625 984
468.75 289.062 1236
-476.562 -179.688 1031
-460.938 -39.0625 1054
250 -15.625 940
-39.0625 -429.688 984
-117.188 -250 1041
54.6875 -46.875 989
398.438 -117.188 954
-500 -109.375 1232
273.438 -218.75 910
-296.875 -164.062 992
382.812 296.875 1177
-218.75 289.062 1283
-304.688 -109.375 964
-70.3125 -31.25 978
39.0625 -46.875 973
-179.688 -445.312 1197
-500 -85.9375 1173
-23.4375 -421.875 987
242.188 -62.5 998
-156.25 398.438 1210
375 195.312 1130
109.375 -46.875 981
-156.25 414.062 1223
-125 406.25 1255
-414.062 398.438 1398
-257.812 125 1016
-382.812 328.125 1214
-15.625 -39.0625 989
-492.188 -148.438 1359
-390.625 -54.6875 946
164.062 -226.562 908
15.625 281.25 1601
187.5 -335.938 1241
-367.188 328.125 1210
148.438 39.0625 1010
-234.375 289.062 1268
242.188 -234.375 913
-171.875 359.375 1181
453.125 304.688 1283
-218.75 328.125 1210
351.562 320.312 1206
390.625 296.875 1177
-328.125 265.625 1307
-46.875 -414.062 987
-187.5 382.812 1197
-23.4375 226.562 1713
203.125 265.625 1464
-453.125 -15.625 1004
359.375 281.25 1181
-54.6875 -437.5 987
429.688 -218.75 913
210.938 -273.438 954
-289.062 250 1073
-156.25 -31.25 975
195.312 -335.938 1016
-429.688 -70.3125 962
-437.5 -234.375 1157
-500 -93.75 1189
460.938 281.25 1236
-109.375 -31.25 978
-500 -171.875 1452
-460.938 -93.75 1070
171.875 -70.3125 962
85.9375 218.75 1696
265.625 265.625 1579
304.688 390.625 1349
-117.188 -437.5 975
-187.5 -414.062 1189
-343.75 328.125 1210
-46.875 -203.125 910
-179.688 -23.4375 984
-46.875 -445.312 984
140.625 78.125 1688
-343.75 -203.125 975
7.8125 -93.75 951
195.312 234.375 1483
265.625 -242.188 923
492.188 -218.75 1288
-7.8125 -39.0625 989
179.688 -289.062 959
-171.875 -296.875 1227
-156.25 390.625 1206
-132.812 335.938 1236
328.125 -304.688 1097
-460.938 -31.25 1038
-460.938 -85.9375 1070
-445.312 -23.4375 1019
7.8125 187.5 1776
-476.562 -62.5 1108
-296.875 -54.6875 973
390.625 -78.125 1007
-179.688 304.688 1145
-93.75 -31.25 981
351.562 -429.688 2933
109.375 351.562 1354
-328.125 -78.125 951
468.75 -218.75 1297
-468.75 -54.6875 1087
-414.062 -39.0625 954
-429.688 -78.125 962
-445.312 -7.8125 992
-375 328.125 1214
304.688 -226.562 910
-437.5 273.438 1297
226.562 265.625 1433
156.25 -54.6875 989
-304.688 250 1108
-93.75 -39.0625 970
-93.75 289.062 1594
484.375 265.625 1278
343.75 375 1241
406.25 23.4375 1019
476.562 234.375 1259
-23.4375 -398.438 998
398.438 -132.812 948
-429.688 304.688 1241
70.3125 -46.875 987
398.438 -125 951
234.375 -62.5 1001
-281.25 -78.125 981
367.188 -93.75 962
437.5 -218.75 915
-78.125 -382.812 989
-85.9375 -445.312 981
210.938 -296.875 987
-62.5 328.125 1516
-398.438 273.438 1312
-78.125 -31.25 984
-203.125 328.125 1214
-187.5 -398.438 1193
-273.438 70.3125 992
156.25 -226.562 908
-296.875 289.062 1273
156.25 195.312 1776
-375 234.375 1070
54.6875 -218.75 913
-62.5 210.938 1757
93.75 -46.875 984
171.875 -54.6875 989
39.0625 -54.6875 967
234.375 -78.125 967
-429.688 -234.375 1169
320.312 -70.3125 1001
-179.688 406.25 1223
234.375 -234.375 915
-398.438 -93.75 946
468.75 195.312 1302
-281.25 289.062 1278
367.188 289.062 1173
-148.438 437.5 1236
140.625 93.75 1705
-250 171.875 1041
132.812 -54.6875 992
-234.375 328.125 1210
312.5 414.062 1312
-171.875 437.5 1241
-187.5 -390.625 1193
109.375 -62.5 967
-351.562 328.125 1210
140.625 109.375 1713
-351.562 234.375 1070
289.062 -226.562 910
398.438 85.9375 1047
-421.875 -234.375 1169
-265.625 101.562 1004
476.562 156.25 1077
484.375 296.875 1292
54.6875 312.5 1421
-31.25 -179.688 918
-117.188 328.125 1223
62.5 -46.875 987
-296.875 250 1077
140.625 85.9375 1696
125 296.875 1381
195.312 250 1477
-500 -242.188 2301
375 312.5 1189
-476.562 -54.6875 1090
-109.375 320.312 1219
-179.688 296.875 1141
7.8125 -39.0625 987
-109.375 312.5 1219
390.625 -257.812 938
101.562 187.5 1785
-257.812 328.125 1210
242.188 -15.625 940
359.375 320.312 1193
187.5 -273.438 956
-171.875 -320.312 1381
453.125 -218.75 1302
-85.9375 -31.25 984
-85.9375 -31.25 984
437.5 296.875 1278
85.9375 -46.875 987
-234.375 226.562 1073
445.312 281.25 1241
132.812 70.3125 1696
382.812 320.312 1193
-335.938 -179.688 964
257.812 296.875 1458
-226.562 328.125 1214
-421.875 -70.3125 959
54.6875 351.562 1470
-62.5 273.438 1624
-7.8125 -210.938 910
421.875 289.062 1250
-210.938 328.125 1214
-15.625 -46.875 970
-273.438 289.062 1273
-242.188 328.125 1206
-312.5 273.438 1297
-304.688 289.062 1273
101.562 -46.875 984
-453.125 320.312 1236
-132.812 -289.062 1022
117.188 -62.5 967
-117.188 -460.938 1157
-164.062 367.188 1189
382.812 -265.625 954
46.875 -398.438 1067
-78.125 -406.25 984
132.812 132.812 1739
-367.188 210.938 1057
281.25 -23.4375 943
343.75 -218.75 910
