ply
format ascii 1.0
comment Created by Open3D
element vertex 2376
property double x
property double y
property double z
end_header
179.688 351.562 1427
-460.938 -85.9375 2256
109.375 -85.9375 935
-78.125 343.75 1483
-375 257.812 1993
289.062 -351.562 1153
125 367.188 1415
-195.312 296.875 1001
15.625 187.5 975
-148.438 312.5 1031
312.5 328.125 1297
-320.312 242.188 2028
-15.625 320.312 1236
117.188 -78.125 930
304.688 -429.688 984
-484.375 62.5 2541
23.4375 312.5 1241
296.875 156.25 1070
31.25 -93.75 1028
-445.312 -39.0625 2333
70.3125 -273.438 1084
304.688 273.438 1189
46.875 -289.062 1101
-7.8125 367.188 1197
468.75 -101.562 975
23.4375 -203.125 946
171.875 320.312 1483
234.375 -445.312 1108
164.062 234.375 1067
375 210.938 1529
171.875 -187.5 908
390.625 234.375 1536
109.375 312.5 1219
39.0625 -78.125 1057
250 234.375 1283
210.938 -250 959
281.25 250 1193
70.3125 351.562 1464
-78.125 -257.812 1057
-54.6875 -85.9375 1084
250 -156.25 938
375 242.188 1523
101.562 -156.25 975
15.625 -85.9375 1028
-39.0625 328.125 1227
-23.4375 359.375 1197
117.188 -265.625 1050
375 -62.5 973
132.812 -335.938 1273
179.688 -367.188 1250
-70.3125 -179.688 1250
7.8125 406.25 1398
335.938 -132.812 920
343.75 101.562 1034
234.375 367.188 1392
62.5 -195.312 940
257.812 398.438 1343
15.625 -132.812 1025
382.812 226.562 1529
171.875 273.438 1259
351.562 -398.438 962
7.8125 -281.25 1119
-70.3125 351.562 1214
304.688 187.5 1097
132.812 -203.125 903
-23.4375 289.062 1050
250 -210.938 1044
320.312 -281.25 1013
-101.562 414.062 1126
7.8125 -125 1022
476.562 117.188 1557
93.75 -15.625 967
289.062 -54.6875 984
78.125 -78.125 1047
187.5 -125 908
296.875 335.938 1250
257.812 -234.375 1010
-390.625 -125 3092
445.312 -234.375 906
210.938 148.438 1031
156.25 -54.6875 915
179.688 281.25 1264
414.062 -382.812 995
-468.75 -70.3125 2271
109.375 -31.25 967
62.5 289.062 1273
0 -148.438 1041
-101.562 437.5 1145
-210.938 171.875 933
304.688 265.625 1189
-343.75 156.25 858
-39.0625 -273.438 1090
273.438 367.188 1297
273.438 -218.75 978
-31.25 -93.75 1054
328.125 -281.25 1007
140.625 -140.625 928
171.875 -304.688 1181
109.375 -335.938 1359
-7.8125 281.25 1044
7.8125 210.938 1007
117.188 320.312 1214
265.625 -226.562 995
7.8125 -117.188 1022
210.938 -218.75 933
281.25 -140.625 951
250 -242.188 1028
117.188 -351.562 1317
-343.75 398.438 1722
195.312 250 1273
46.875 320.312 1210
257.812 -85.9375 930
-179.688 250 978
-171.875 273.438 998
335.938 78.125 1019
-125 398.438 1105
-195.312 203.125 948
85.9375 257.812 1060
367.188 195.312 1579
125 -210.938 898
296.875 -437.5 981
-203.125 375 1063
148.438 -390.625 1338
-203.125 195.312 943
93.75 -23.4375 973
70.3125 -210.938 906
132.812 -257.812 1041
-7.8125 179.688 984
-234.375 -218.75 1404
70.3125 -195.312 938
-500 -304.688 1981
304.688 -195.312 928
31.25 -203.125 940
210.938 -179.688 964
281.25 -62.5 995
296.875 85.9375 1016
140.625 -195.312 918
-117.188 429.688 1134
-23.4375 -54.6875 1038
125 -85.9375 925
242.188 -359.375 1202
289.062 -335.938 1134
312.5 -46.875 967
117.188 -171.875 954
0 -125 1019
156.25 -453.125 1157
93.75 296.875 1250
93.75 -78.125 940
101.562 -85.9375 933
31.25 -125 1028
312.5 117.188 1044
171.875 437.5 1317
-273.438 390.625 1722
-171.875 281.25 1001
304.688 -406.25 995
460.938 257.812 1464
-218.75 -210.938 1381
-109.375 437.5 1141
234.375 -171.875 940
250 -78.125 933
-367.188 273.438 1970
273.438 -70.3125 1007
296.875 101.562 1031
101.562 -242.188 1077
-109.375 -218.75 1354
-453.125 -7.8125 2349
296.875 -398.438 1007
304.688 -351.562 1025
54.6875 343.75 1206
210.938 -226.562 943
140.625 242.188 1067
195.312 -289.062 992
195.312 -242.188 938
-62.5 437.5 1365
-445.312 -148.438 2908
62.5 -125 1004
203.125 218.75 1067
320.312 234.375 1165
-54.6875 -164.062 1067
-85.9375 -203.125 1302
187.5 -164.062 906
-46.875 -242.188 1077
-179.688 -226.562 1398
132.812 289.062 1255
93.75 -93.75 992
101.562 250 1057
351.562 250 1278
148.438 445.312 1312
-93.75 -210.938 1322
-429.688 -117.188 3010
304.688 -289.062 1028
93.75 -265.625 1070
-109.375 398.438 1101
273.438 351.562 1292
250 437.5 1322
210.938 -210.938 928
-62.5 -101.562 1108
140.625 265.625 1283
-492.188 -179.688 2040
-7.8125 375 1445
273.438 -179.688 1013
265.625 375 1333
-500 -179.688 2040
156.25 304.688 1223
101.562 -70.3125 946
140.625 148.438 1004
-187.5 234.375 964
-15.625 359.375 1202
-15.625 -54.6875 1034
-445.312 -31.25 2333
187.5 226.562 1073
195.312 265.625 1268
226.562 -31.25 967
453.125 257.812 1464
-70.3125 -101.562 1112
257.812 -101.562 930
195.312 437.5 1312
-289.062 265.625 1970
-421.875 -7.8125 2381
-62.5 320.312 1255
-62.5 343.75 1210
39.0625 296.875 1273
125 0 943
-15.625 328.125 1232
296.875 148.438 1060
101.562 -140.625 946
-140.625 343.75 1054
15.625 320.312 1236
7.8125 -70.3125 1047
-101.562 343.75 1219
343.75 -46.875 964
289.062 -429.688 1126
93.75 -328.125 1387
85.9375 -31.25 981
-117.188 335.938 1063
-343.75 265.625 1981
-437.5 406.25 1713
-54.6875 -179.688 1047
445.312 7.8125 1823
367.188 93.75 1785
476.562 -242.188 910
85.9375 -15.625 967
203.125 -226.562 943
117.188 -46.875 948
-421.875 -117.188 3010
226.562 54.6875 925
437.5 156.25 1489
132.812 156.25 1010
54.6875 -62.5 1025
62.5 421.875 1365
101.562 -7.8125 956
242.188 -343.75 1173
257.812 -234.375 1010
164.062 -265.625 998
265.625 -421.875 1130
281.25 -421.875 1130
359.375 179.688 1647
390.625 -70.3125 975
406.25 -414.062 975
15.625 -242.188 1119
296.875 328.125 1241
187.5 -93.75 913
226.562 281.25 1236
70.3125 281.25 1273
218.75 -179.688 964
-54.6875 -85.9375 1084
492.188 -101.562 987
39.0625 -218.75 930
-70.3125 -179.688 1250
70.3125 273.438 1268
-70.3125 296.875 1034
-93.75 328.125 1250
31.25 -281.25 1115
257.812 -93.75 930
117.188 -39.0625 948
54.6875 312.5 1241
-62.5 -195.312 1038
234.375 210.938 1084
132.812 -273.438 1034
93.75 -179.688 951
187.5 -296.875 1153
7.8125 351.562 1202
-140.625 359.375 1063
-54.6875 210.938 989
265.625 -78.125 930
171.875 445.312 1312
-93.75 351.562 1214
78.125 -265.625 1084
62.5 -273.438 1090
-312.5 390.625 1722
468.75 257.812 1458
148.438 281.25 1255
148.438 -93.75 920
-101.562 328.125 1245
-93.75 320.312 1250
132.812 351.562 1445
273.438 -93.75 930
148.438 289.062 1255
-343.75 -93.75 1177
15.625 -93.75 1025
125 -390.625 1349
250 -140.625 930
289.062 351.562 1278
101.562 359.375 1439
148.438 -62.5 915
273.438 359.375 1292
-46.875 -70.3125 1060
250 -132.812 930
23.4375 320.312 1236
-15.625 -109.375 1025
85.9375 375 1421
375 62.5 1843
296.875 226.562 1157
-23.4375 -148.438 1063
15.625 289.062 1268
-7.8125 -132.812 1022
343.75 148.438 1688
140.625 -31.25 933
335.938 296.875 1297
445.312 195.312 1516
101.562 304.688 1210
31.25 -210.938 938
-23.4375 304.688 1268
320.312 125 1054
359.375 195.312 1557
210.938 -453.125 1119
304.688 195.312 1097
203.125 -281.25 967
-39.0625 -203.125 1019
-414.062 -117.188 3064
109.375 -31.25 967
226.562 218.75 1084
164.062 218.75 1067
210.938 218.75 1067
187.5 -250 943
-351.562 398.438 1722
-117.188 382.812 1090
296.875 93.75 1025
-7.8125 203.125 998
265.625 -226.562 995
414.062 -375 998
109.375 -265.625 1057
179.688 -78.125 918
375 101.562 1776
296.875 -78.125 1004
132.812 -171.875 954
320.312 242.188 1255
171.875 -210.938 923
210.938 -273.438 967
140.625 -273.438 1025
85.9375 257.812 1060
382.812 218.75 1529
359.375 -375 975
289.062 -203.125 959
250 -93.75 925
210.938 -406.25 1161
46.875 289.062 1268
7.8125 296.875 1264
62.5 265.625 1054
-15.625 335.938 1236
23.4375 343.75 1202
-187.5 226.562 964
289.062 132.812 1050
257.812 -109.375 933
265.625 -187.5 1019
171.875 -156.25 908
7.8125 -195.312 981
-500 -203.125 2040
312.5 -281.25 1010
445.312 164.062 1477
132.812 -132.812 935
-203.125 179.688 935
-296.875 265.625 1959
273.438 -218.75 978
312.5 117.188 1044
70.3125 304.688 1245
257.812 281.25 1241
0 281.25 1047
156.25 -171.875 906
7.8125 304.688 1264
312.5 -398.438 995
-195.312 203.125 948
460.938 171.875 1452
281.25 -210.938 970
132.812 312.5 1219
31.25 109.375 906
-93.75 -210.938 1322
-85.9375 -203.125 1302
15.625 328.125 1236
-179.688 429.688 1115
-54.6875 -101.562 1105
132.812 320.312 1219
78.125 328.125 1210
62.5 257.812 1054
242.188 203.125 1080
343.75 -351.562 984
343.75 101.562 1034
-39.0625 -62.5 1050
54.6875 -195.312 943
-312.5 265.625 1970
179.688 -359.375 1219
156.25 -78.125 918
125 289.062 1255
125 265.625 1288
-39.0625 -85.9375 1077
203.125 289.062 1232
164.062 -390.625 1328
-62.5 367.188 1189
359.375 171.875 1647
-101.562 429.688 1134
351.562 85.9375 1853
187.5 -85.9375 915
171.875 273.438 1259
398.438 -62.5 973
93.75 -140.625 989
78.125 -46.875 1004
101.562 -62.5 948
226.562 265.625 1268
39.0625 -125 1025
-39.0625 343.75 1219
257.812 -234.375 1010
281.25 242.188 1181
-109.375 351.562 1210
15.625 -234.375 1119
492.188 125 1503
148.438 -62.5 915
31.25 273.438 1050
101.562 -273.438 1063
414.062 250 1503
218.75 -265.625 962
195.312 -351.562 1202
-31.25 -93.75 1054
0 -281.25 1119
304.688 54.6875 1001
289.062 328.125 1245
109.375 -46.875 948
78.125 -125 992
-62.5 -164.062 1063
296.875 85.9375 1016
335.938 304.688 1297
312.5 125 1050
445.312 85.9375 1766
453.125 -359.375 1019
-406.25 -148.438 3037
7.8125 -46.875 1019
101.562 -359.375 1370
93.75 -351.562 1376
304.688 218.75 1153
93.75 281.25 1283
445.312 218.75 1445
-62.5 -101.562 1108
140.625 257.812 1288
-54.6875 296.875 1038
-195.312 164.062 930
304.688 187.5 1097
-31.25 359.375 1197
-78.125 -195.312 1288
-257.812 390.625 1722
-78.125 -203.125 1034
406.25 -70.3125 978
296.875 -62.5 989
85.9375 -195.312 938
0 -203.125 967
62.5 335.938 1214
85.9375 -7.8125 959
140.625 -148.438 928
70.3125 -7.8125 959
-187.5 242.188 973
351.562 -406.25 959
117.188 265.625 1283
289.062 -70.3125 1001
351.562 -289.062 1016
-500 195.312 2170
-468.75 195.312 2156
-125 406.25 1112
-164.062 406.25 1097
320.312 93.75 1031
320.312 234.375 1165
-70.3125 -70.3125 1063
132.812 -390.625 1343
312.5 -390.625 995
335.938 -281.25 1004
296.875 78.125 1013
179.688 -70.3125 918
156.25 234.375 1067
-62.5 -62.5 1054
93.75 -289.062 1060
85.9375 -23.4375 975
179.688 437.5 1317
242.188 -187.5 962
-195.312 218.75 959
-54.6875 312.5 1250
62.5 -39.0625 995
382.812 -437.5 951
140.625 140.625 1001
-54.6875 289.062 1038
359.375 -289.062 1007
367.188 62.5 1843
54.6875 289.062 1273
187.5 -289.062 995
289.062 -54.6875 984
101.562 -7.8125 956
273.438 -70.3125 1007
-23.4375 -54.6875 1038
117.188 -39.0625 948
304.688 -54.6875 981
39.0625 -273.438 1112
296.875 70.3125 1013
-234.375 304.688 1001
281.25 -62.5 995
187.5 289.062 1236
70.3125 -15.625 970
39.0625 296.875 1273
132.812 -101.562 935
328.125 250 1259
171.875 -273.438 1001
281.25 -429.688 1123
70.3125 -265.625 1090
390.625 85.9375 1785
195.312 242.188 1288
312.5 273.438 1189
-78.125 328.125 1255
460.938 -93.75 984
406.25 203.125 1496
304.688 -281.25 1013
296.875 132.812 1054
210.938 -414.062 1145
-414.062 273.438 1981
281.25 -406.25 1149
281.25 -210.938 970
281.25 -414.062 1141
-468.75 -117.188 2226
296.875 -382.812 1031
453.125 -367.188 1010
62.5 281.25 1268
382.812 -218.75 898
156.25 328.125 1464
320.312 109.375 1044
156.25 -398.438 1202
46.875 -210.938 923
-460.938 -62.5 2301
101.562 -39.0625 984
289.062 335.938 1250
171.875 -304.688 1181
304.688 257.812 1189
226.562 -367.188 1232
140.625 164.062 987
31.25 335.938 1206
117.188 289.062 1250
453.125 -390.625 998
460.938 -117.188 964
359.375 70.3125 1843
203.125 -242.188 940
101.562 273.438 1283
-171.875 273.438 998
148.438 -281.25 1022
-85.9375 304.688 1038
-101.562 359.375 1214
85.9375 359.375 1445
164.062 312.5 1227
7.8125 320.312 1236
210.938 296.875 1232
54.6875 -281.25 1094
70.3125 -125 1001
140.625 343.75 1452
-148.438 320.312 1034
109.375 -31.25 967
171.875 257.812 1288
265.625 -226.562 995
476.562 -93.75 998
156.25 -265.625 973
15.625 320.312 1236
-335.938 398.438 1722
179.688 296.875 1232
312.5 109.375 1041
312.5 -117.188 956
117.188 273.438 1283
289.062 -46.875 973
-109.375 -164.062 1236
265.625 -390.625 1173
85.9375 257.812 1060
414.062 -226.562 906
23.4375 -289.062 1123
54.6875 296.875 1245
-390.625 273.438 1970
23.4375 -234.375 1123
101.562 265.625 1283
492.188 218.75 1433
242.188 414.062 1333
-7.8125 -140.625 1025
-203.125 195.312 943
140.625 -328.125 1264
-468.75 70.3125 2467
-46.875 -78.125 1073
-85.9375 382.812 1185
-421.875 398.438 1739
265.625 -78.125 930
0 -70.3125 1047
195.312 382.812 1387
140.625 -367.188 1264
187.5 -359.375 1219
187.5 367.188 1415
31.25 -289.062 1115
-156.25 328.125 1041
101.562 375 1415
484.375 117.188 1543
85.9375 -265.625 1077
343.75 -429.688 946
148.438 7.8125 930
312.5 218.75 1153
171.875 335.938 1452
156.25 -187.5 908
140.625 281.25 1255
492.188 -421.875 1054
-429.688 7.8125 2381
148.438 281.25 1255
46.875 281.25 1273
203.125 -179.688 910
23.4375 -281.25 1123
375 164.062 1550
171.875 -382.812 1297
429.688 148.438 1509
375 -109.375 940
-484.375 -148.438 2170
210.938 -273.438 967
-70.3125 335.938 1219
-31.25 367.188 1189
226.562 351.562 1421
476.562 -429.688 1060
187.5 304.688 1232
-312.5 367.188 1776
437.5 117.188 1543
-375 398.438 1722
187.5 242.188 1288
-421.875 -85.9375 3037
140.625 320.312 1219
-7.8125 335.938 1197
-500 15.625 2701
203.125 -234.375 940
242.188 -85.9375 920
-85.9375 320.312 1250
101.562 -31.25 978
289.062 -203.125 959
218.75 -265.625 962
445.312 164.062 1477
312.5 -156.25 930
-390.625 -125 3092
195.312 -250 943
-210.938 171.875 933
117.188 0 943
-15.625 281.25 1054
-39.0625 312.5 1264
171.875 -445.312 1145
140.625 -78.125 918
7.8125 -203.125 962
-39.0625 -132.812 1034
156.25 -304.688 1232
101.562 -367.188 1365
203.125 -281.25 967
39.0625 367.188 1445
117.188 -85.9375 930
382.812 -210.938 894
187.5 -351.562 1210
210.938 -226.562 943
78.125 -54.6875 1013
23.4375 -93.75 1028
-132.812 375 1080
296.875 218.75 1153
390.625 78.125 1785
382.812 54.6875 1843
-343.75 273.438 1959
195.312 250 1273
15.625 -101.562 1022
296.875 125 1044
312.5 265.625 1197
85.9375 335.938 1214
54.6875 101.562 906
195.312 -218.75 935
148.438 398.438 1370
-23.4375 -281.25 1105
-62.5 -93.75 1101
156.25 -117.188 923
-328.125 398.438 1722
218.75 242.188 1302
39.0625 289.062 1268
-398.438 -125 3092
132.812 -78.125 918
296.875 62.5 1004
-281.25 265.625 1970
289.062 -343.75 1149
78.125 -39.0625 995
398.438 -78.125 970
164.062 -406.25 1202
281.25 250 1193
328.125 351.562 1312
265.625 -179.688 1028
351.562 257.812 1278
242.188 390.625 1365
304.688 359.375 1283
46.875 320.312 1210
117.188 320.312 1214
109.375 296.875 1245
218.75 257.812 1273
289.062 -328.125 1108
437.5 226.562 1458
226.562 -257.812 1070
-39.0625 -210.938 998
31.25 351.562 1202
257.812 -101.562 930
140.625 -406.25 1370
109.375 273.438 1278
296.875 54.6875 998
273.438 -140.625 951
484.375 93.75 1564
273.438 -218.75 978
109.375 -46.875 948
312.5 210.938 1145
-242.188 289.062 992
85.9375 -242.188 1087
0 328.125 1232
109.375 -140.625 946
62.5 312.5 1241
54.6875 312.5 1241
101.562 -46.875 948
70.3125 -187.5 946
46.875 -187.5 954
296.875 210.938 1141
-39.0625 -46.875 1025
-85.9375 -78.125 1084
-23.4375 -132.812 1025
-101.562 -210.938 1322
460.938 171.875 1452
-23.4375 -273.438 1101
-125 -117.188 1157
382.812 -296.875 1022
101.562 -39.0625 984
62.5 265.625 1054
250 -343.75 1165
414.062 -335.938 1019
242.188 -125 920
250 242.188 1278
273.438 335.938 1283
359.375 -429.688 946
7.8125 281.25 1050
242.188 -156.25 928
359.375 -414.062 954
-62.5 -101.562 1108
-46.875 -203.125 1022
257.812 -375 1223
117.188 250 1063
398.438 210.938 1536
453.125 -234.375 908
7.8125 -132.812 1025
132.812 -445.312 1185
148.438 265.625 1283
7.8125 203.125 1001
-179.688 265.625 989
304.688 375 1302
421.875 226.562 1503
-39.0625 -7.8125 981
234.375 -148.438 925
437.5 257.812 1483
-398.438 257.812 2005
296.875 -46.875 973
148.438 250 1288
359.375 39.0625 1813
117.188 -62.5 938
218.75 406.25 1349
320.312 -46.875 964
78.125 -62.5 1025
-382.812 250 2028
46.875 -70.3125 1041
117.188 -39.0625 948
296.875 226.562 1157
54.6875 -171.875 959
281.25 -78.125 1016
70.3125 398.438 1392
125 296.875 1255
156.25 -273.438 1016
-117.188 281.25 1022
125 -39.0625 946
-429.688 -171.875 2984
-171.875 398.438 1090
390.625 -335.938 1007
101.562 320.312 1210
304.688 250 1181
179.688 281.25 1264
140.625 -70.3125 915
-500 -312.5 1981
85.9375 273.438 1278
257.812 -109.375 933
171.875 -70.3125 920
289.062 -320.312 1097
289.062 -195.312 964
195.312 429.688 1322
382.812 78.125 2143
-39.0625 -148.438 1070
242.188 343.75 1410
312.5 117.188 1044
343.75 101.562 1034
-210.938 359.375 1047
273.438 -398.438 1157
460.938 -15.625 946
-93.75 -210.938 1322
367.188 85.9375 1853
484.375 343.75 1370
-78.125 -187.5 1268
132.812 -70.3125 918
281.25 -210.938 970
-187.5 242.188 973
335.938 -335.938 1001
-359.375 273.438 1959
117.188 242.188 1063
132.812 281.25 1255
304.688 -398.438 1004
-234.375 -210.938 1392
85.9375 -31.25 981
148.438 -132.812 925
125 289.062 1255
46.875 -85.9375 1063
39.0625 -210.938 930
85.9375 351.562 1464
15.625 -46.875 1016
273.438 289.062 1236
101.562 -195.312 898
476.562 257.812 1458
257.812 -85.9375 930
328.125 -281.25 1007
179.688 -117.188 910
218.75 218.75 1080
-23.4375 289.062 1050
-70.3125 351.562 1214
-109.375 398.438 1101
-109.375 335.938 1219
-210.938 -468.75 2767
148.438 -62.5 915
23.4375 -187.5 975
101.562 -265.625 1063
-101.562 429.688 1134
281.25 -437.5 1119
-265.625 257.812 1970
289.062 -312.5 1080
109.375 -203.125 898
78.125 445.312 1328
140.625 437.5 1322
250 429.688 1322
101.562 304.688 1210
296.875 46.875 992
-437.5 398.438 1731
-187.5 414.062 1101
15.625 414.062 1387
62.5 -70.3125 1038
226.562 -164.062 938
328.125 265.625 1259
101.562 -7.8125 956
367.188 398.438 1343
-54.6875 -78.125 1073
156.25 335.938 1458
335.938 250 1273
85.9375 -23.4375 975
93.75 -195.312 898
31.25 289.062 1268
-179.688 250 978
140.625 242.188 1067
31.25 -210.938 938
-476.562 -187.5 2835
140.625 375 1410
171.875 414.062 1349
273.438 -445.312 1112
-46.875 -109.375 1050
273.438 296.875 1245
117.188 -156.25 946
156.25 -46.875 918
54.6875 -164.062 964
-414.062 -117.188 3064
281.25 -54.6875 984
-15.625 -281.25 1108
-492.188 -304.688 1981
-500 -62.5 2984
-250 390.625 1722
70.3125 -265.625 1090
7.8125 289.062 1268
156.25 -265.625 973
414.062 -320.312 1028
218.75 234.375 1302
117.188 -375 1317
445.312 140.625 1489
289.062 -203.125 959
460.938 140.625 1536
-171.875 289.062 1007
132.812 -265.625 1038
117.188 -203.125 898
54.6875 -242.188 1112
-46.875 -265.625 1084
15.625 -179.688 987
304.688 -421.875 967
250 -375 1219
296.875 140.625 1057
-476.562 -242.188 2744
156.25 367.188 1415
210.938 -382.812 1206
-273.438 382.812 1739
-39.0625 -125 1034
171.875 -265.625 987
281.25 210.938 1173
-7.8125 382.812 1421
-23.4375 281.25 1050
226.562 -85.9375 915
242.188 250 1273
281.25 218.75 1177
257.812 46.875 981
351.562 -320.312 1001
296.875 203.125 1141
164.062 -453.125 1149
218.75 -265.625 962
414.062 -429.688 970
367.188 -382.812 973
156.25 304.688 1223
195.312 296.875 1232
70.3125 289.062 1273
-7.8125 304.688 1268
179.688 218.75 1067
-15.625 -140.625 1025
-429.688 406.25 1722
289.062 -70.3125 1001
312.5 -281.25 1010
148.438 -265.625 1022
140.625 -390.625 1338
203.125 -62.5 923
78.125 -46.875 1004
140.625 -320.312 1268
375 54.6875 1843
85.9375 -117.188 989
296.875 210.938 1141
-406.25 -117.188 3092
445.312 78.125 1785
156.25 -171.875 906
-62.5 -164.062 1063
367.188 78.125 1853
148.438 -312.5 1259
-273.438 265.625 1959
351.562 109.375 1766
445.312 -375 1007
234.375 -437.5 1115
-85.9375 296.875 1038
-132.812 359.375 1067
289.062 -78.125 1010
-179.688 -218.75 1387
234.375 -250 1057
117.188 -31.25 954
156.25 -54.6875 915
7.8125 210.938 1007
7.8125 210.938 973
85.9375 -101.562 992
-39.0625 -85.9375 1060
375 210.938 1536
156.25 -304.688 1165
320.312 234.375 1264
296.875 -406.25 1001
210.938 242.188 1307
125 0 954
195.312 226.562 1080
-54.6875 -31.25 1022
-382.812 -125 3064
375 390.625 1349
492.188 -429.688 1060
-445.312 -54.6875 3010
140.625 -414.062 1214
23.4375 -125 1031
140.625 -445.312 1181
296.875 39.0625 995
140.625 -429.688 1189
93.75 -382.812 1381
250 -125 946
265.625 -429.688 1126
-453.125 -226.562 2859
-85.9375 -203.125 1028
93.75 -15.625 978
132.812 -195.312 908
-15.625 -234.375 1112
218.75 -453.125 1115
390.625 -375 995
296.875 -429.688 987
375 -289.062 1025
453.125 62.5 1823
375 85.9375 2143
-62.5 -109.375 1084
195.312 -343.75 1219
179.688 -85.9375 918
281.25 -23.4375 962
492.188 109.375 1564
7.8125 -109.375 1028
234.375 226.562 1317
195.312 -132.812 920
156.25 -179.688 913
257.812 -335.938 1169
265.625 -187.5 998
296.875 195.312 1134
296.875 195.312 1134
-187.5 234.375 967
46.875 -132.812 995
210.938 -398.438 1161
15.625 398.438 1415
31.25 -234.375 1134
445.312 148.438 1489
375 -390.625 981
296.875 54.6875 1004
257.812 -117.188 948
414.062 -312.5 1044
62.5 -164.062 959
140.625 234.375 1070
54.6875 -273.438 1094
312.5 -421.875 970
226.562 -257.812 1047
-203.125 195.312 946
218.75 -109.375 920
179.688 -109.375 915
164.062 70.3125 915
210.938 414.062 1349
132.812 -414.062 1214
328.125 -312.5 1010
70.3125 -62.5 1041
15.625 -281.25 1126
70.3125 414.062 1376
476.562 93.75 1757
-23.4375 117.188 901
335.938 -414.062 959
156.25 -78.125 925
304.688 -164.062 928
-39.0625 -179.688 1025
296.875 203.125 1138
-210.938 171.875 885
289.062 -304.688 1084
-296.875 429.688 1671
382.812 -437.5 962
476.562 85.9375 1766
187.5 375 1404
320.312 -375 987
156.25 -46.875 923
414.062 -328.125 1031
179.688 226.562 1073
-148.438 312.5 1025
257.812 -125 951
390.625 31.25 1813
54.6875 -210.938 915
351.562 -375 981
476.562 203.125 1439
-421.875 -78.125 3037
46.875 390.625 1421
210.938 234.375 1307
281.25 203.125 1094
250 -132.812 946
39.0625 -242.188 1123
273.438 343.75 1268
250 -85.9375 935
-31.25 -148.438 1073
-195.312 218.75 962
-23.4375 195.312 992
39.0625 445.312 1343
109.375 -351.562 1312
-437.5 -117.188 2984
250 250 1278
-500 -70.3125 2256
-31.25 -117.188 1031
156.25 -281.25 1016
179.688 -156.25 908
250 -93.75 935
-367.188 250 2040
468.75 78.125 1776
93.75 -171.875 959
453.125 -93.75 984
335.938 -375 978
453.125 -375 1101
273.438 320.312 1250
78.125 -39.0625 1010
234.375 -93.75 928
179.688 -296.875 1138
-195.312 320.312 1022
273.438 -85.9375 935
-39.0625 -62.5 1063
85.9375 -39.0625 959
296.875 -289.062 1050
31.25 265.625 1054
-54.6875 328.125 1232
312.5 101.562 1041
242.188 -132.812 938
390.625 -406.25 978
367.188 148.438 1572
125 156.25 1010
195.312 -281.25 1119
-54.6875 -78.125 1087
93.75 -375 1365
85.9375 -109.375 989
242.188 -109.375 935
93.75 -78.125 938
414.062 -320.312 1034
-421.875 -117.188 3064
117.188 -343.75 1297
382.812 -320.312 1019
343.75 -429.688 951
187.5 359.375 1427
226.562 -445.312 1119
289.062 406.25 1333
312.5 265.625 1189
453.125 -382.812 1084
179.688 -148.438 913
117.188 -31.25 948
304.688 195.312 1097
148.438 257.812 1292
164.062 -31.25 928
273.438 328.125 1255
210.938 -390.625 1177
-179.688 257.812 987
281.25 -164.062 978
242.188 -242.188 1025
85.9375 250 1063
289.062 -312.5 1054
250 -148.438 948
-31.25 281.25 1047
93.75 -85.9375 989
281.25 226.562 1165
289.062 -101.562 1001
140.625 -70.3125 920
148.438 -15.625 933
281.25 -390.625 1016
125 289.062 1255
70.3125 -148.438 970
46.875 320.312 1516
-140.625 109.375 885
85.9375 335.938 1219
265.625 -93.75 938
210.938 445.312 1317
242.188 304.688 1359
125 296.875 1245
-351.562 273.438 1970
23.4375 382.812 1433
398.438 31.25 1813
281.25 -398.438 1013
85.9375 -125 992
164.062 -171.875 908
101.562 -85.9375 933
218.75 -164.062 948
398.438 -78.125 973
-125 304.688 1031
-31.25 335.938 1227
343.75 -335.938 998
343.75 296.875 1458
156.25 -390.625 1210
140.625 -187.5 918
-62.5 289.062 1041
-54.6875 -335.938 3092
23.4375 343.75 1210
-140.625 343.75 1050
414.062 343.75 1381
164.062 -132.812 918
304.688 -195.312 913
171.875 -203.125 928
-62.5 -117.188 1084
250 -117.188 946
-46.875 -226.562 1001
281.25 218.75 1161
-101.562 351.562 1483
406.25 218.75 1489
-187.5 242.188 975
281.25 195.312 1094
101.562 304.688 1250
93.75 281.25 1288
109.375 -203.125 906
-195.312 210.938 956
179.688 296.875 1516
187.5 304.688 1509
343.75 -437.5 948
54.6875 257.812 1054
179.688 -187.5 918
54.6875 312.5 1523
-23.4375 289.062 1047
-39.0625 -132.812 1031
312.5 156.25 1080
109.375 296.875 1250
-140.625 367.188 1070
234.375 -101.562 930
31.25 351.562 1202
-23.4375 -62.5 1057
210.938 390.625 1376
148.438 -70.3125 923
148.438 281.25 1259
304.688 -414.062 984
15.625 -132.812 1038
195.312 296.875 1503
148.438 -125 925
296.875 -171.875 938
0 273.438 1050
148.438 156.25 1004
101.562 -46.875 951
429.688 335.938 1387
-93.75 351.562 1483
-70.3125 -171.875 1050
187.5 218.75 1077
-109.375 351.562 1489
234.375 -70.3125 930
-62.5 -93.75 1115
62.5 265.625 1063
406.25 -429.688 975
7.8125 351.562 1210
234.375 -140.625 935
101.562 -171.875 964
140.625 242.188 1070
7.8125 281.25 1050
328.125 -304.688 1019
226.562 -62.5 930
-335.938 -195.312 1392
93.75 -15.625 978
-7.8125 179.688 987
-203.125 187.5 940
250 -85.9375 935
-117.188 -265.625 3120
54.6875 187.5 1004
203.125 -148.438 930
179.688 281.25 1250
281.25 -382.812 1181
148.438 265.625 1288
468.75 -429.688 1063
179.688 -140.625 913
-62.5 -109.375 1084
-85.9375 320.312 1529
265.625 289.062 1236
-117.188 -320.312 3064
70.3125 -250 1090
-476.562 62.5 2579
39.0625 421.875 1370
78.125 328.125 1219
296.875 -62.5 998
-39.0625 312.5 1543
-23.4375 -70.3125 1054
250 -101.562 938
-460.938 70.3125 2541
-500 -109.375 2198
39.0625 296.875 1278
78.125 -62.5 1038
-414.062 -78.125 3037
101.562 273.438 1288
-15.625 328.125 1236
335.938 312.5 1292
109.375 273.438 1288
421.875 -85.9375 978
296.875 93.75 1028
203.125 -164.062 959
375 218.75 1523
203.125 273.438 1273
281.25 -187.5 964
-101.562 359.375 1483
242.188 -78.125 938
273.438 -437.5 1123
39.0625 289.062 1278
203.125 -156.25 938
132.812 -156.25 910
296.875 101.562 1034
-62.5 367.188 1489
195.312 -101.562 918
-500 -312.5 2005
-210.938 164.062 885
93.75 -187.5 906
-453.125 -70.3125 2301
117.188 242.188 1067
171.875 -70.3125 923
265.625 382.812 1322
359.375 -351.562 995
-62.5 -101.562 1126
-187.5 304.688 1013
-85.9375 304.688 1038
281.25 210.938 1157
289.062 -296.875 1077
93.75 -54.6875 951
7.8125 296.875 1564
-7.8125 281.25 1050
-54.6875 367.188 1452
-7.8125 351.562 1206
-31.25 -85.9375 1054
171.875 257.812 1283
210.938 -226.562 948
62.5 281.25 1264
-54.6875 296.875 1044
85.9375 257.812 1063
429.688 -351.562 1025
250 -93.75 935
-23.4375 359.375 1202
265.625 359.375 1292
257.812 -109.375 948
54.6875 289.062 1278
414.062 -312.5 1044
164.062 -210.938 933
257.812 164.062 1063
234.375 -93.75 928
140.625 -320.312 1245
125 -171.875 913
-203.125 179.688 938
187.5 289.062 1509
109.375 242.188 1063
367.188 -390.625 981
171.875 273.438 1255
-250 -320.312 2908
-46.875 335.938 1219
273.438 335.938 1259
-31.25 367.188 1193
367.188 203.125 1572
390.625 242.188 1529
437.5 54.6875 1853
-93.75 296.875 1038
-453.125 15.625 2381
164.062 226.562 1073
-109.375 335.938 1523
187.5 335.938 1470
-257.812 -312.5 2908
101.562 -39.0625 956
117.188 273.438 1288
85.9375 -78.125 1001
218.75 234.375 1302
117.188 250 1063
140.625 -70.3125 920
132.812 -203.125 908
195.312 -85.9375 918
257.812 359.375 1292
23.4375 343.75 1210
0 -70.3125 1034
-15.625 281.25 1047
421.875 -390.625 1001
132.812 164.062 1013
226.562 54.6875 928
-70.3125 367.188 1452
-23.4375 187.5 987
93.75 296.875 1250
70.3125 187.5 978
-7.8125 335.938 1232
273.438 -445.312 1119
460.938 -15.625 959
250 367.188 1338
375 -15.625 943
320.312 187.5 1101
-54.6875 101.562 891
250 226.562 1264
226.562 -46.875 938
39.0625 312.5 1516
140.625 257.812 1288
140.625 -195.312 925
398.438 23.4375 1813
46.875 289.062 1278
164.062 -195.312 920
7.8125 304.688 1557
-179.688 265.625 989
62.5 335.938 1214
-15.625 328.125 1236
445.312 -93.75 981
179.688 -125 915
304.688 39.0625 998
-210.938 382.812 1070
125 265.625 1278
203.125 -85.9375 918
-7.8125 328.125 1236
281.25 -85.9375 1028
85.9375 -70.3125 943
-54.6875 -78.125 1087
0 359.375 1206
-132.812 304.688 1034
195.312 265.625 1283
-140.625 351.562 1047
210.938 -70.3125 920
-62.5 289.062 1041
31.25 273.438 1054
296.875 226.562 1153
179.688 226.562 1073
-85.9375 382.812 1452
289.062 289.062 1206
125 296.875 1245
-15.625 335.938 1236
468.75 -101.562 984
125 -54.6875 925
281.25 257.812 1185
-62.5 375 1452
-140.625 117.188 885
46.875 335.938 1210
281.25 -101.562 1019
320.312 335.938 1307
109.375 -312.5 1370
-187.5 234.375 967
-78.125 367.188 1445
54.6875 343.75 1219
54.6875 343.75 1219
140.625 242.188 1070
101.562 -156.25 959
-109.375 351.562 1489
31.25 335.938 1206
70.3125 335.938 1214
171.875 -195.312 920
296.875 85.9375 1019
85.9375 328.125 1219
289.062 148.438 1060
187.5 218.75 1077
171.875 -226.562 930
148.438 289.062 1250
-15.625 85.9375 896
-23.4375 281.25 1047
375 -312.5 1019
62.5 289.062 1278
-85.9375 320.312 1529
312.5 54.6875 1007
304.688 31.25 918
320.312 -46.875 975
46.875 320.312 1516
203.125 -203.125 933
-39.0625 359.375 1202
0 281.25 1057
31.25 343.75 1202
-109.375 109.375 887
312.5 78.125 1022
23.4375 265.625 1050
-31.25 351.562 1202
-46.875 -265.625 1094
-46.875 -265.625 1094
289.062 -304.688 1084
85.9375 273.438 1283
453.125 70.3125 1823
-109.375 359.375 1489
140.625 257.812 1288
31.25 289.062 1278
234.375 203.125 1080
164.062 234.375 1073
156.25 234.375 1073
156.25 -132.812 923
171.875 273.438 1255
15.625 296.875 1557
-70.3125 296.875 1044
109.375 242.188 1063
-171.875 281.25 1001
156.25 281.25 1255
210.938 -156.25 940
109.375 -203.125 906
93.75 -179.688 956
93.75 281.25 1288
195.312 250 1278
210.938 242.188 1307
117.188 265.625 1283
273.438 -117.188 956
70.3125 281.25 1264
171.875 -179.688 910
359.375 -62.5 973
187.5 296.875 1496
93.75 296.875 1250
140.625 -7.8125 943
70.3125 -132.812 981
250 -93.75 935
250 15.625 928
-23.4375 117.188 901
445.312 140.625 1550
265.625 39.0625 938
125 289.062 1255
289.062 296.875 1219
78.125 328.125 1219
-78.125 101.562 891
125 -179.688 928
296.875 195.312 1134
39.0625 312.5 1516
289.062 156.25 1067
304.688 -367.188 1013
179.688 296.875 1516
-54.6875 367.188 1452
101.562 250 1063
140.625 -93.75 925
-210.938 132.812 875
-453.125 -85.9375 2317
281.25 -429.688 989
203.125 242.188 1307
-7.8125 351.562 1206
-85.9375 328.125 1529
257.812 195.312 1084
-78.125 351.562 1489
296.875 -70.3125 995
78.125 -54.6875 1025
-101.562 351.562 1483
85.9375 257.812 1063
320.312 351.562 1328
-54.6875 -125 1034
-484.375 320.312 1894
312.5 226.562 1149
101.562 -85.9375 933
210.938 210.938 1080
-39.0625 351.562 1223
-125 312.5 1034
-23.4375 328.125 1236
-7.8125 328.125 1236
-23.4375 289.062 1047
117.188 289.062 1250
-39.0625 343.75 1223
109.375 -46.875 948
15.625 343.75 1214
-7.8125 273.438 1044
-70.3125 289.062 1038
-46.875 335.938 1219
-70.3125 265.625 1022
156.25 -46.875 923
250 273.438 1255
218.75 210.938 1084
382.812 234.375 1529
132.812 265.625 1288
414.062 -78.125 981
85.9375 304.688 1255
312.5 70.3125 1016
382.812 164.062 1536
328.125 -281.25 1028
218.75 257.812 1278
-195.312 164.062 885
296.875 -429.688 987
242.188 -78.125 938
234.375 -164.062 951
140.625 -203.125 910
445.312 -234.375 920
0 351.562 1210
62.5 281.25 1264
171.875 -304.688 1153
265.625 -390.625 1173
-179.688 257.812 987
273.438 312.5 1241
-492.188 31.25 2680
-78.125 320.312 1529
273.438 304.688 1227
78.125 250 1057
-23.4375 359.375 1202
179.688 273.438 1255
70.3125 328.125 1214
-70.3125 367.188 1452
187.5 -289.062 1134
375 -70.3125 970
343.75 -328.125 1004
492.188 -109.375 984
-39.0625 289.062 1050
-31.25 289.062 1047
289.062 351.562 1273
-101.562 296.875 1034
148.438 289.062 1250
-93.75 304.688 1041
-39.0625 281.25 1044
31.25 296.875 1550
-39.0625 -132.812 1031
351.562 132.812 1739
117.188 367.188 1427
140.625 281.25 1259
101.562 281.25 1283
-132.812 304.688 1034
54.6875 343.75 1219
195.312 265.625 1283
-46.875 343.75 1214
-203.125 164.062 882
46.875 335.938 1210
132.812 -179.688 915
117.188 335.938 1477
39.0625 320.312 1516
398.438 -78.125 973
179.688 -203.125 928
296.875 54.6875 1004
335.938 -343.75 995
132.812 164.062 1013
-15.625 335.938 1236
23.4375 203.125 970
265.625 203.125 1084
359.375 304.688 1445
281.25 -195.312 962
-195.312 187.5 943
179.688 -179.688 915
367.188 -382.812 981
125 -85.9375 930
171.875 281.25 1250
429.688 148.438 1509
296.875 273.438 1193
296.875 78.125 1016
195.312 351.562 1445
78.125 335.938 1214
148.438 257.812 1292
-39.0625 335.938 1223
156.25 359.375 1439
289.062 140.625 1057
101.562 -164.062 962
-132.812 148.438 891
31.25 273.438 1054
234.375 -390.625 1169
257.812 289.062 1273
109.375 -164.062 959
109.375 -85.9375 933
78.125 -31.25 995
54.6875 265.625 1063
445.312 -421.875 1063
148.438 281.25 1259
125 0 954
-429.688 -164.062 2984
-62.5 -93.75 1115
242.188 250 1278
117.188 -351.562 1297
85.9375 273.438 1283
414.062 -226.562 915
351.562 257.812 1523
210.938 -39.0625 933
15.625 -210.938 954
-39.0625 359.375 1202
109.375 -39.0625 954
-15.625 179.688 984
171.875 -39.0625 933
93.75 304.688 1250
367.188 -70.3125 970
320.312 359.375 1328
125 265.625 1278
117.188 273.438 1288
-54.6875 289.062 1044
31.25 289.062 1278
-359.375 -445.312 2680
148.438 -78.125 925
-15.625 351.562 1206
23.4375 296.875 1557
179.688 -265.625 992
351.562 179.688 1647
85.9375 250 1063
218.75 242.188 1297
85.9375 -132.812 984
148.438 -257.812 1022
265.625 390.625 1322
-85.9375 132.812 894
148.438 -312.5 1223
187.5 296.875 1496
-93.75 320.312 1536
-15.625 359.375 1202
-101.562 437.5 1141
-195.312 210.938 956
0 296.875 1564
375 54.6875 1843
320.312 -54.6875 967
-85.9375 343.75 1516
101.562 304.688 1250
62.5 289.062 1278
187.5 -242.188 948
351.562 -289.062 1028
429.688 117.188 1550
234.375 -109.375 928
-429.688 -242.188 2883
132.812 -7.8125 948
85.9375 281.25 1268
359.375 312.5 1439
-70.3125 289.062 1038
406.25 -421.875 981
39.0625 312.5 1516
-109.375 359.375 1489
125 78.125 913
195.312 273.438 1273
-101.562 445.312 1149
203.125 265.625 1273
-62.5 375 1452
140.625 257.812 1288
187.5 226.562 1080
7.8125 304.688 1557
-54.6875 335.938 1214
187.5 -101.562 915
382.812 54.6875 1843
304.688 -195.312 913
320.312 -195.312 901
23.4375 351.562 1210
-7.8125 179.688 987
31.25 343.75 1202
257.812 367.188 1338
39.0625 -203.125 928
203.125 -78.125 920
-23.4375 328.125 1236
312.5 62.5 1013
179.688 -164.062 908
164.062 250 1292
164.062 257.812 1288
93.75 296.875 1250
-46.875 -125 1034
289.062 31.25 940
195.312 296.875 1503
242.188 -148.438 940
250 -93.75 935
265.625 226.562 1210
-62.5 367.188 1489
195.312 -46.875 933
437.5 -85.9375 981
234.375 203.125 1080
250 -101.562 938
382.812 -218.75 910
273.438 -398.438 1157
156.25 226.562 1070
445.312 109.375 1557
46.875 257.812 1050
140.625 265.625 1288
-406.25 -375 2723
218.75 257.812 1278
-31.25 367.188 1193
257.812 257.812 1264
46.875 187.5 1004
171.875 -140.625 915
-31.25 -85.9375 1054
390.625 -78.125 970
0 304.688 1550
117.188 289.062 1250
343.75 367.188 1365
-62.5 -117.188 1084
-23.4375 -54.6875 1050
210.938 -140.625 928
-101.562 351.562 1483
0 281.25 1057
242.188 -85.9375 933
70.3125 328.125 1214
218.75 265.625 1273
101.562 296.875 1250
296.875 187.5 1094
-7.8125 328.125 1236
296.875 218.75 1149
187.5 -140.625 913
46.875 -85.9375 1019
-78.125 351.562 1489
273.438 -445.312 1119
-7.8125 359.375 1202
351.562 109.375 1766
117.188 -85.9375 933
460.938 -93.75 987
289.062 132.812 1054
140.625 -39.0625 925
78.125 179.688 1010
132.812 -195.312 908
15.625 343.75 1214
62.5 -7.8125 973
179.688 304.688 1503
257.812 -195.312 1010
-39.0625 367.188 1464
85.9375 -210.938 906
-93.75 -210.938 1031
148.438 -125 925
31.25 296.875 1550
156.25 -171.875 910
101.562 54.6875 906
54.6875 335.938 1219
0 351.562 1210
70.3125 -125 1001
-70.3125 -125 1080
117.188 -226.562 935
-320.312 156.25 862
-140.625 375 1077
179.688 273.438 1255
132.812 242.188 1070
-62.5 -156.25 1073
171.875 -234.375 940
-7.8125 273.438 1044
117.188 -187.5 933
429.688 -39.0625 954
164.062 -187.5 915
85.9375 273.438 1283
101.562 -156.25 959
187.5 -156.25 920
54.6875 265.625 1063
140.625 281.25 1259
46.875 312.5 1523
15.625 -265.625 1126
210.938 234.375 1307
-46.875 359.375 1496
39.0625 320.312 1516
-39.0625 312.5 1543
382.812 -296.875 1034
468.75 -93.75 987
171.875 273.438 1255
390.625 -70.3125 981
93.75 320.312 1219
-195.312 226.562 964
85.9375 335.938 1219
109.375 250 1063
476.562 -242.188 925
-62.5 296.875 1044
-85.9375 101.562 887
-23.4375 328.125 1236
-93.75 320.312 1536
343.75 -62.5 967
257.812 46.875 938
179.688 218.75 1070
-78.125 367.188 1445
273.438 -62.5 1007
320.312 -203.125 906
78.125 281.25 1268
7.8125 -132.812 1038
15.625 265.625 1050
156.25 257.812 1292
132.812 257.812 1288
375 -210.938 903
-54.6875 335.938 1214
-140.625 304.688 1028
117.188 148.438 998
195.312 265.625 1283
31.25 312.5 1557
132.812 46.875 908
-15.625 273.438 1041
437.5 -226.562 913
-23.4375 85.9375 896
476.562 195.312 1439
-453.125 0 2349
164.062 250 1292
-273.438 148.438 867
242.188 226.562 1292
39.0625 289.062 1278
85.9375 296.875 1255
171.875 296.875 1543
171.875 281.25 1250
210.938 -54.6875 930
343.75 -437.5 948
0 296.875 1564
7.8125 -203.125 956
93.75 304.688 1250
117.188 296.875 1245
7.8125 328.125 1232
156.25 -23.4375 928
210.938 -132.812 923
-15.625 -203.125 978
31.25 101.562 908
-117.188 109.375 887
-351.562 273.438 1970
-304.688 250 2016
101.562 242.188 1060
171.875 250 1273
156.25 -304.688 1165
164.062 70.3125 915
-70.3125 375 1452
70.3125 257.812 1060
414.062 -85.9375 975
85.9375 281.25 1268
164.062 273.438 1255
125 289.062 1255
46.875 70.3125 901
460.938 70.3125 1813
15.625 273.438 1050
234.375 320.312 1370
281.25 375 1292
109.375 265.625 1283
109.375 -31.25 956
304.688 234.375 1157
195.312 273.438 1273
70.3125 281.25 1264
117.188 289.062 1250
70.3125 328.125 1214
203.125 296.875 1509
101.562 328.125 1219
-78.125 -187.5 1050
109.375 -195.312 906
351.562 -210.938 908
265.625 265.625 1232
-109.375 273.438 1019
250 281.25 1255
39.0625 335.938 1206
-39.0625 -109.375 1038
125 296.875 1245
164.062 257.812 1288
164.062 -117.188 915
93.75 -148.438 978
195.312 -195.312 925
132.812 164.062 1013
406.25 -304.688 1044
31.25 289.062 1278
0 273.438 1050
-109.375 406.25 1108
367.188 70.3125 1853
0 304.688 1550
93.75 -281.25 1067
273.438 -437.5 1123
-78.125 289.062 1038
78.125 335.938 1214
132.812 -210.938 910
203.125 265.625 1273
187.5 296.875 1496
156.25 -210.938 923
-281.25 265.625 1981
23.4375 289.062 1564
54.6875 281.25 1283
437.5 -406.25 998
367.188 62.5 1843
179.688 -78.125 920
351.562 -203.125 901
281.25 -359.375 1210
289.062 125 1044
101.562 -171.875 964
85.9375 257.812 1063
85.9375 -78.125 1001
148.438 289.062 1250
-62.5 -148.438 1073
-93.75 304.688 1041
70.3125 -265.625 1087
320.312 46.875 1004
164.062 234.375 1073
-39.0625 335.938 1223
218.75 23.4375 925
85.9375 -195.312 906
156.25 -226.562 928
-109.375 296.875 1031
-62.5 367.188 1489
-85.9375 343.75 1516
171.875 -218.75 928
46.875 289.062 1278
132.812 -328.125 1259
101.562 -218.75 908
257.812 281.25 1255
-164.062 312.5 1025
179.688 375 1404
125 242.188 1067
-46.875 93.75 894
-250 390.625 1731
-226.562 -226.562 1421
70.3125 250 1054
70.3125 -195.312 906
320.312 -328.125 1013
-85.9375 328.125 1529
-78.125 367.188 1445
93.75 -382.812 1381
195.312 -359.375 1255
101.562 -93.75 962
7.8125 328.125 1232
117.188 0 954
93.75 328.125 1219
210.938 -101.562 920
15.625 343.75 1214
-218.75 156.25 885
23.4375 109.375 906
343.75 23.4375 948
218.75 -171.875 962
187.5 -46.875 930
31.25 296.875 1550
-7.8125 117.188 903
23.4375 343.75 1210
140.625 -132.812 928
109.375 296.875 1250
93.75 320.312 1219
210.938 242.188 1307
148.438 -453.125 1161
23.4375 273.438 1054
-31.25 359.375 1202
46.875 257.812 1050
-39.0625 367.188 1464
-46.875 -93.75 1057
203.125 210.938 1077
54.6875 289.062 1278
367.188 -70.3125 970
164.062 226.562 1073
140.625 281.25 1259
7.8125 289.062 1572
109.375 -203.125 906
375 -429.688 959
101.562 171.875 1010
-54.6875 335.938 1214
335.938 117.188 1776
0 109.375 903
-7.8125 -62.5 1054
109.375 265.625 1283
46.875 343.75 1206
171.875 296.875 1543
31.25 312.5 1557
390.625 23.4375 1804
-203.125 203.125 948
250 -93.75 935
210.938 218.75 1084
101.562 273.438 1288
195.312 218.75 1077
179.688 304.688 1503
375 171.875 1529
78.125 257.812 1063
187.5 -148.438 920
-203.125 187.5 940
101.562 296.875 1250
7.8125 343.75 1214
109.375 242.188 1063
171.875 437.5 1328
-15.625 351.562 1206
-62.5 296.875 1044
-46.875 320.312 1232
62.5 62.5 906
62.5 -187.5 940
203.125 242.188 1307
54.6875 195.312 975
132.812 242.188 1070
382.812 -70.3125 975
-109.375 140.625 891
78.125 328.125 1219
265.625 -375 1193
54.6875 335.938 1219
-210.938 179.688 935
445.312 179.688 1464
-39.0625 125 901
15.625 195.312 970
203.125 -203.125 933
109.375 -70.3125 935
-31.25 289.062 1047
-46.875 359.375 1496
164.062 273.438 1255
-257.812 390.625 1731
93.75 273.438 1283
-289.062 148.438 867
179.688 218.75 1070
-359.375 273.438 1970
-78.125 304.688 1041
101.562 -62.5 943
210.938 -273.438 1084
-54.6875 -125 1034
-351.562 398.438 1731
-468.75 -31.25 2301
62.5 -195.312 910
-31.25 -39.0625 1028
0 -203.125 959
250 -125 946
437.5 39.0625 1843
398.438 -390.625 995
242.188 15.625 928
-476.562 -250 2744
140.625 265.625 1288
203.125 187.5 1060
148.438 -203.125 920
250 -117.188 946
-23.4375 328.125 1236
250 -101.562 938
-54.6875 289.062 1044
273.438 289.062 1219
281.25 -367.188 1236
226.562 257.812 1283
85.9375 -70.3125 943
-62.5 320.312 1503
437.5 -93.75 978
156.25 234.375 1073
-46.875 281.25 1038
7.8125 -117.188 1031
-54.6875 296.875 1044
39.0625 335.938 1206
195.312 -31.25 984
-398.438 -382.812 2723
109.375 -296.875 1381
101.562 265.625 1288
101.562 -7.8125 967
460.938 -101.562 984
125 -210.938 910
109.375 -31.25 956
179.688 -390.625 1197
-23.4375 335.938 1232
62.5 -125 1004
109.375 -312.5 1370
210.938 -226.562 948
203.125 218.75 1080
-15.625 179.688 984
390.625 -78.125 970
-31.25 -85.9375 1054
-148.438 312.5 1025
-54.6875 343.75 1214
156.25 -179.688 913
125 -234.375 948
-70.3125 265.625 1022
148.438 -70.3125 923
148.438 -15.625 933
296.875 -195.312 923
109.375 273.438 1288
-93.75 320.312 1536
140.625 -15.625 935
-15.625 281.25 1047
-54.6875 -78.125 1087
62.5 328.125 1214
375 -343.75 1004
101.562 -351.562 1338
304.688 195.312 1097
54.6875 281.25 1283
226.562 -93.75 923
54.6875 312.5 1523
273.438 375 1297
445.312 148.438 1489
125 -179.688 928
148.438 281.25 1259
-7.8125 359.375 1202
375 62.5 1843
-148.438 132.812 885
312.5 328.125 1297
85.9375 -140.625 978
312.5 -78.125 959
179.688 -257.812 981
382.812 179.688 1536
367.188 187.5 1594
171.875 -31.25 933
328.125 -296.875 1022
-7.8125 281.25 1050
101.562 -195.312 906
-70.3125 132.812 891
289.062 265.625 1189
-78.125 367.188 1445
125 -187.5 928
296.875 265.625 1189
187.5 265.625 1283
-15.625 273.438 1041
-78.125 296.875 1041
-140.625 304.688 1028
117.188 296.875 1245
-85.9375 351.562 1489
250 -109.375 940
70.3125 273.438 1067
273.438 273.438 1214
132.812 257.812 1288
179.688 289.062 1543
359.375 -62.5 973
7.8125 -109.375 1028
-70.3125 312.5 1536
70.3125 335.938 1214
31.25 312.5 1557
367.188 -62.5 975
289.062 257.812 1181
-93.75 328.125 1523
-70.3125 375 1452
-117.188 390.625 1108
7.8125 296.875 1564
70.3125 250 1054
156.25 -265.625 1010
39.0625 320.312 1516
250 148.438 1047
140.625 289.062 1250
164.062 273.438 1255
164.062 -195.312 920
-78.125 289.062 1038
93.75 320.312 1219
171.875 296.875 1543
93.75 -195.312 906
109.375 -187.5 938
31.25 195.312 975
-7.8125 351.562 1206
148.438 70.3125 918
484.375 -109.375 981
148.438 445.312 1317
-62.5 359.375 1483
234.375 -250 1034
445.312 -414.062 1080
195.312 -164.062 964
39.0625 195.312 975
-46.875 335.938 1219
-359.375 343.75 1833
132.812 265.625 1288
0 78.125 898
289.062 109.375 1038
-15.625 320.312 1236
-328.125 156.25 860
390.625 39.0625 1813
-445.312 -453.125 2579
445.312 148.438 1489
-15.625 -140.625 1038
-101.562 -234.375 1047
304.688 265.625 1189
-31.25 328.125 1232
125 234.375 1063
210.938 234.375 1307
312.5 -54.6875 973
109.375 250 1063
15.625 351.562 1210
-46.875 343.75 1214
203.125 281.25 1273
164.062 -23.4375 935
250 -382.812 1185
445.312 -85.9375 984
39.0625 -210.938 925
492.188 132.812 1509
-31.25 125 903
203.125 -62.5 928
140.625 156.25 1004
148.438 148.438 1007
406.25 -78.125 984
46.875 281.25 1601
125 -343.75 1268
187.5 -171.875 920
218.75 -273.438 1063
273.438 203.125 1090
-39.0625 328.125 1529
-421.875 312.5 1915
375 -218.75 918
195.312 289.062 1283
-7.8125 343.75 1214
210.938 -203.125 948
343.75 -210.938 918
-210.938 164.062 885
250 343.75 1343
132.812 78.125 918
-414.062 -242.188 2883
-7.8125 296.875 1543
-39.0625 289.062 1050
390.625 70.3125 1853
406.25 -218.75 915
39.0625 265.625 1054
-445.312 -156.25 2859
132.812 -85.9375 933
328.125 -54.6875 970
156.25 -15.625 935
179.688 -85.9375 920
54.6875 265.625 1060
54.6875 328.125 1214
296.875 70.3125 1019
304.688 -70.3125 973
-125 414.062 1112
-7.8125 328.125 1236
210.938 -31.25 984
125 289.062 1255
0 320.312 1236
70.3125 -85.9375 1013
85.9375 179.688 1013
-265.625 375 1757
132.812 281.25 1264
195.312 62.5 928
195.312 242.188 1312
140.625 -390.625 1210
210.938 -46.875 935
250 304.688 1312
140.625 -257.812 1028
445.312 -382.812 1087
-15.625 359.375 1202
351.562 -320.312 1016
429.688 156.25 1509
281.25 195.312 1094
7.8125 343.75 1214
140.625 -203.125 920
390.625 85.9375 1785
-46.875 359.375 1496
-39.0625 351.562 1496
-31.25 312.5 1550
78.125 273.438 1601
-31.25 -140.625 1073
-62.5 93.75 896
203.125 210.938 1080
265.625 39.0625 940
156.25 250 1297
125 140.625 1001
62.5 328.125 1214
226.562 203.125 1084
-23.4375 304.688 1550
23.4375 296.875 1564
-46.875 -132.812 1080
148.438 -23.4375 933
242.188 46.875 935
132.812 234.375 1067
-46.875 125 901
-367.188 164.062 864
320.312 351.562 1322
250 195.312 1084
-70.3125 -140.625 1077
203.125 -171.875 981
187.5 265.625 1292
351.562 -429.688 962
93.75 242.188 1060
-335.938 398.438 1739
234.375 -46.875 948
-23.4375 -54.6875 1060
398.438 -70.3125 987
242.188 -85.9375 938
195.312 -78.125 925
132.812 -242.188 959
125 -195.312 915
164.062 -203.125 938
289.062 101.562 1031
7.8125 -210.938 956
23.4375 343.75 1214
23.4375 273.438 1057
-39.0625 304.688 1516
-39.0625 -125 1038
414.062 -85.9375 981
328.125 187.5 1663
218.75 312.5 1427
0 -62.5 1057
23.4375 -93.75 1038
93.75 250 1063
7.8125 -218.75 1134
195.312 -85.9375 923
101.562 250 1067
-179.688 257.812 989
39.0625 312.5 1550
156.25 234.375 1077
117.188 -203.125 915
-187.5 250 981
468.75 -234.375 925
-421.875 304.688 1936
39.0625 335.938 1210
335.938 -62.5 970
-343.75 398.438 1739
-93.75 343.75 1523
164.062 -46.875 933
78.125 328.125 1483
70.3125 179.688 1010
226.562 242.188 1302
273.438 281.25 1214
-351.562 -304.688 2859
23.4375 289.062 1572
257.812 7.8125 935
109.375 -304.688 1359
-101.562 101.562 891
-31.25 328.125 1236
296.875 39.0625 948
171.875 -187.5 923
140.625 289.062 1259
187.5 273.438 1278
-148.438 304.688 1028
23.4375 335.938 1219
289.062 93.75 1028
218.75 -62.5 930
460.938 -234.375 928
281.25 -343.75 1044
226.562 -140.625 938
-210.938 414.062 1696
7.8125 265.625 1050
78.125 257.812 1063
289.062 117.188 1044
-101.562 437.5 1145
-203.125 203.125 951
273.438 187.5 1094
-109.375 296.875 1034
468.75 -242.188 935
125 -203.125 915
140.625 257.812 1288
179.688 -93.75 918
179.688 -156.25 998
46.875 265.625 1057
-117.188 437.5 1141
-62.5 -117.188 1080
-359.375 164.062 864
179.688 226.562 1077
-164.062 117.188 887
132.812 257.812 1288
62.5 328.125 1214
203.125 -218.75 962
453.125 -15.625 964
273.438 296.875 1219
-39.0625 -132.812 1041
148.438 -54.6875 928
62.5 -132.812 981
93.75 328.125 1489
265.625 390.625 1317
367.188 203.125 1579
-500 -70.3125 2256
234.375 -101.562 938
0 304.688 1543
273.438 -429.688 998
-15.625 -93.75 1031
187.5 -101.562 918
148.438 -195.312 930
85.9375 250 1063
171.875 -140.625 925
296.875 289.062 1210
-15.625 -132.812 1038
195.312 265.625 1283
15.625 289.062 1586
0 320.312 1236
39.0625 257.812 1054
-23.4375 351.562 1214
-70.3125 367.188 1489
257.812 273.438 1255
195.312 289.062 1283
-15.625 179.688 989
31.25 335.938 1210
-195.312 398.438 1090
148.438 257.812 1292
-62.5 -140.625 1077
-109.375 382.812 1427
453.125 -93.75 987
-39.0625 335.938 1236
-23.4375 179.688 989
70.3125 335.938 1219
-7.8125 273.438 1050
-218.75 421.875 1688
265.625 382.812 1312
203.125 -85.9375 923
-156.25 312.5 1031
-109.375 273.438 1022
-7.8125 351.562 1202
304.688 117.188 1050
-23.4375 273.438 1047
179.688 -117.188 918
343.75 140.625 1739
117.188 -78.125 935
15.625 273.438 1054
7.8125 273.438 1054
195.312 -187.5 930
187.5 -195.312 930
-273.438 390.625 1739
78.125 -195.312 910
