ply
format ascii 1.0
comment Created by Open3D
element vertex 2394
property double x
property double y
property double z
end_header
31.25 -226.562 767
101.562 -218.75 792
273.438 390.625 589
-476.562 265.625 1823
-367.188 289.062 1543
343.75 289.062 629
421.875 226.562 821
304.688 390.625 746
109.375 -117.188 701
39.0625 -335.938 807
46.875 -382.812 803
437.5 203.125 833
-328.125 281.25 833
-382.812 78.125 766
-93.75 -156.25 749
-101.562 -210.938 948
250 453.125 717
179.688 -93.75 835
-367.188 -156.25 903
70.3125 -312.5 827
-304.688 -125 901
46.875 140.625 658
117.188 101.562 652
-343.75 -171.875 1010
-414.062 195.312 882
-335.938 320.312 1509
-445.312 -15.625 833
-39.0625 -93.75 785
382.812 296.875 787
-101.562 -421.875 827
148.438 195.312 671
-445.312 -46.875 908
351.562 343.75 766
132.812 -117.188 704
484.375 46.875 731
-273.438 -171.875 741
-15.625 273.438 649
-101.562 -343.75 821
-375 -85.9375 875
234.375 453.125 717
-453.125 -156.25 910
-460.938 39.0625 802
-109.375 -312.5 839
414.062 210.938 831
-343.75 -93.75 878
39.0625 218.75 652
101.562 -281.25 862
-179.688 -132.812 714
-226.562 -250 714
-117.188 -351.562 833
179.688 -140.625 716
78.125 -140.625 771
109.375 132.812 641
320.312 390.625 744
85.9375 -343.75 827
0 -203.125 778
429.688 218.75 827
-453.125 -31.25 835
-328.125 312.5 1523
328.125 312.5 618
-453.125 -312.5 1359
78.125 -367.188 819
132.812 132.812 642
101.562 -250 785
70.3125 -265.625 769
-351.562 -117.188 975
-125 289.062 646
187.5 203.125 671
101.562 -257.812 785
85.9375 -406.25 827
-31.25 218.75 646
335.938 296.875 625
-476.562 -296.875 1343
156.25 140.625 671
-414.062 -343.75 1398
359.375 296.875 789
148.438 -367.188 2933
-312.5 -117.188 894
-445.312 -250 1067
-421.875 -218.75 1087
23.4375 203.125 657
78.125 -328.125 821
-375 -406.25 3208
39.0625 -304.688 761
-23.4375 -359.375 798
-265.625 -117.188 781
-109.375 -148.438 747
-39.0625 -406.25 796
101.562 -210.938 796
7.8125 -437.5 803
-304.688 -257.812 730
-242.188 203.125 691
-289.062 -257.812 728
132.812 -445.312 2933
78.125 -382.812 817
-39.0625 -62.5 829
78.125 -148.438 776
-390.625 -406.25 3149
-367.188 -382.812 1445
171.875 132.812 706
85.9375 234.375 662
31.25 -234.375 766
148.438 -359.375 2933
-375 -70.3125 862
-62.5 -453.125 803
148.438 250 652
101.562 -265.625 981
296.875 421.875 731
-85.9375 -125 875
-93.75 312.5 634
125 -289.062 1001
-93.75 -171.875 913
414.062 242.188 813
15.625 265.625 624
31.25 242.188 646
460.938 164.062 856
15.625 281.25 644
-296.875 -468.75 3539
31.25 -195.312 766
-78.125 -343.75 811
-445.312 -320.312 1370
-46.875 -234.375 871
39.0625 -78.125 703
367.188 320.312 776
101.562 -109.375 701
46.875 164.062 652
-265.625 -132.812 771
-320.312 -117.188 894
109.375 -203.125 798
-406.25 -46.875 849
101.562 -195.312 805
-367.188 -125 964
367.188 164.062 679
-140.625 -195.312 700
101.562 -164.062 780
-500 -62.5 887
-281.25 328.125 811
70.3125 -93.75 707
-281.25 -140.625 774
15.625 -195.312 790
375 289.062 792
15.625 -312.5 759
85.9375 -289.062 757
-265.625 -109.375 790
-7.8125 265.625 623
-460.938 -85.9375 885
-70.3125 -445.312 815
-335.938 -101.562 885
265.625 414.062 734
-156.25 -156.25 703
23.4375 -210.938 776
-203.125 226.562 679
-179.688 -234.375 696
453.125 179.688 847
-296.875 -242.188 720
-437.5 -281.25 1063
281.25 351.562 599
70.3125 226.562 654
-117.188 -171.875 730
-398.438 -85.9375 933
343.75 335.938 771
-148.438 -78.125 746
-101.562 -390.625 821
179.688 132.812 704
320.312 367.188 755
70.3125 210.938 648
7.8125 -46.875 811
164.062 148.438 670
-62.5 -242.188 869
101.562 0 778
226.562 453.125 564
-398.438 -39.0625 843
-54.6875 -62.5 827
-453.125 -93.75 891
54.6875 140.625 663
125 203.125 642
406.25 257.812 805
7.8125 257.812 625
-101.562 -226.562 962
-70.3125 -39.0625 815
-359.375 -140.625 967
343.75 351.562 762
101.562 -226.562 787
132.812 -296.875 1007
-289.062 -250 722
62.5 -335.938 815
445.312 -242.188 2541
-312.5 -210.938 734
-375 93.75 762
-109.375 -367.188 825
304.688 414.062 733
-125 -7.8125 796
-296.875 -226.562 717
23.4375 -203.125 790
437.5 -265.625 2579
-101.562 -218.75 954
-273.438 171.875 708
437.5 195.312 837
-414.062 -39.0625 845
-429.688 -210.938 1084
23.4375 195.312 654
7.8125 -156.25 717
-242.188 -210.938 698
-390.625 70.3125 771
335.938 312.5 618
132.812 203.125 642
-234.375 -101.562 773
-468.75 226.562 1632
85.9375 195.312 650
140.625 195.312 676
78.125 -257.812 769
23.4375 210.938 652
109.375 -109.375 701
46.875 250 655
-367.188 93.75 757
-359.375 250 851
78.125 -171.875 813
117.188 218.75 637
-85.9375 -351.562 811
85.9375 -296.875 757
179.688 125 707
-382.812 -132.812 891
-453.125 -7.8125 823
-117.188 -382.812 833
15.625 -335.938 803
-359.375 -445.312 3238
-492.188 343.75 1722
7.8125 -281.25 762
-398.438 -117.188 889
-101.562 -382.812 819
39.0625 -382.812 800
-429.688 -328.125 1381
281.25 421.875 731
-7.8125 -429.688 800
-109.375 -320.312 837
-289.062 -195.312 733
62.5 179.688 648
210.938 117.188 710
-31.25 226.562 643
78.125 -195.312 803
-39.0625 -414.062 796
296.875 398.438 742
335.938 367.188 755
109.375 -242.188 783
-382.812 -140.625 889
-101.562 -406.25 823
-265.625 -164.062 742
-414.062 54.6875 785
-109.375 -179.688 728
203.125 125 706
0 -187.5 780
-312.5 -117.188 894
62.5 132.812 678
-125 -164.062 727
-250 -195.312 707
-375 85.9375 766
-257.812 -414.062 3300
-195.312 -117.188 738
-492.188 125 930
-500 -46.875 910
-132.812 -164.062 722
-304.688 -257.812 730
-195.312 -140.625 717
23.4375 -234.375 767
-312.5 -218.75 731
257.812 445.312 720
-476.562 195.312 1586
-54.6875 -421.875 802
164.062 -125 714
-460.938 -257.812 1047
-164.062 257.812 659
-421.875 -85.9375 894
-281.25 -140.625 774
-171.875 250 664
-257.812 -93.75 802
445.312 195.312 837
46.875 -328.125 811
-78.125 -85.9375 845
-78.125 -398.438 805
195.312 226.562 658
-312.5 -203.125 739
7.8125 -132.812 713
-250 -62.5 825
257.812 453.125 717
23.4375 -70.3125 716
-62.5 -453.125 803
-500 -281.25 1317
-492.188 -101.562 898
-382.812 -359.375 1415
-78.125 -453.125 829
304.688 359.375 762
359.375 304.688 785
-304.688 148.438 722
23.4375 -195.312 796
187.5 -148.438 717
171.875 179.688 662
-132.812 -109.375 744
-273.438 -140.625 767
-367.188 -367.188 1427
109.375 -125 700
-140.625 -195.312 700
148.438 -117.188 708
109.375 0 778
-156.25 -46.875 767
-437.5 234.375 1616
453.125 179.688 847
-484.375 -421.875 3178
125 234.375 635
-281.25 265.625 833
140.625 -117.188 704
-93.75 -171.875 913
-476.562 210.938 1624
85.9375 148.438 661
-101.562 -226.562 962
-437.5 171.875 898
101.562 -140.625 767
-289.062 -140.625 780
93.75 -109.375 701
-484.375 -414.062 3178
-117.188 -117.188 754
78.125 250 655
62.5 -117.188 700
-406.25 -437.5 3064
-195.312 -164.062 700
117.188 -125 703
-406.25 -296.875 1070
54.6875 250 655
-226.562 -171.875 711
-296.875 -226.562 717
85.9375 -109.375 701
-101.562 -203.125 940
-445.312 -171.875 1054
-375 -70.3125 862
-406.25 -125 889
-93.75 -179.688 920
421.875 234.375 815
382.812 296.875 787
-468.75 -304.688 1354
-437.5 -289.062 1070
109.375 -140.625 767
78.125 -179.688 811
39.0625 -7.8125 789
-304.688 351.562 1483
31.25 132.812 683
-312.5 140.625 727
-453.125 -273.438 1060
140.625 -7.8125 781
-437.5 31.25 798
351.562 343.75 766
39.0625 -359.375 803
312.5 351.562 619
125 -281.25 992
-296.875 -148.438 778
-343.75 312.5 1516
46.875 -273.438 761
109.375 -210.938 792
-101.562 304.688 637
-414.062 -398.438 3149
-468.75 -242.188 1031
-125 -39.0625 781
281.25 390.625 746
-375 -148.438 898
-382.812 -62.5 858
-132.812 -148.438 727
109.375 -304.688 856
15.625 -187.5 798
453.125 -242.188 2522
312.5 398.438 742
140.625 203.125 674
-328.125 -187.5 1019
-484.375 304.688 1776
406.25 242.188 815
101.562 437.5 573
-273.438 -398.438 1439
343.75 304.688 785
-429.688 46.875 789
-304.688 250 843
-195.312 -109.375 742
-132.812 -203.125 703
-125 -179.688 720
-109.375 -382.812 825
359.375 335.938 769
320.312 390.625 744
273.438 -257.812 962
-343.75 265.625 843
171.875 171.875 667
289.062 -390.625 2659
-242.188 -242.188 710
-179.688 -359.375 1343
101.562 218.75 644
437.5 203.125 833
171.875 -132.812 716
-117.188 -132.812 744
109.375 -195.312 802
-328.125 -164.062 1050
289.062 437.5 723
-93.75 -421.875 823
-179.688 -46.875 783
101.562 -468.75 2933
312.5 406.25 736
-257.812 -195.312 711
468.75 101.562 697
101.562 -242.188 783
-312.5 -117.188 894
0 -195.312 780
-343.75 -382.812 1445
-320.312 -171.875 1057
398.438 273.438 798
-125 -335.938 841
31.25 226.562 648
-70.3125 -46.875 821
257.812 414.062 579
-93.75 -187.5 928
476.562 109.375 701
398.438 265.625 802
-281.25 -140.625 774
343.75 359.375 759
-210.938 226.562 679
164.062 -210.938 755
179.688 156.25 674
23.4375 -218.75 774
70.3125 -85.9375 730
195.312 109.375 716
0 203.125 659
484.375 125 875
-445.312 164.062 903
-476.562 250 1843
-109.375 -351.562 827
-109.375 304.688 638
-500 -429.688 3010
-492.188 117.188 930
85.9375 250 654
46.875 -257.812 762
-218.75 -375 1392
-23.4375 210.938 647
-468.75 140.625 918
-109.375 -398.438 827
70.3125 -242.188 781
164.062 -39.0625 798
281.25 445.312 722
-453.125 -257.812 1057
93.75 -125 700
-484.375 312.5 1757
46.875 265.625 650
195.312 -164.062 725
-70.3125 -39.0625 815
-445.312 -109.375 889
85.9375 -328.125 829
-343.75 -93.75 878
-328.125 -179.688 1022
-484.375 -218.75 1007
101.562 -234.375 783
-281.25 -257.812 727
-101.562 0 794
-242.188 -234.375 704
-414.062 -125 889
-140.625 -195.312 700
359.375 312.5 781
148.438 234.375 658
-85.9375 -132.812 878
195.312 -179.688 896
-187.5 -46.875 790
46.875 -281.25 761
62.5 -265.625 771
-7.8125 -351.562 798
-382.812 -437.5 3178
-187.5 -218.75 687
-367.188 -78.125 869
-468.75 23.4375 811
-164.062 -39.0625 780
132.812 218.75 637
-101.562 -304.688 835
7.8125 -171.875 798
-289.062 -203.125 725
93.75 -304.688 843
-15.625 -281.25 827
335.938 304.688 618
-132.812 -132.812 734
-343.75 -203.125 967
-281.25 -398.438 1439
-390.625 -132.812 889
-492.188 -203.125 989
-421.875 -421.875 3092
-101.562 -429.688 839
-343.75 -218.75 981
31.25 234.375 646
132.812 -117.188 704
367.188 320.312 776
-398.438 242.188 1586
-101.562 -148.438 749
-218.75 -250 710
125 156.25 643
-257.812 -179.688 725
195.312 218.75 662
265.625 406.25 582
445.312 195.312 837
-468.75 234.375 1863
-109.375 -429.688 843
46.875 -210.938 769
-125 -15.625 792
101.562 125 642
289.062 382.812 750
31.25 257.812 652
390.625 265.625 802
-421.875 257.812 1586
-453.125 -7.8125 823
375 312.5 780
85.9375 -398.438 825
46.875 -226.562 764
-234.375 -125 754
101.562 -109.375 701
-476.562 132.812 923
-429.688 -437.5 3010
109.375 -148.438 771
-343.75 -125 1050
-421.875 70.3125 778
-406.25 -343.75 1398
164.062 164.062 670
78.125 -335.938 821
-23.4375 234.375 649
-23.4375 -367.188 798
-109.375 296.875 640
62.5 250 655
-250 -187.5 716
-218.75 -187.5 697
-15.625 -312.5 811
-203.125 351.562 785
-460.938 0 821
-359.375 -414.062 3300
54.6875 -382.812 805
117.188 140.625 641
-421.875 46.875 789
-156.25 -85.9375 741
-187.5 406.25 767
78.125 -296.875 757
234.375 445.312 566
0 -351.562 798
0 -367.188 798
-320.312 148.438 728
-351.562 -85.9375 875
117.188 -109.375 704
-109.375 -375 825
-453.125 -312.5 1359
-39.0625 -242.188 871
23.4375 234.375 646
54.6875 -281.25 762
15.625 -140.625 711
31.25 -218.75 769
328.125 382.812 749
-7.8125 -375 796
54.6875 437.5 585
39.0625 -312.5 759
125 226.562 636
-453.125 -85.9375 885
-343.75 296.875 1543
140.625 -304.688 1016
-195.312 -218.75 687
46.875 -218.75 767
54.6875 -203.125 767
-335.938 -101.562 885
-445.312 226.562 1632
-476.562 273.438 1813
140.625 265.625 644
148.438 -117.188 708
281.25 382.812 593
-375 -375 1421
78.125 -359.375 819
-296.875 -187.5 747
15.625 -210.938 783
-85.9375 328.125 630
-476.562 -62.5 885
-375 -367.188 1421
-93.75 -289.062 841
-265.625 -117.188 781
476.562 140.625 869
179.688 -429.688 2835
46.875 187.5 648
-320.312 -109.375 889
-476.562 -296.875 1343
117.188 -335.938 854
414.062 250 809
-476.562 -226.562 1019
31.25 -273.438 761
-93.75 -414.062 819
-351.562 -195.312 951
-109.375 7.8125 789
-62.5 -218.75 948
406.25 257.812 805
-195.312 -78.125 766
289.062 -250 954
-250 -179.688 722
39.0625 -445.312 815
-101.562 -406.25 823
-234.375 218.75 687
187.5 -109.375 845
-101.562 -171.875 731
-109.375 -140.625 738
39.0625 -343.75 800
242.188 437.5 568
-437.5 -265.625 1063
93.75 -296.875 752
-93.75 -187.5 720
109.375 -296.875 845
-500 375 1688
-93.75 -7.8125 798
-320.312 132.812 731
-7.8125 -328.125 803
109.375 -281.25 871
468.75 156.25 858
-312.5 296.875 829
265.625 398.438 583
-218.75 -39.0625 827
-484.375 242.188 1863
117.188 -125 698
-476.562 -218.75 1007
109.375 -265.625 978
-93.75 -179.688 725
-296.875 -289.062 1041
437.5 210.938 831
-414.062 -414.062 3120
-382.812 -62.5 860
390.625 234.375 647
-484.375 273.438 1823
-15.625 -117.188 731
-476.562 -78.125 885
-273.438 -148.438 767
421.875 -70.3125 809
-234.375 101.562 746
304.688 351.562 600
-93.75 -351.562 819
273.438 460.938 714
-382.812 85.9375 766
148.438 257.812 647
-445.312 -273.438 1060
-421.875 -210.938 1084
0 -242.188 862
-312.5 -132.812 906
359.375 335.938 769
-195.312 -164.062 703
-281.25 -179.688 746
-85.9375 -140.625 749
-281.25 -164.062 761
328.125 359.375 759
-445.312 367.188 1688
54.6875 -218.75 767
78.125 234.375 663
-179.688 -226.562 691
-476.562 179.688 1564
304.688 414.062 733
-500 -195.312 970
-93.75 -195.312 716
-101.562 -398.438 833
117.188 0 780
156.25 148.438 643
-46.875 -398.438 796
-31.25 -93.75 790
-382.812 -398.438 3208
-296.875 -273.438 1038
367.188 304.688 783
15.625 156.25 703
-250 -31.25 827
265.625 445.312 722
-54.6875 -343.75 802
-359.375 101.562 754
117.188 -148.438 771
-242.188 -242.188 713
-335.938 125 741
-250 -70.3125 819
289.062 437.5 725
70.3125 195.312 646
-343.75 -460.938 3208
273.438 406.25 585
23.4375 -218.75 776
-359.375 -132.812 962
101.562 -421.875 833
296.875 375 593
445.312 187.5 843
140.625 -117.188 700
7.8125 242.188 628
218.75 453.125 562
109.375 -187.5 807
-62.5 -453.125 827
-234.375 -210.938 698
-85.9375 -304.688 831
-101.562 -367.188 827
70.3125 250 655
54.6875 257.812 652
-250 -218.75 704
-453.125 -265.625 1050
39.0625 -218.75 771
-414.062 -210.938 1087
-281.25 250 843
117.188 109.375 648
398.438 257.812 805
312.5 382.812 747
54.6875 -226.562 762
-109.375 -367.188 833
289.062 414.062 736
78.125 -281.25 759
109.375 132.812 642
429.688 132.812 690
117.188 -101.562 700
46.875 -304.688 755
-320.312 335.938 1503
-390.625 -78.125 862
351.562 164.062 680
468.75 85.9375 713
109.375 -156.25 778
-289.062 164.062 716
-460.938 -62.5 885
421.875 234.375 817
390.625 273.438 800
335.938 -226.562 935
-257.812 289.062 819
234.375 460.938 563
-257.812 -390.625 1439
179.688 132.812 706
117.188 148.438 641
406.25 0 766
54.6875 171.875 649
39.0625 148.438 662
-265.625 -125 783
-398.438 -421.875 3092
70.3125 -179.688 767
15.625 -171.875 785
15.625 265.625 622
-414.062 304.688 1776
398.438 210.938 655
15.625 -148.438 720
148.438 -164.062 796
-15.625 -328.125 803
-125 -171.875 707
-148.438 -179.688 684
-195.312 -171.875 698
-460.938 -242.188 1031
281.25 359.375 597
-460.938 -257.812 1041
-7.8125 -351.562 798
-296.875 -234.375 720
70.3125 -234.375 767
125 -289.062 860
-460.938 148.438 915
273.438 -398.438 2744
109.375 -257.812 785
117.188 218.75 642
117.188 179.688 654
-164.062 -85.9375 747
78.125 -250 774
148.438 148.438 641
203.125 -125 856
-468.75 -242.188 1022
-257.812 312.5 807
93.75 445.312 573
-484.375 171.875 1536
343.75 171.875 676
-359.375 -148.438 901
31.25 -140.625 708
93.75 -257.812 767
-367.188 273.438 1557
109.375 -179.688 813
-101.562 -304.688 847
-148.438 437.5 747
-406.25 164.062 896
367.188 250 640
-328.125 328.125 1509
101.562 187.5 650
125 210.938 641
109.375 -250 785
390.625 289.062 790
109.375 -117.188 698
78.125 -203.125 796
-78.125 -304.688 827
179.688 117.188 710
414.062 -382.812 2467
93.75 -109.375 698
-414.062 343.75 1722
-453.125 15.625 815
460.938 171.875 851
31.25 -210.938 781
312.5 406.25 736
-234.375 -46.875 833
-171.875 343.75 787
492.188 39.0625 736
-328.125 -140.625 998
109.375 -234.375 783
125 -281.25 995
-328.125 -468.75 3399
414.062 203.125 662
117.188 -273.438 987
-7.8125 -343.75 800
429.688 148.438 683
-85.9375 -15.625 802
-312.5 -195.312 746
-312.5 -195.312 746
-335.938 273.438 839
343.75 359.375 759
195.312 117.188 711
23.4375 -367.188 796
62.5 -382.812 802
-78.125 -23.4375 805
23.4375 296.875 636
-265.625 351.562 1302
-453.125 23.4375 809
468.75 78.125 717
-312.5 140.625 728
210.938 210.938 666
-265.625 179.688 706
382.812 281.25 794
187.5 171.875 671
148.438 156.25 642
109.375 -414.062 831
-367.188 -93.75 873
-445.312 39.0625 805
187.5 164.062 672
218.75 203.125 668
484.375 54.6875 730
-390.625 -351.562 1404
320.312 343.75 610
351.562 328.125 774
85.9375 -125 698
171.875 453.125 564
-304.688 -406.25 1477
-257.812 -101.562 800
-390.625 -54.6875 854
-78.125 -101.562 774
85.9375 156.25 655
-398.438 -54.6875 854
-296.875 -125 903
-46.875 343.75 619
-93.75 -148.438 744
375 312.5 778
54.6875 242.188 661
-398.438 -125 885
85.9375 -117.188 698
-500 0 908
62.5 -312.5 817
476.562 70.3125 720
-179.688 -218.75 687
109.375 -226.562 785
109.375 -273.438 871
187.5 226.562 659
312.5 343.75 604
39.0625 -226.562 767
195.312 -156.25 720
-289.062 -429.688 3365
-320.312 -109.375 889
85.9375 0 781
320.312 375 752
140.625 -171.875 802
-93.75 -195.312 716
-328.125 -250 1010
-70.3125 -54.6875 825
-359.375 296.875 1536
109.375 -171.875 817
273.438 390.625 587
-203.125 -171.875 703
-195.312 -367.188 1370
406.25 250 809
-101.562 -7.8125 798
-78.125 -312.5 821
39.0625 281.25 643
367.188 257.812 637
39.0625 -125 706
-429.688 -445.312 3037
406.25 265.625 805
-359.375 281.25 1550
164.062 195.312 662
-101.562 -390.625 831
460.938 101.562 707
-335.938 -445.312 3333
-382.812 78.125 766
93.75 -390.625 815
-70.3125 -289.062 833
-421.875 187.5 891
-414.062 289.062 1794
-109.375 -367.188 833
93.75 343.75 613
398.438 234.375 658
296.875 429.688 727
-210.938 -85.9375 778
46.875 148.438 683
46.875 171.875 649
-70.3125 -31.25 809
31.25 406.25 593
-23.4375 -375 796
429.688 226.562 821
-265.625 -265.625 733
109.375 -242.188 783
85.9375 -140.625 774
-460.938 -250 1034
93.75 -289.062 752
0 250 627
39.0625 179.688 652
-335.938 -117.188 885
-101.562 -398.438 833
375 -210.938 918
492.188 46.875 734
7.8125 -164.062 725
31.25 398.438 593
375 296.875 789
335.938 375 750
-39.0625 -359.375 798
-15.625 -453.125 787
179.688 226.562 659
-312.5 343.75 1489
210.938 125 707
-85.9375 -398.438 817
-421.875 265.625 1766
-328.125 -117.188 896
-382.812 265.625 1564
62.5 164.062 652
281.25 453.125 719
-281.25 -140.625 780
-398.438 -78.125 928
-476.562 265.625 1823
-93.75 -335.938 825
85.9375 -257.812 767
187.5 -140.625 717
-406.25 -70.3125 891
-335.938 -140.625 998
164.062 -23.4375 789
-367.188 -367.188 1427
-234.375 -234.375 704
101.562 132.812 646
125 -109.375 698
304.688 367.188 593
117.188 140.625 641
-85.9375 -359.375 813
296.875 406.25 738
46.875 -335.938 803
7.8125 -437.5 798
85.9375 -132.812 698
39.0625 273.438 647
117.188 -328.125 835
125 148.438 638
-304.688 -250 727
109.375 -265.625 978
15.625 -234.375 778
210.938 -140.625 869
15.625 -437.5 798
-289.062 -210.938 725
-328.125 -460.938 3365
-7.8125 203.125 647
-281.25 -179.688 746
-132.812 -203.125 688
-70.3125 -46.875 821
328.125 312.5 615
109.375 -203.125 798
-289.062 -132.812 781
156.25 -117.188 704
7.8125 218.75 654
-273.438 -226.562 713
-70.3125 -437.5 823
31.25 -343.75 798
351.562 351.562 762
-101.562 -164.062 736
46.875 -125 701
46.875 210.938 648
210.938 -171.875 891
23.4375 -187.5 787
-500 390.625 1663
156.25 234.375 658
320.312 398.438 742
-367.188 -78.125 869
-273.438 -148.438 767
421.875 -101.562 831
78.125 -187.5 805
-117.188 -179.688 710
46.875 -382.812 798
117.188 -148.438 771
-468.75 15.625 817
156.25 218.75 666
-218.75 -234.375 703
171.875 -46.875 803
351.562 320.312 776
85.9375 203.125 647
109.375 -195.312 802
23.4375 -195.312 783
406.25 203.125 662
125 -367.188 841
101.562 -109.375 698
-390.625 -109.375 908
70.3125 156.25 655
-281.25 164.062 714
-500 -398.438 3010
-125 -148.438 720
109.375 -218.75 790
132.812 -289.062 1004
-125 -171.875 707
140.625 164.062 642
-359.375 -187.5 933
-390.625 -70.3125 862
-445.312 -101.562 896
-289.062 312.5 815
-117.188 -125 739
-484.375 -460.938 3092
117.188 -109.375 698
-70.3125 -406.25 811
-125 -132.812 725
-484.375 39.0625 923
-93.75 -195.312 716
7.8125 265.625 623
390.625 226.562 653
-437.5 -195.312 1070
39.0625 140.625 682
164.062 -148.438 710
-210.938 -250 713
164.062 -31.25 794
-250 195.312 698
109.375 -257.812 785
46.875 -445.312 813
109.375 -132.812 700
-460.938 0 823
-203.125 -78.125 778
85.9375 -335.938 817
-328.125 -101.562 885
148.438 -78.125 742
109.375 -234.375 783
109.375 179.688 653
-54.6875 -390.625 800
-117.188 -101.562 741
-101.562 -390.625 831
-85.9375 -156.25 742
140.625 109.375 647
156.25 -78.125 747
265.625 460.938 714
453.125 187.5 841
-359.375 -78.125 869
-406.25 132.812 915
31.25 187.5 655
296.875 367.188 593
15.625 242.188 627
117.188 -125 698
109.375 -164.062 815
171.875 -125 710
-109.375 -85.9375 759
31.25 -164.062 803
78.125 -85.9375 704
-85.9375 312.5 632
-93.75 -203.125 716
109.375 -250 785
23.4375 390.625 597
-296.875 -125 903
343.75 343.75 767
-296.875 -289.062 1041
460.938 171.875 851
179.688 -203.125 749
31.25 289.062 640
-187.5 -109.375 741
-62.5 -398.438 803
-250 375 1354
-257.812 343.75 800
-15.625 -46.875 817
46.875 257.812 653
-468.75 -93.75 894
46.875 -54.6875 759
-476.562 -226.562 1013
-351.562 -109.375 887
-54.6875 335.938 623
117.188 7.8125 774
-296.875 -234.375 720
171.875 164.062 668
-109.375 -132.812 741
-500 -281.25 1322
46.875 -312.5 757
-101.562 -132.812 749
-195.312 250 672
117.188 203.125 647
132.812 140.625 638
-492.188 -93.75 894
-125 -335.938 856
-289.062 -140.625 781
-390.625 -218.75 1084
-195.312 257.812 696
-304.688 -125 901
-375 85.9375 764
78.125 -218.75 789
203.125 109.375 716
-85.9375 -148.438 744
-109.375 -335.938 837
304.688 -242.188 951
-7.8125 375 607
-375 -140.625 896
-31.25 -234.375 875
-304.688 148.438 722
54.6875 -335.938 805
171.875 -62.5 762
-273.438 -156.25 762
-460.938 -117.188 887
125 148.438 638
-382.812 257.812 1579
0 -54.6875 821
-203.125 -179.688 694
-289.062 -210.938 725
70.3125 164.062 652
-484.375 -210.938 995
125 226.562 635
0 -210.938 774
54.6875 -242.188 761
-289.062 -242.188 720
-195.312 234.375 675
382.812 304.688 783
-101.562 -187.5 720
62.5 -406.25 803
-390.625 -93.75 940
-492.188 257.812 1833
-250 -187.5 719
-398.438 62.5 776
476.562 62.5 723
117.188 -343.75 833
203.125 125 707
-390.625 -101.562 940
335.938 367.188 755
-429.688 -23.4375 835
109.375 -187.5 807
117.188 -140.625 766
437.5 203.125 835
484.375 62.5 727
-273.438 335.938 802
101.562 -304.688 835
-234.375 -242.188 711
414.062 187.5 670
-93.75 -164.062 742
-140.625 281.25 653
484.375 367.188 744
54.6875 250 655
-320.312 132.812 731
39.0625 -289.062 755
171.875 132.812 646
148.438 187.5 666
-62.5 -445.312 825
-109.375 -367.188 833
-164.062 265.625 661
171.875 -203.125 755
367.188 328.125 771
-445.312 -437.5 3064
-429.688 -234.375 1073
54.6875 -226.562 762
265.625 421.875 576
-445.312 46.875 807
-421.875 -429.688 3092
187.5 179.688 662
62.5 140.625 672
476.562 148.438 862
7.8125 -359.375 796
-109.375 -343.75 835
46.875 -234.375 761
132.812 -109.375 700
54.6875 -414.062 805
-39.0625 250 661
265.625 414.062 579
-78.125 -320.312 819
-351.562 -62.5 858
70.3125 179.688 647
289.062 -78.125 821
-460.938 7.8125 821
-289.062 -406.25 1470
-62.5 -257.812 862
-382.812 -453.125 3149
250 429.688 567
-125 -31.25 773
195.312 -117.188 717
117.188 -265.625 978
421.875 242.188 813
-445.312 -281.25 1060
-453.125 375 1680
-406.25 -250 1073
156.25 242.188 654
-367.188 117.188 781
-367.188 -148.438 901
156.25 -156.25 790
468.75 70.3125 720
101.562 -117.188 698
335.938 375 750
-382.812 93.75 766
78.125 -250 774
179.688 -132.812 711
273.438 437.5 725
78.125 -320.312 819
-132.812 289.062 649
-437.5 -117.188 887
117.188 195.312 650
-132.812 -78.125 744
406.25 265.625 805
-500 148.438 1496
-70.3125 -62.5 831
-250 187.5 703
429.688 179.688 767
-62.5 -250 871
375 -351.562 2618
-109.375 -359.375 835
187.5 156.25 672
-289.062 -156.25 767
-78.125 -429.688 823
-187.5 -164.062 698
78.125 210.938 646
-78.125 -406.25 815
125 234.375 634
-328.125 -101.562 885
382.812 234.375 647
-117.188 -148.438 728
414.062 210.938 754
-492.188 359.375 1705
-85.9375 -406.25 817
15.625 257.812 622
-500 398.438 1655
257.812 460.938 714
-31.25 -406.25 798
398.438 281.25 794
-70.3125 -437.5 823
-312.5 -117.188 896
-101.562 -312.5 841
109.375 -210.938 794
-70.3125 -31.25 809
-257.812 359.375 1312
445.312 203.125 831
54.6875 -234.375 761
429.688 164.062 678
-398.438 -132.812 887
195.312 -148.438 720
335.938 351.562 764
-7.8125 273.438 648
15.625 -148.438 720
109.375 -281.25 871
-164.062 257.812 661
-453.125 156.25 908
171.875 148.438 668
31.25 218.75 649
-242.188 -195.312 707
-93.75 -210.938 948
-85.9375 -390.625 817
-445.312 203.125 1624
-296.875 -132.812 903
-343.75 -117.188 887
-500 -109.375 894
125 218.75 638
304.688 398.438 742
437.5 210.938 831
7.8125 -375 796
-476.562 218.75 1894
-359.375 -171.875 918
-382.812 226.562 849
101.562 -132.812 698
492.188 70.3125 725
-54.6875 343.75 622
-273.438 -257.812 727
31.25 -203.125 785
-351.562 -101.562 880
-320.312 -109.375 889
382.812 289.062 790
-109.375 -351.562 835
-296.875 -125 903
390.625 296.875 787
109.375 -117.188 698
-140.625 -187.5 687
85.9375 -109.375 698
-23.4375 -359.375 796
109.375 -140.625 766
62.5 242.188 659
343.75 312.5 618
140.625 -117.188 700
54.6875 -257.812 761
-421.875 -421.875 3092
-320.312 289.062 839
-78.125 -109.375 769
46.875 -320.312 757
156.25 -109.375 706
31.25 195.312 655
-367.188 93.75 759
-406.25 -125 885
-406.25 -62.5 901
-289.062 -218.75 720
281.25 429.688 728
85.9375 148.438 661
-328.125 281.25 835
62.5 250 655
85.9375 -148.438 776
-7.8125 -54.6875 821
0 -125 723
-375 234.375 858
-460.938 93.75 946
-117.188 -179.688 710
-367.188 -132.812 896
85.9375 164.062 653
125 101.562 650
15.625 210.938 657
39.0625 187.5 652
-250 -78.125 813
351.562 351.562 762
-93.75 -187.5 720
312.5 359.375 597
31.25 -171.875 800
-101.562 -390.625 831
414.062 250 809
-93.75 -398.438 821
-39.0625 -234.375 869
7.8125 -156.25 725
85.9375 -132.812 698
-429.688 125 923
382.812 -312.5 2659
7.8125 250 624
-265.625 -125 783
-179.688 -218.75 687
382.812 242.188 646
265.625 406.25 579
-109.375 -171.875 725
421.875 179.688 672
-93.75 -203.125 716
-125 -70.3125 752
7.8125 -171.875 738
70.3125 -265.625 762
-453.125 -85.9375 887
-445.312 31.25 805
85.9375 -140.625 774
93.75 156.25 657
-296.875 -265.625 728
445.312 -125 845
-414.062 -85.9375 891
257.812 421.875 576
-328.125 -125 896
406.25 203.125 662
296.875 429.688 727
-234.375 -132.812 750
156.25 -117.188 704
-85.9375 -164.062 742
109.375 -242.188 783
109.375 187.5 653
-101.562 -375 827
117.188 210.938 643
273.438 421.875 731
125 148.438 638
-359.375 -101.562 998
421.875 195.312 667
78.125 -171.875 769
23.4375 -164.062 798
-421.875 -210.938 1084
-226.562 -156.25 727
109.375 -179.688 813
343.75 367.188 755
-62.5 -343.75 805
-500 -406.25 2984
-367.188 -101.562 992
-39.0625 -78.125 839
320.312 335.938 609
-15.625 281.25 646
-7.8125 234.375 636
109.375 -171.875 817
-93.75 -320.312 831
-257.812 -109.375 792
-273.438 -156.25 762
-390.625 218.75 869
414.062 257.812 805
148.438 -312.5 1025
23.4375 -132.812 710
-289.062 234.375 849
-132.812 -195.312 688
-390.625 -351.562 1404
328.125 390.625 744
-460.938 15.625 817
109.375 -273.438 871
109.375 -382.812 827
31.25 -312.5 757
289.062 445.312 720
117.188 -117.188 698
-171.875 -39.0625 789
-390.625 78.125 767
-453.125 -117.188 887
-218.75 218.75 686
-203.125 -117.188 746
148.438 218.75 667
375 320.312 774
-304.688 -234.375 727
23.4375 -140.625 710
203.125 -421.875 2835
-218.75 343.75 789
-375 265.625 1564
78.125 218.75 647
-468.75 343.75 1722
195.312 -187.5 736
-62.5 -445.312 825
93.75 -109.375 698
414.062 242.188 813
-406.25 140.625 910
-445.312 -101.562 896
-320.312 -445.312 3399
-39.0625 242.188 666
-85.9375 -281.25 847
7.8125 -187.5 769
-210.938 -187.5 697
164.062 148.438 667
156.25 367.188 600
468.75 62.5 723
-398.438 -46.875 849
-304.688 -117.188 896
-171.875 -226.562 690
-125 -164.062 710
171.875 -125 710
109.375 -109.375 698
132.812 -101.562 703
109.375 -296.875 845
-187.5 414.062 1415
-468.75 -117.188 887
437.5 171.875 767
-429.688 210.938 1624
-109.375 -320.312 847
-23.4375 -296.875 813
39.0625 -210.938 769
195.312 125 707
-398.438 148.438 910
468.75 93.75 710
492.188 179.688 841
31.25 -210.938 781
375 429.688 723
62.5 148.438 663
257.812 -265.625 970
-289.062 257.812 837
31.25 -218.75 780
382.812 -62.5 805
-93.75 -304.688 835
0 382.812 601
-500 -54.6875 915
-171.875 257.812 664
109.375 -265.625 978
109.375 250 655
-281.25 -171.875 754
-242.188 -54.6875 829
132.812 156.25 640
78.125 -273.438 762
-445.312 -265.625 1057
-281.25 -140.625 780
-429.688 179.688 898
-109.375 -359.375 835
-273.438 -140.625 774
398.438 265.625 802
437.5 109.375 701
101.562 398.438 590
-367.188 101.562 754
-351.562 257.812 851
132.812 -296.875 860
85.9375 -265.625 762
-78.125 -382.812 811
-85.9375 -312.5 827
-93.75 -328.125 827
-85.9375 -156.25 742
320.312 187.5 672
-250 210.938 704
-492.188 -195.312 981
304.688 359.375 597
406.25 218.75 655
-281.25 -187.5 739
-78.125 -117.188 767
-93.75 -343.75 825
-304.688 -242.188 725
-398.438 203.125 875
398.438 -171.875 882
-335.938 -171.875 992
-93.75 -210.938 948
-7.8125 218.75 644
398.438 218.75 655
-351.562 203.125 875
15.625 281.25 644
-460.938 203.125 1594
-125 -203.125 697
-375 -101.562 975
-78.125 -203.125 935
468.75 164.062 854
273.438 281.25 630
437.5 218.75 825
62.5 -203.125 766
250 445.312 565
445.312 203.125 831
-328.125 -132.812 1047
62.5 218.75 647
140.625 -296.875 1010
-23.4375 -226.562 873
-218.75 210.938 687
-15.625 210.938 644
-70.3125 -70.3125 835
31.25 -132.812 708
-132.812 281.25 649
-281.25 -250 723
-382.812 -85.9375 864
-46.875 -382.812 796
-85.9375 -296.875 837
437.5 156.25 680
-265.625 367.188 1328
85.9375 179.688 649
320.312 375 752
117.188 187.5 654
-468.75 234.375 1863
-101.562 -156.25 736
-367.188 -382.812 3149
-78.125 -273.438 851
-93.75 -132.812 750
85.9375 179.688 649
-328.125 -101.562 885
-406.25 234.375 1601
78.125 -109.375 700
-242.188 195.312 697
179.688 187.5 659
-242.188 210.938 698
-140.625 -187.5 687
-93.75 -218.75 954
-468.75 -226.562 1016
-367.188 -70.3125 864
-445.312 23.4375 807
-453.125 -437.5 3064
109.375 -195.312 802
85.9375 -125 698
406.25 210.938 655
-320.312 -164.062 1007
78.125 -312.5 821
-406.25 54.6875 783
-335.938 -132.812 978
-429.688 39.0625 796
93.75 187.5 649
31.25 226.562 644
320.312 398.438 742
70.3125 -179.688 767
-453.125 -164.062 1041
-273.438 171.875 710
273.438 -257.812 959
7.8125 -367.188 796
359.375 343.75 764
-257.812 187.5 703
320.312 -234.375 943
-437.5 -15.625 833
-250 351.562 796
109.375 -226.562 785
15.625 265.625 622
-320.312 132.812 731
117.188 140.625 641
85.9375 -257.812 767
-304.688 -226.562 728
-289.062 -242.188 720
109.375 -203.125 798
85.9375 -171.875 813
-179.688 242.188 670
132.812 210.938 641
109.375 -257.812 785
-390.625 70.3125 771
54.6875 -429.688 811
93.75 -117.188 698
23.4375 -179.688 792
-476.562 171.875 1536
343.75 304.688 623
85.9375 -421.875 819
414.062 195.312 667
187.5 -93.75 835
273.438 460.938 714
132.812 -109.375 700
101.562 -125 698
-85.9375 -164.062 742
-304.688 -117.188 896
-328.125 -429.688 3365
-93.75 -406.25 821
-273.438 -164.062 754
-171.875 -234.375 697
109.375 -250 785
54.6875 226.562 650
-210.938 218.75 683
-54.6875 -265.625 847
-23.4375 367.188 612
-132.812 -195.312 688
156.25 210.938 671
375 320.312 774
398.438 203.125 659
406.25 273.438 798
-289.062 -218.75 720
117.188 -210.938 790
-335.938 -93.75 878
78.125 0 781
-453.125 210.938 1616
-468.75 218.75 1883
398.438 226.562 658
-398.438 -343.75 1404
-242.188 -250 716
-304.688 -218.75 731
-289.062 -210.938 725
23.4375 -234.375 778
46.875 -289.062 755
-500 -109.375 894
312.5 414.062 733
-289.062 -281.25 1041
-148.438 -156.25 697
54.6875 -273.438 759
-250 -390.625 1410
31.25 -218.75 780
109.375 -218.75 790
-312.5 -218.75 731
-460.938 -250 1034
-484.375 320.312 1757
-406.25 -296.875 1070
187.5 125 707
187.5 -85.9375 829
304.688 390.625 744
429.688 93.75 708
-351.562 -85.9375 878
-210.938 -125 746
187.5 195.312 657
39.0625 281.25 643
-335.938 125 741
-484.375 125 933
46.875 -437.5 809
-281.25 320.312 813
-398.438 -70.3125 862
414.062 257.812 805
-429.688 -445.312 3037
-367.188 242.188 860
-70.3125 -265.625 854
-437.5 -70.3125 887
320.312 351.562 610
-273.438 -140.625 774
109.375 -328.125 831
179.688 171.875 670
85.9375 -179.688 807
117.188 -179.688 811
54.6875 -328.125 807
226.562 203.125 668
-7.8125 226.562 644
-289.062 164.062 716
-265.625 382.812 1458
-78.125 -429.688 823
125 109.375 647
-343.75 265.625 839
492.188 109.375 882
-335.938 117.188 741
54.6875 -312.5 757
-164.062 -179.688 680
-164.062 -46.875 780
-46.875 -421.875 802
406.25 257.812 807
-453.125 -265.625 1050
171.875 148.438 668
148.438 -117.188 701
-281.25 -140.625 780
-46.875 -445.312 802
-328.125 125 739
-390.625 -351.562 1404
-304.688 -250 727
-93.75 -218.75 954
-281.25 -195.312 734
0 -320.312 803
23.4375 242.188 627
-101.562 -304.688 847
85.9375 -164.062 813
-367.188 -367.188 1427
-304.688 -210.938 733
23.4375 -187.5 787
171.875 -140.625 710
289.062 -250 954
156.25 132.812 643
-312.5 140.625 728
23.4375 156.25 703
-273.438 -148.438 767
-257.812 -148.438 755
-234.375 -234.375 704
-101.562 -179.688 725
148.438 -7.8125 781
343.75 367.188 755
-304.688 -234.375 727
15.625 -156.25 720
171.875 -39.0625 796
109.375 -234.375 783
390.625 273.438 800
-31.25 234.375 670
-257.812 -109.375 792
398.438 281.25 794
-23.4375 -234.375 873
46.875 273.438 646
-460.938 187.5 1579
421.875 242.188 813
-265.625 -179.688 736
-101.562 304.688 637
-328.125 -140.625 998
23.4375 -210.938 778
429.688 234.375 817
390.625 296.875 787
390.625 -351.562 2579
-125 -203.125 697
-304.688 -140.625 906
382.812 273.438 800
-85.9375 -171.875 734
70.3125 140.625 666
-460.938 -7.8125 823
132.812 -351.562 849
-445.312 -7.8125 827
296.875 437.5 725
-367.188 -93.75 873
7.8125 250 624
343.75 359.375 759
-460.938 -148.438 915
-234.375 -242.188 711
-351.562 -375 1433
-78.125 -289.062 837
335.938 382.812 749
-390.625 250 1586
54.6875 -218.75 767
-179.688 320.312 761
-460.938 351.562 1713
-429.688 -203.125 1080
70.3125 226.562 649
390.625 289.062 790
-101.562 -382.812 829
156.25 195.312 667
132.812 195.312 648
-273.438 -156.25 762
-39.0625 -351.562 800
-328.125 -117.188 896
117.188 -132.812 764
390.625 234.375 647
187.5 117.188 710
-351.562 289.062 1543
-468.75 -234.375 1019
-218.75 -250 713
109.375 -210.938 794
-101.562 -117.188 755
-476.562 273.438 1813
382.812 304.688 783
-476.562 -226.562 1013
-375 -382.812 3178
-312.5 -398.438 1477
453.125 195.312 837
-273.438 -257.812 727
-23.4375 359.375 612
265.625 414.062 579
-335.938 273.438 839
445.312 195.312 837
-109.375 -382.812 835
-460.938 23.4375 811
-406.25 -39.0625 843
-226.562 -234.375 704
-390.625 -85.9375 935
-437.5 31.25 802
46.875 -218.75 767
-492.188 351.562 1713
54.6875 -304.688 757
-367.188 -70.3125 864
109.375 -281.25 871
-367.188 -398.438 3238
429.688 187.5 769
-382.812 -414.062 3178
117.188 -304.688 851
-375 -218.75 1084
164.062 148.438 667
-281.25 367.188 1470
-367.188 -140.625 901
-93.75 -296.875 841
109.375 -164.062 815
54.6875 -289.062 754
-117.188 -164.062 720
-289.062 343.75 1489
15.625 -132.812 713
312.5 343.75 604
109.375 -351.562 827
-171.875 -234.375 697
-398.438 -296.875 1067
-304.688 -117.188 896
-484.375 187.5 1564
-101.562 -414.062 841
46.875 203.125 648
-343.75 -156.25 970
46.875 210.938 648
-273.438 375 1464
-101.562 7.8125 789
-343.75 -117.188 887
-484.375 312.5 1757
-367.188 109.375 754
-390.625 210.938 869
328.125 390.625 744
109.375 -242.188 783
-93.75 0 794
257.812 437.5 565
-328.125 -437.5 3333
-382.812 -140.625 894
429.688 171.875 676
296.875 414.062 734
62.5 257.812 652
15.625 -437.5 798
250 437.5 565
289.062 445.312 720
46.875 -226.562 762
-304.688 -132.812 906
117.188 -117.188 698
140.625 -296.875 1010
-265.625 -164.062 747
-78.125 -351.562 811
406.25 273.438 798
-476.562 -117.188 894
-132.812 -70.3125 747
125 -273.438 987
-382.812 78.125 766
-54.6875 -453.125 800
-335.938 -460.938 3300
-93.75 -226.562 962
-109.375 -351.562 835
-101.562 -320.312 835
148.438 -304.688 1022
351.562 359.375 757
-468.75 -242.188 1022
132.812 -445.312 2908
31.25 195.312 655
-101.562 -101.562 764
-125 -156.25 716
125 187.5 653
-296.875 -125 903
-78.125 -367.188 811
398.438 234.375 658
117.188 -109.375 698
7.8125 -351.562 796
-93.75 -382.812 821
320.312 382.812 747
-109.375 -125 744
-140.625 -78.125 742
312.5 -382.812 2680
-414.062 226.562 1609
-171.875 250 666
-375 -390.625 3208
421.875 187.5 670
39.0625 234.375 643
-359.375 -406.25 3300
-500 -78.125 891
109.375 -109.375 698
273.438 406.25 585
-101.562 -312.5 841
312.5 351.562 600
-93.75 -156.25 742
-39.0625 -85.9375 845
296.875 375 593
-492.188 179.688 1536
218.75 210.938 666
-187.5 -117.188 733
109.375 218.75 644
140.625 -109.375 701
210.938 125 707
85.9375 250 655
171.875 -31.25 792
85.9375 156.25 655
-250 -85.9375 809
85.9375 -195.312 796
31.25 203.125 655
-101.562 -382.812 829
7.8125 203.125 658
203.125 -164.062 723
-296.875 -148.438 774
132.812 -328.125 856
-460.938 -250 1034
320.312 406.25 736
171.875 195.312 661
-367.188 -148.438 901
46.875 -195.312 767
-85.9375 -179.688 920
54.6875 -320.312 809
445.312 -328.125 2522
421.875 203.125 757
-289.062 -226.562 719
-234.375 203.125 693
-484.375 132.812 930
85.9375 -226.562 785
15.625 226.562 649
-437.5 226.562 1616
31.25 -195.312 790
-234.375 -429.688 3333
437.5 218.75 825
-281.25 -195.312 734
-398.438 -429.688 3092
-281.25 -132.812 785
46.875 265.625 650
203.125 218.75 663
39.0625 289.062 640
-289.062 -179.688 752
-445.312 109.375 935
-445.312 -93.75 891
85.9375 -312.5 825
-140.625 273.438 654
39.0625 140.625 682
-132.812 -195.312 688
367.188 335.938 769
187.5 -101.562 839
187.5 -132.812 717
-164.062 281.25 686
-23.4375 -406.25 798
359.375 -218.75 923
-187.5 -195.312 683
-359.375 -148.438 901
-343.75 -195.312 951
-289.062 -218.75 720
-70.3125 -78.125 839
46.875 -359.375 800
117.188 -203.125 792
54.6875 171.875 649
-31.25 250 662
164.062 -109.375 707
132.812 250 634
0 -328.125 802
-500 -187.5 959
-85.9375 -7.8125 798
-500 -39.0625 908
304.688 421.875 731
117.188 -250 785
39.0625 226.562 644
-203.125 -179.688 694
195.312 117.188 711
-359.375 -179.688 923
-312.5 -187.5 1022
-359.375 -101.562 998
-23.4375 -101.562 789
156.25 125 646
-78.125 -335.938 815
-234.375 -101.562 778
390.625 242.188 646
-437.5 -218.75 1070
-468.75 187.5 1572
164.062 171.875 663
-171.875 -218.75 687
187.5 187.5 658
218.75 125 706
-218.75 -109.375 764
-328.125 -125 896
23.4375 -437.5 800
117.188 -218.75 787
-437.5 -445.312 3037
-171.875 -46.875 783
164.062 -117.188 707
156.25 242.188 654
125 148.438 638
-257.812 179.688 704
-62.5 -39.0625 815
-273.438 -140.625 774
-359.375 -226.562 1080
-226.562 -250 716
-328.125 -109.375 889
-31.25 242.188 663
-210.938 382.812 781
-414.062 46.875 789
15.625 -164.062 787
-398.438 -101.562 898
-398.438 62.5 776
-390.625 -62.5 858
-312.5 -109.375 887
101.562 156.25 657
54.6875 148.438 662
-375 -359.375 1415
39.0625 -125 706
210.938 218.75 663
390.625 -62.5 805
-257.812 -265.625 733
-7.8125 281.25 646
109.375 -187.5 807
31.25 250 625
335.938 359.375 759
257.812 429.688 567
-453.125 0 823
289.062 421.875 733
-289.062 -281.25 1041
117.188 -195.312 798
-15.625 218.75 642
85.9375 -187.5 803
-101.562 -398.438 833
-484.375 -414.062 3120
-85.9375 -187.5 925
23.4375 265.625 622
-390.625 93.75 774
140.625 -101.562 704
437.5 210.938 831
23.4375 398.438 596
-273.438 335.938 802
437.5 179.688 767
-140.625 -179.688 690
273.438 445.312 722
15.625 -195.312 776
0 273.438 648
-242.188 -179.688 717
421.875 250 807
-117.188 -46.875 767
328.125 382.812 749
-257.812 -93.75 807
85.9375 -234.375 781
132.812 -281.25 995
39.0625 -203.125 769
226.562 -281.25 987
414.062 203.125 662
93.75 -273.438 757
-46.875 -453.125 796
281.25 460.938 716
265.625 453.125 719
148.438 242.188 655
-398.438 132.812 913
-54.6875 -453.125 800
445.312 210.938 831
320.312 343.75 610
-453.125 15.625 815
195.312 -140.625 720
125 -335.938 847
-500 -156.25 925
23.4375 -445.312 796
-484.375 -203.125 995
117.188 -257.812 785
-62.5 -148.438 891
-70.3125 -85.9375 845
-46.875 -257.812 858
-421.875 -328.125 1381
-414.062 257.812 1586
234.375 460.938 563
-101.562 -328.125 829
406.25 210.938 655
-117.188 296.875 644
-78.125 -304.688 827
-335.938 -203.125 964
-406.25 148.438 906
-351.562 109.375 747
382.812 312.5 780
-359.375 250 858
140.625 250 652
-390.625 421.875 1632
15.625 250 624
-85.9375 -414.062 821
312.5 367.188 755
-476.562 -218.75 1007
203.125 -156.25 720
-70.3125 -265.625 854
-484.375 -101.562 898
-70.3125 -23.4375 805
320.312 312.5 614
-460.938 101.562 943
0 375 603
250 460.938 713
-179.688 -242.188 704
-476.562 78.125 962
-117.188 -171.875 714
476.562 -429.688 2349
54.6875 -351.562 803
-429.688 -289.062 1067
265.625 429.688 727
-343.75 -437.5 3300
-445.312 15.625 813
31.25 -203.125 785
367.188 312.5 780
93.75 -398.438 819
312.5 375 752
195.312 132.812 704
-343.75 109.375 747
101.562 109.375 653
-23.4375 -109.375 794
-382.812 -78.125 864
414.062 210.938 754
460.938 -171.875 878
335.938 382.812 749
-375 -62.5 860
-31.25 -78.125 837
70.3125 -296.875 744
-140.625 343.75 755
117.188 -187.5 803
-406.25 62.5 778
-273.438 -171.875 747
476.562 7.8125 755
23.4375 195.312 661
-421.875 -429.688 3092
-414.062 -460.938 2984
-421.875 218.75 1616
-289.062 -226.562 719
312.5 390.625 746
460.938 171.875 851
140.625 117.188 643
-445.312 -7.8125 827
179.688 -117.188 716
15.625 -171.875 785
210.938 195.312 672
62.5 171.875 648
-343.75 117.188 746
492.188 54.6875 731
-289.062 -406.25 1470
-85.9375 -289.062 841
-328.125 -445.312 3333
-500 406.25 1647
398.438 289.062 790
23.4375 -140.625 710
-312.5 -171.875 1060
-210.938 304.688 809
7.8125 226.562 650
46.875 414.062 589
-289.062 242.188 847
304.688 406.25 739
117.188 -109.375 698
117.188 -265.625 978
328.125 343.75 610
-140.625 -179.688 690
-335.938 117.188 741
-78.125 -132.812 878
-398.438 -132.812 887
-414.062 -414.062 3120
359.375 328.125 771
62.5 -335.938 807
62.5 234.375 663
-414.062 195.312 885
-101.562 -375 827
-414.062 -445.312 3037
-78.125 -15.625 800
78.125 250 655
15.625 -203.125 774
117.188 -226.562 783
62.5 125 678
-250 187.5 703
140.625 242.188 632
70.3125 -406.25 807
453.125 195.312 837
-312.5 -109.375 887
-296.875 335.938 1489
-85.9375 -179.688 920
-171.875 -234.375 697
-125 -31.25 773
179.688 -125 713
242.188 -273.438 978
-343.75 -85.9375 875
-429.688 -195.312 1073
-414.062 -85.9375 891
335.938 335.938 771
117.188 -242.188 783
203.125 117.188 711
273.438 414.062 579
328.125 367.188 755
320.312 406.25 736
-296.875 -257.812 728
23.4375 250 624
-484.375 328.125 1748
-187.5 -164.062 698
70.3125 250 655
-117.188 -156.25 723
125 -265.625 978
203.125 -171.875 727
0 234.375 634
468.75 210.938 829
320.312 359.375 759
-468.75 398.438 1655
-93.75 -15.625 802
-398.438 210.938 875
-23.4375 234.375 643
-70.3125 -398.438 809
-281.25 -132.812 785
-93.75 -406.25 821
359.375 351.562 761
117.188 164.062 646
429.688 234.375 817
-109.375 296.875 642
-421.875 187.5 891
-62.5 -46.875 819
203.125 226.562 658
171.875 203.125 662
39.0625 -195.312 769
296.875 437.5 725
-390.625 -414.062 3149
-398.438 -445.312 3064
23.4375 304.688 632
-109.375 -179.688 722
-351.562 7.8125 809
117.188 -117.188 698
210.938 453.125 561
-335.938 -453.125 3300
101.562 234.375 662
-312.5 -296.875 1050
-210.938 335.938 794
406.25 226.562 658
-78.125 -140.625 887
-7.8125 210.938 644
-304.688 -203.125 741
-70.3125 -93.75 851
117.188 -250 785
-171.875 -226.562 690
304.688 367.188 593
117.188 -171.875 813
171.875 148.438 668
-242.188 289.062 819
-492.188 -195.312 981
-453.125 -257.812 1044
398.438 226.562 658
-85.9375 -195.312 933
93.75 -312.5 827
85.9375 -218.75 790
-296.875 250 841
-78.125 -414.062 817
-78.125 -414.062 817
-367.188 242.188 860
93.75 -359.375 815
140.625 -109.375 701
-398.438 242.188 1586
445.312 203.125 831
15.625 -156.25 720
-85.9375 -187.5 925
476.562 156.25 856
-281.25 -203.125 727
-320.312 -156.25 1001
117.188 -234.375 781
-187.5 -78.125 766
-421.875 39.0625 794
156.25 250 652
93.75 -125 698
117.188 -140.625 766
-398.438 70.3125 774
-468.75 -234.375 1019
-351.562 -125 973
-351.562 101.562 754
31.25 -132.812 708
289.062 406.25 738
187.5 140.625 700
85.9375 -250 773
39.0625 257.812 652
39.0625 -210.938 769
171.875 171.875 667
-398.438 289.062 1794
93.75 -117.188 698
-453.125 0 823
109.375 195.312 653
-93.75 -398.438 821
85.9375 -226.562 785
46.875 -179.688 769
-85.9375 -171.875 734
62.5 -226.562 767
468.75 -320.312 2485
-453.125 -148.438 910
-445.312 164.062 906
304.688 429.688 727
-414.062 -31.25 841
-460.938 -234.375 1028
-234.375 -54.6875 825
-148.438 265.625 655
140.625 -289.062 1001
-250 -93.75 800
-148.438 -46.875 767
-85.9375 -390.625 817
23.4375 -179.688 792
-15.625 242.188 662
148.438 265.625 644
15.625 -375 796
-484.375 62.5 973
179.688 210.938 667
-195.312 -78.125 769
-187.5 234.375 674
164.062 242.188 654
-476.562 289.062 1785
-398.438 -343.75 1404
-218.75 398.438 1421
-93.75 -140.625 749
-62.5 -31.25 809
85.9375 -210.938 792
-7.8125 242.188 634
-85.9375 -335.938 819
-101.562 -375 827
125 148.438 638
-445.312 -273.438 1060
-390.625 85.9375 767
117.188 -210.938 790
54.6875 -210.938 767
-281.25 -140.625 780
62.5 -398.438 803
-304.688 328.125 1509
429.688 -335.938 2522
132.812 242.188 632
-70.3125 328.125 627
-398.438 -46.875 849
-406.25 54.6875 783
-312.5 -398.438 1477
-304.688 -210.938 733
-468.75 -218.75 1010
46.875 281.25 642
-445.312 304.688 1776
148.438 273.438 642
-250 -390.625 1410
93.75 140.625 650
-312.5 -109.375 887
-320.312 -171.875 1010
101.562 250 655
70.3125 -171.875 769
70.3125 421.875 582
78.125 226.562 649
171.875 164.062 668
203.125 -179.688 734
46.875 -367.188 798
-15.625 -320.312 805
-101.562 -125 750
-429.688 -242.188 1073
125 -117.188 698
93.75 156.25 657
-117.188 -15.625 783
-101.562 -320.312 835
-281.25 -117.188 794
-429.688 -226.562 1073
257.812 -265.625 970
-375 -62.5 860
-234.375 -195.312 704
-351.562 -132.812 970
-242.188 195.312 697
398.438 242.188 738
-250 203.125 697
-289.062 -234.375 719
54.6875 414.062 586
148.438 -101.562 706
-85.9375 -195.312 933
-312.5 320.312 1516
421.875 234.375 817
-101.562 -367.188 827
39.0625 195.312 652
414.062 -343.75 2560
-281.25 -203.125 727
164.062 -203.125 762
23.4375 -171.875 796
445.312 210.938 831
-93.75 -226.562 962
-148.438 -7.8125 796
-93.75 -414.062 829
-398.438 -437.5 3064
-492.188 -203.125 981
-476.562 195.312 1564
93.75 -109.375 698
-62.5 -367.188 802
-78.125 -398.438 813
429.688 179.688 767
-335.938 -125 978
460.938 187.5 841
-390.625 -132.812 889
78.125 179.688 647
-109.375 -390.625 837
-328.125 -273.438 1057
-312.5 -171.875 1060
343.75 375 750
492.188 62.5 731
132.812 234.375 632
-500 -117.188 894
156.25 -437.5 2908
-375 -359.375 1415
187.5 -203.125 749
312.5 414.062 733
125 195.312 649
-437.5 -156.25 910
85.9375 164.062 653
-289.062 -226.562 719
31.25 -187.5 794
117.188 -265.625 978
-453.125 -242.188 1041
-234.375 -46.875 833
-273.438 -164.062 754
31.25 242.188 625
171.875 -210.938 759
414.062 265.625 802
54.6875 -218.75 767
203.125 -148.438 720
-421.875 -437.5 3064
-406.25 203.125 878
187.5 148.438 697
-210.938 -203.125 690
-414.062 -421.875 3092
-492.188 -281.25 1322
289.062 453.125 717
-15.625 -375 796
-320.312 -187.5 1022
-148.438 273.438 655
-437.5 23.4375 805
0 -343.75 798
-429.688 179.688 898
328.125 398.438 741
-93.75 304.688 636
-289.062 -187.5 746
117.188 -164.062 776
-117.188 289.062 647
-54.6875 -375 800
414.062 218.75 755
117.188 -242.188 783
179.688 -39.0625 796
54.6875 -382.812 798
46.875 -210.938 767
-500 398.438 1655
117.188 -257.812 785
273.438 -257.812 959
195.312 179.688 662
390.625 304.688 783
187.5 203.125 657
-445.312 -312.5 1359
125 203.125 646
-359.375 -93.75 875
-437.5 -257.812 1063
85.9375 -335.938 817
-54.6875 -226.562 956
375 -359.375 2598
-132.812 -187.5 694
-437.5 -179.688 1057
351.562 312.5 780
-281.25 -242.188 719
-414.062 54.6875 785
-320.312 -101.562 885
343.75 351.562 764
-296.875 -101.562 882
-351.562 257.812 851
375 398.438 738
-250 -187.5 719
-304.688 -117.188 896
