ply
format ascii 1.0
comment Created by Open3D
element vertex 2465
property double x
property double y
property double z
end_header
164.062 -54.6875 739
210.938 -187.5 959
-62.5 328.125 1157
78.125 210.938 749
132.812 414.062 1297
492.188 -15.625 638
250 390.625 1219
164.062 -117.188 915
234.375 62.5 674
93.75 304.688 920
-257.812 335.938 1087
203.125 351.562 1050
195.312 437.5 1268
-101.562 429.688 1322
343.75 -132.812 714
-320.312 265.625 938
250 -273.438 811
226.562 -31.25 675
234.375 39.0625 657
78.125 304.688 920
109.375 320.312 948
-93.75 -7.8125 878
460.938 -195.312 698
390.625 -312.5 628
-101.562 320.312 970
398.438 -7.8125 648
218.75 265.625 851
31.25 85.9375 714
-78.125 -93.75 704
23.4375 -304.688 1090
0 -62.5 687
468.75 414.062 1241
-187.5 414.062 1302
46.875 414.062 1307
39.0625 15.625 697
195.312 -304.688 839
210.938 -375 894
210.938 -15.625 774
281.25 289.062 1376
101.562 320.312 951
164.062 320.312 943
132.812 320.312 940
328.125 -304.688 823
281.25 15.625 652
-23.4375 414.062 1328
218.75 375 1130
242.188 -46.875 684
-31.25 289.062 860
312.5 7.8125 650
31.25 304.688 930
304.688 203.125 734
-421.875 -359.375 2958
335.938 242.188 738
39.0625 304.688 930
-148.438 257.812 885
-382.812 203.125 792
-23.4375 304.688 862
23.4375 304.688 930
265.625 242.188 744
-23.4375 85.9375 739
250 54.6875 654
15.625 304.688 933
-140.625 320.312 973
-39.0625 85.9375 746
-132.812 210.938 767
117.188 320.312 946
101.562 31.25 706
414.062 -203.125 691
296.875 -132.812 722
-171.875 -203.125 805
-109.375 210.938 766
109.375 210.938 747
257.812 -31.25 674
335.938 289.062 1359
296.875 226.562 730
-484.375 195.312 807
390.625 0 644
70.3125 93.75 710
93.75 320.312 951
39.0625 -382.812 1165
-93.75 281.25 867
-125 -39.0625 839
351.562 281.25 1359
382.812 -359.375 616
-195.312 70.3125 845
7.8125 421.875 1312
-164.062 31.25 864
148.438 -93.75 716
78.125 117.188 716
250 39.0625 653
484.375 -15.625 643
453.125 0 638
-125 -140.625 762
351.562 226.562 725
-140.625 -85.9375 843
15.625 257.812 767
-46.875 -476.562 2767
-148.438 31.25 860
203.125 62.5 738
-109.375 320.312 967
375 -429.688 629
-39.0625 304.688 862
-93.75 -109.375 719
0 304.688 862
296.875 7.8125 653
-46.875 -78.125 704
46.875 109.375 719
-93.75 7.8125 869
359.375 210.938 725
-85.9375 -101.562 710
-187.5 -226.562 825
-78.125 0 873
265.625 54.6875 653
-125 -429.688 2908
-31.25 23.4375 762
210.938 -281.25 821
-109.375 281.25 867
-132.812 -156.25 774
320.312 -281.25 807
453.125 -148.438 711
179.688 -187.5 962
-23.4375 -62.5 688
304.688 -429.688 787
-62.5 -93.75 704
15.625 414.062 1317
179.688 -31.25 730
312.5 226.562 730
125 -85.9375 710
250 31.25 653
23.4375 328.125 954
343.75 -343.75 849
-23.4375 171.875 776
164.062 140.625 774
250 226.562 733
203.125 -242.188 1004
101.562 -85.9375 698
414.062 140.625 727
7.8125 132.812 742
78.125 -242.188 794
-367.188 203.125 789
-171.875 -460.938 2812
468.75 -226.562 678
-46.875 304.688 862
234.375 -101.562 710
382.812 148.438 731
179.688 70.3125 728
281.25 257.812 1404
-210.938 -93.75 948
210.938 -195.312 959
-234.375 -351.562 1193
492.188 289.062 1210
-273.438 -93.75 962
46.875 15.625 697
-7.8125 304.688 862
187.5 78.125 731
54.6875 -70.3125 690
31.25 132.812 741
375 -289.062 662
257.812 265.625 1404
39.0625 -78.125 688
-54.6875 70.3125 749
-70.3125 320.312 962
171.875 164.062 762
343.75 320.312 1333
351.562 273.438 1370
39.0625 85.9375 719
-226.562 125 819
156.25 187.5 750
15.625 -312.5 856
70.3125 15.625 710
195.312 70.3125 736
93.75 101.562 716
195.312 -312.5 843
-101.562 187.5 774
-234.375 46.875 862
476.562 -195.312 708
-179.688 359.375 1338
-31.25 70.3125 749
0 39.0625 744
31.25 85.9375 723
476.562 -15.625 644
-171.875 414.062 1333
406.25 -351.562 614
101.562 -62.5 700
359.375 7.8125 647
-101.562 312.5 967
156.25 -445.312 2812
375 -101.562 696
343.75 273.438 1376
406.25 156.25 742
-148.438 265.625 887
281.25 -125 719
-54.6875 320.312 964
304.688 31.25 648
257.812 -23.4375 670
375 335.938 1312
460.938 -234.375 683
-85.9375 320.312 967
-31.25 304.688 867
156.25 171.875 761
304.688 296.875 1359
31.25 210.938 754
203.125 -70.3125 882
-109.375 -125 738
343.75 250 1392
101.562 304.688 933
-203.125 312.5 987
140.625 -218.75 992
93.75 210.938 749
-125 281.25 867
70.3125 304.688 938
-265.625 390.625 1202
390.625 421.875 1245
242.188 109.375 720
62.5 -62.5 703
390.625 -7.8125 648
-468.75 195.312 803
148.438 -148.438 716
85.9375 210.938 749
-117.188 281.25 925
-179.688 382.812 1328
109.375 -62.5 700
-101.562 281.25 867
-179.688 343.75 1333
85.9375 93.75 713
-195.312 312.5 978
-78.125 320.312 973
85.9375 320.312 948
78.125 93.75 713
-164.062 210.938 769
-226.562 210.938 778
210.938 -62.5 878
359.375 -187.5 742
-140.625 -93.75 851
31.25 -210.938 862
-93.75 117.188 809
0 210.938 755
15.625 -226.562 878
218.75 351.562 1077
-117.188 210.938 766
0 125 742
-62.5 429.688 1312
62.5 210.938 750
250 0 659
234.375 -93.75 706
23.4375 70.3125 730
203.125 -390.625 906
242.188 93.75 711
-132.812 -171.875 780
281.25 203.125 736
85.9375 -250 1031
140.625 148.438 771
343.75 257.812 1387
453.125 -312.5 635
328.125 0 653
-125 -54.6875 837
-39.0625 -218.75 885
-257.812 203.125 780
23.4375 -54.6875 704
-156.25 179.688 785
-93.75 312.5 967
23.4375 -31.25 698
281.25 281.25 1376
-164.062 -367.188 1177
-273.438 390.625 1193
-93.75 320.312 967
-312.5 -351.562 1210
132.812 -78.125 706
257.812 -54.6875 686
257.812 -46.875 682
62.5 320.312 956
242.188 -187.5 755
46.875 304.688 943
265.625 70.3125 678
375 -70.3125 678
218.75 -117.188 906
-164.062 312.5 975
-195.312 -164.062 1001
476.562 -335.938 621
54.6875 -265.625 821
-148.438 23.4375 869
-85.9375 -117.188 720
218.75 -335.938 862
-15.625 93.75 741
406.25 -187.5 710
257.812 -335.938 858
343.75 156.25 750
289.062 0 657
226.562 -54.6875 688
242.188 -203.125 766
-31.25 31.25 767
70.3125 210.938 749
-125 -289.062 858
-62.5 320.312 964
-375 203.125 789
492.188 226.562 725
265.625 62.5 671
367.188 0 647
484.375 382.812 1255
304.688 -328.125 845
-257.812 382.812 1185
-210.938 382.812 1214
-156.25 210.938 769
281.25 296.875 1126
156.25 156.25 766
-250 -359.375 1193
210.938 -289.062 833
242.188 -39.0625 679
250 15.625 657
187.5 70.3125 730
15.625 -382.812 1173
-242.188 -359.375 1193
312.5 132.812 734
39.0625 101.562 728
39.0625 93.75 728
343.75 437.5 1250
-140.625 281.25 875
-78.125 15.625 862
226.562 -343.75 867
0 -54.6875 687
15.625 -15.625 698
257.812 -281.25 817
46.875 -39.0625 694
-15.625 101.562 741
-62.5 -85.9375 698
-320.312 351.562 1087
210.938 445.312 1278
234.375 -109.375 716
46.875 210.938 750
0 437.5 1307
-132.812 0 875
31.25 -23.4375 696
289.062 -148.438 730
484.375 -132.812 697
414.062 -187.5 711
203.125 -250 1007
46.875 -273.438 829
492.188 -406.25 594
70.3125 320.312 956
289.062 164.062 752
421.875 -187.5 711
39.0625 -203.125 860
109.375 320.312 946
-46.875 320.312 964
-218.75 421.875 1297
421.875 -398.438 607
7.8125 132.812 742
-117.188 -164.062 869
468.75 234.375 731
265.625 265.625 1404
-125 210.938 766
132.812 109.375 720
23.4375 62.5 727
-289.062 351.562 1101
218.75 273.438 875
164.062 78.125 723
54.6875 85.9375 713
164.062 -93.75 714
46.875 85.9375 716
210.938 -312.5 841
484.375 -335.938 621
-140.625 265.625 896
-281.25 210.938 781
265.625 203.125 738
375 -421.875 632
484.375 -265.625 663
-54.6875 328.125 1161
-78.125 312.5 869
-140.625 -125 767
23.4375 414.062 1317
226.562 -62.5 690
93.75 320.312 948
203.125 -335.938 862
-7.8125 320.312 964
195.312 320.312 943
320.312 226.562 739
375 273.438 1370
234.375 -265.625 805
85.9375 -242.188 790
-187.5 -226.562 825
46.875 109.375 727
234.375 93.75 711
54.6875 320.312 959
-109.375 -468.75 2812
164.062 93.75 723
93.75 -156.25 730
-31.25 320.312 967
-351.562 203.125 787
62.5 -257.812 813
-54.6875 210.938 761
-414.062 -265.625 2680
234.375 -250 798
78.125 -257.812 1041
0 320.312 959
-7.8125 210.938 757
218.75 -140.625 923
117.188 210.938 747
351.562 210.938 728
-85.9375 281.25 869
203.125 -257.812 1013
-234.375 210.938 778
-164.062 -195.312 800
484.375 -382.812 599
62.5 23.4375 711
7.8125 46.875 734
7.8125 -31.25 706
242.188 101.562 717
78.125 -226.562 790
-117.188 -39.0625 841
351.562 242.188 1398
429.688 -398.438 607
-187.5 312.5 978
281.25 0 658
351.562 7.8125 647
476.562 -414.062 609
-23.4375 210.938 759
335.938 234.375 738
-171.875 312.5 981
-23.4375 320.312 964
390.625 -382.812 610
-195.312 312.5 978
39.0625 -31.25 694
0 101.562 739
250 -125 720
351.562 0 649
-54.6875 312.5 964
250 -132.812 725
-335.938 328.125 1054
492.188 125 719
-54.6875 328.125 1161
210.938 46.875 738
-460.938 195.312 803
406.25 -7.8125 647
359.375 195.312 730
476.562 -382.812 600
-117.188 -429.688 2908
78.125 -62.5 701
31.25 429.688 1302
-343.75 226.562 794
31.25 320.312 956
-210.938 210.938 774
70.3125 -265.625 1044
-210.938 351.562 1223
-242.188 296.875 978
-218.75 328.125 1185
484.375 398.438 1241
-343.75 296.875 1001
492.188 -15.625 637
-242.188 398.438 1219
367.188 210.938 727
-23.4375 85.9375 742
31.25 304.688 940
234.375 -257.812 802
390.625 23.4375 641
-31.25 70.3125 749
-54.6875 320.312 964
54.6875 210.938 750
226.562 -70.3125 694
-281.25 367.188 1145
437.5 23.4375 636
23.4375 70.3125 730
328.125 320.312 1338
257.812 -62.5 688
78.125 320.312 956
414.062 -7.8125 647
210.938 70.3125 805
-125 -93.75 845
-15.625 320.312 964
203.125 -343.75 869
-148.438 312.5 970
46.875 320.312 954
132.812 -226.562 1001
156.25 93.75 723
70.3125 -54.6875 698
226.562 117.188 778
101.562 70.3125 706
7.8125 -382.812 1169
23.4375 39.0625 716
62.5 414.062 1312
226.562 -312.5 841
460.938 -15.625 644
-226.562 304.688 984
31.25 7.8125 698
-70.3125 320.312 967
-132.812 -148.438 766
492.188 398.438 1223
-62.5 -54.6875 693
-125 -54.6875 837
15.625 -296.875 845
-257.812 -359.375 1193
70.3125 414.062 1307
62.5 304.688 938
-328.125 312.5 1022
-320.312 320.312 1044
-39.0625 -70.3125 690
125 320.312 946
296.875 296.875 1365
335.938 156.25 750
62.5 320.312 956
257.812 -39.0625 678
273.438 242.188 746
-203.125 437.5 1333
0 39.0625 744
468.75 -15.625 644
-15.625 304.688 867
-234.375 375 1161
257.812 -54.6875 686
320.312 -390.625 825
382.812 289.062 1349
-132.812 -70.3125 839
-54.6875 304.688 864
250 -140.625 730
375 -7.8125 648
23.4375 304.688 943
-296.875 343.75 1084
304.688 164.062 750
-140.625 281.25 875
265.625 78.125 683
234.375 -273.438 813
-23.4375 78.125 744
-179.688 312.5 981
-7.8125 304.688 860
203.125 23.4375 736
484.375 -15.625 643
242.188 -54.6875 688
-179.688 -367.188 1193
-132.812 -156.25 773
164.062 -62.5 710
289.062 304.688 1123
351.562 289.062 1354
164.062 -156.25 720
109.375 -171.875 738
343.75 0 649
382.812 -7.8125 648
226.562 335.938 1031
375 289.062 1349
15.625 320.312 956
-85.9375 -296.875 860
273.438 203.125 736
273.438 203.125 736
39.0625 320.312 954
484.375 -406.25 602
453.125 -414.062 613
-148.438 421.875 1328
117.188 320.312 946
218.75 281.25 887
-343.75 203.125 787
-62.5 320.312 964
437.5 0 638
62.5 -273.438 827
242.188 93.75 711
101.562 39.0625 706
-156.25 -187.5 796
242.188 85.9375 701
-70.3125 -85.9375 700
7.8125 -70.3125 688
-382.812 257.812 938
15.625 210.938 755
-132.812 281.25 871
-492.188 23.4375 908
-132.812 -85.9375 841
203.125 85.9375 796
-218.75 296.875 964
-85.9375 210.938 764
437.5 -398.438 606
-445.312 210.938 803
-7.8125 117.188 741
-101.562 210.938 766
-500 54.6875 891
-406.25 234.375 903
-234.375 406.25 1241
0 -70.3125 688
257.812 -31.25 674
54.6875 -281.25 827
15.625 132.812 744
-78.125 296.875 867
187.5 312.5 940
257.812 -46.875 682
85.9375 -156.25 727
203.125 -265.625 1019
250 -15.625 668
125 -218.75 754
-15.625 -312.5 867
23.4375 -7.8125 698
0 125 742
15.625 54.6875 730
-398.438 242.188 913
-62.5 -78.125 697
70.3125 -250 803
-85.9375 -468.75 2812
-7.8125 109.375 741
476.562 23.4375 635
46.875 -31.25 694
15.625 140.625 747
85.9375 320.312 948
-312.5 328.125 1057
234.375 -117.188 717
39.0625 210.938 752
-46.875 -78.125 696
7.8125 304.688 856
-78.125 210.938 762
46.875 -195.312 845
-203.125 203.125 773
203.125 -70.3125 882
-132.812 109.375 817
210.938 78.125 800
39.0625 93.75 728
132.812 85.9375 717
460.938 15.625 635
70.3125 -171.875 835
31.25 250 856
-179.688 406.25 1317
171.875 320.312 938
54.6875 -187.5 843
-101.562 -375 1177
429.688 0 641
-117.188 -39.0625 841
-54.6875 -476.562 2789
-156.25 312.5 975
-62.5 312.5 864
343.75 210.938 730
-31.25 62.5 750
234.375 -125 723
-179.688 -218.75 821
54.6875 15.625 706
226.562 -273.438 815
398.438 -187.5 710
-203.125 312.5 987
156.25 -203.125 736
-265.625 375 1161
171.875 312.5 938
-31.25 320.312 967
-7.8125 320.312 964
23.4375 320.312 956
179.688 406.25 1292
304.688 257.812 1376
257.812 312.5 1123
-31.25 54.6875 761
117.188 -234.375 1013
-187.5 312.5 978
132.812 101.562 717
242.188 -218.75 774
31.25 78.125 722
-39.0625 320.312 967
78.125 429.688 1292
-46.875 -437.5 2883
-148.438 250 880
-406.25 203.125 794
382.812 195.312 728
367.188 -7.8125 650
-31.25 164.062 781
406.25 -398.438 609
476.562 -15.625 644
-15.625 62.5 747
15.625 -226.562 878
-109.375 -46.875 839
156.25 -187.5 734
195.312 -62.5 878
-23.4375 320.312 964
-132.812 -109.375 887
-39.0625 210.938 761
250 -62.5 690
-109.375 210.938 766
-15.625 312.5 867
250 31.25 655
70.3125 320.312 956
-250 390.625 1206
242.188 -46.875 684
250 406.25 1241
54.6875 85.9375 713
101.562 320.312 948
445.312 -15.625 647
242.188 78.125 697
171.875 -171.875 956
31.25 -7.8125 696
-78.125 320.312 973
85.9375 117.188 719
250 -289.062 823
70.3125 109.375 720
46.875 0 694
156.25 -156.25 719
-85.9375 -7.8125 878
0 -382.812 1169
-15.625 414.062 1322
-140.625 -93.75 851
265.625 132.812 736
-7.8125 109.375 741
-171.875 312.5 981
250 132.812 736
171.875 429.688 1273
359.375 -7.8125 653
421.875 -226.562 684
351.562 195.312 731
210.938 -210.938 978
296.875 31.25 649
210.938 -304.688 837
-62.5 210.938 761
62.5 -179.688 837
187.5 70.3125 730
171.875 -179.688 730
414.062 -226.562 683
-359.375 203.125 789
31.25 320.312 956
-46.875 210.938 761
46.875 -289.062 1070
296.875 0 655
-93.75 -15.625 854
359.375 320.312 1333
54.6875 31.25 708
304.688 -7.8125 659
-46.875 320.312 964
257.812 101.562 704
218.75 -140.625 923
132.812 70.3125 713
62.5 109.375 720
70.3125 -78.125 690
-343.75 312.5 1025
390.625 -390.625 610
0 320.312 959
23.4375 -289.062 843
476.562 -398.438 602
203.125 -351.562 871
468.75 -390.625 601
328.125 210.938 731
-375 265.625 948
46.875 7.8125 698
257.812 109.375 710
210.938 -296.875 833
-85.9375 320.312 967
210.938 312.5 943
-117.188 -468.75 2812
234.375 -281.25 817
335.938 0 650
226.562 367.188 1108
250 -148.438 731
54.6875 320.312 959
39.0625 -296.875 1080
414.062 -398.438 608
273.438 273.438 1392
421.875 -218.75 691
-39.0625 -476.562 2767
296.875 -7.8125 661
-15.625 281.25 862
-164.062 312.5 975
445.312 -7.8125 643
-195.312 203.125 773
15.625 304.688 943
-125 281.25 867
242.188 125 727
23.4375 -296.875 845
-171.875 -234.375 833
203.125 312.5 940
31.25 -382.812 1165
210.938 -273.438 821
179.688 312.5 938
-70.3125 -78.125 698
210.938 335.938 1038
-312.5 414.062 1586
85.9375 62.5 706
-101.562 -39.0625 841
148.438 -125 710
-15.625 93.75 741
265.625 7.8125 655
-234.375 -359.375 1193
-101.562 218.75 766
218.75 -148.438 923
375 210.938 725
-62.5 -39.0625 887
-125 -54.6875 837
273.438 210.938 736
304.688 70.3125 676
-148.438 -179.688 789
101.562 -234.375 774
257.812 218.75 736
-78.125 -375 1169
78.125 -156.25 728
-156.25 -203.125 798
-62.5 -93.75 701
257.812 -62.5 688
179.688 -78.125 889
218.75 -132.812 918
39.0625 93.75 728
210.938 320.312 943
31.25 -289.062 843
421.875 -203.125 700
-195.312 312.5 978
-164.062 398.438 1349
101.562 -242.188 1022
195.312 312.5 940
281.25 0 658
-328.125 203.125 785
109.375 -78.125 706
-171.875 -367.188 1189
-250 343.75 1105
187.5 85.9375 730
250 -156.25 736
62.5 320.312 956
15.625 109.375 739
-132.812 210.938 767
-7.8125 23.4375 742
226.562 -46.875 686
226.562 226.562 741
453.125 -15.625 647
242.188 -31.25 675
-132.812 -273.438 851
39.0625 312.5 954
-140.625 -171.875 783
23.4375 210.938 754
-70.3125 15.625 860
156.25 -93.75 714
453.125 -398.438 606
320.312 7.8125 650
-171.875 -171.875 796
406.25 23.4375 638
398.438 -328.125 625
257.812 85.9375 687
-109.375 -31.25 841
-367.188 273.438 962
7.8125 414.062 1317
46.875 320.312 954
-226.562 -453.125 2812
492.188 -414.062 596
-70.3125 210.938 762
85.9375 78.125 708
210.938 23.4375 744
125 -93.75 714
328.125 -390.625 823
-164.062 -54.6875 918
-148.438 367.188 1370
-93.75 132.812 802
328.125 7.8125 650
437.5 -15.625 647
257.812 -70.3125 693
148.438 132.812 776
-54.6875 320.312 964
-132.812 281.25 871
476.562 -265.625 662
492.188 -406.25 594
78.125 -164.062 825
234.375 304.688 933
210.938 -289.062 833
406.25 -164.062 723
-289.062 351.562 1101
-93.75 23.4375 860
-7.8125 85.9375 741
-164.062 -218.75 837
-46.875 429.688 1307
218.75 -54.6875 871
-23.4375 85.9375 742
39.0625 328.125 1149
31.25 156.25 776
265.625 -289.062 821
-85.9375 -93.75 707
39.0625 304.688 940
46.875 -46.875 697
-15.625 101.562 741
125 429.688 1288
-226.562 132.812 813
312.5 -375 882
242.188 70.3125 691
-335.938 304.688 1010
140.625 -203.125 742
70.3125 93.75 716
125 93.75 717
-335.938 203.125 785
-23.4375 -203.125 885
203.125 -54.6875 873
304.688 148.438 757
460.938 187.5 725
7.8125 320.312 959
-109.375 -117.188 734
31.25 0 697
460.938 -414.062 612
250 15.625 657
460.938 312.5 1288
398.438 125 725
187.5 62.5 730
289.062 281.25 1370
250 7.8125 658
320.312 -39.0625 672
328.125 0 653
226.562 250 839
-15.625 320.312 964
156.25 320.312 938
195.312 -320.312 849
54.6875 304.688 940
351.562 -320.312 690
421.875 -398.438 607
78.125 46.875 706
187.5 312.5 940
257.812 15.625 654
7.8125 132.812 742
296.875 -304.688 825
-171.875 312.5 981
234.375 203.125 739
320.312 210.938 731
70.3125 -171.875 835
7.8125 125 742
304.688 234.375 742
312.5 210.938 731
-23.4375 164.062 781
250 109.375 716
359.375 210.938 727
-156.25 312.5 975
187.5 -78.125 889
242.188 -226.562 780
39.0625 320.312 954
484.375 140.625 744
257.812 93.75 697
250 -7.8125 663
-304.688 335.938 1073
-31.25 -23.4375 796
390.625 -429.688 628
-250 -359.375 1193
-218.75 320.312 1181
203.125 390.625 1157
-125 -109.375 738
195.312 -23.4375 730
78.125 320.312 956
437.5 -335.938 621
265.625 101.562 704
164.062 335.938 1138
93.75 70.3125 707
54.6875 109.375 723
-156.25 -78.125 847
195.312 -62.5 878
171.875 312.5 938
23.4375 -312.5 1097
148.438 -203.125 736
-46.875 -320.312 867
101.562 429.688 1288
15.625 -382.812 1173
-171.875 -210.938 809
-132.812 101.562 821
171.875 -312.5 1077
492.188 -203.125 703
-39.0625 429.688 1307
195.312 390.625 1157
257.812 -15.625 667
54.6875 -23.4375 691
117.188 -101.562 698
-312.5 -351.562 1210
-23.4375 78.125 744
390.625 -351.562 620
-78.125 -85.9375 703
304.688 265.625 1359
-179.688 -367.188 1193
-117.188 -39.0625 841
117.188 429.688 1288
367.188 -320.312 679
-15.625 -320.312 867
-7.8125 -476.562 2789
187.5 -85.9375 894
-39.0625 312.5 869
296.875 437.5 1250
203.125 -265.625 1019
492.188 -296.875 643
195.312 359.375 1094
101.562 7.8125 717
382.812 203.125 725
-15.625 -70.3125 688
15.625 320.312 956
-125 281.25 867
-7.8125 -328.125 1123
335.938 -7.8125 655
414.062 203.125 722
164.062 312.5 938
-179.688 -218.75 821
-148.438 -195.312 794
398.438 -343.75 618
-445.312 195.312 800
242.188 -62.5 690
-125 132.812 805
15.625 132.812 744
171.875 -62.5 742
-164.062 312.5 975
-390.625 195.312 794
234.375 -265.625 805
7.8125 46.875 734
-226.562 414.062 1259
265.625 -7.8125 663
226.562 328.125 1022
-7.8125 -31.25 741
-437.5 203.125 800
257.812 -85.9375 700
390.625 -187.5 710
-187.5 -367.188 1193
70.3125 23.4375 710
343.75 -7.8125 654
203.125 398.438 1185
203.125 -421.875 940
179.688 312.5 938
-93.75 210.938 764
218.75 46.875 738
-187.5 312.5 978
-140.625 312.5 975
421.875 0 642
-125 -85.9375 841
0 117.188 741
476.562 -382.812 600
328.125 -7.8125 655
-140.625 0 878
-140.625 -78.125 841
476.562 -406.25 603
242.188 -171.875 747
-320.312 320.312 1044
-148.438 250 880
273.438 140.625 744
-54.6875 -70.3125 693
375 -351.562 652
226.562 -85.9375 700
62.5 -15.625 688
-148.438 273.438 875
226.562 109.375 783
-125 78.125 833
226.562 -312.5 841
-187.5 375 1292
62.5 39.0625 707
-132.812 -70.3125 839
242.188 78.125 697
250 -164.062 741
250 375 1193
257.812 -78.125 696
-85.9375 -109.375 714
132.812 -85.9375 710
437.5 -164.062 720
-171.875 -296.875 1119
-281.25 359.375 1123
-31.25 320.312 967
296.875 -281.25 809
453.125 -335.938 621
390.625 -343.75 623
125 85.9375 716
0 304.688 854
-125 -171.875 867
-226.562 296.875 973
406.25 125 725
460.938 -335.938 620
54.6875 414.062 1307
234.375 117.188 723
281.25 218.75 736
31.25 312.5 956
70.3125 54.6875 706
304.688 210.938 734
-15.625 15.625 759
85.9375 -156.25 727
132.812 -210.938 749
31.25 -78.125 690
125 -93.75 714
375 -343.75 670
250 23.4375 655
-140.625 -171.875 783
23.4375 62.5 727
-226.562 335.938 1169
257.812 257.812 1415
351.562 23.4375 644
398.438 -289.062 647
492.188 -335.938 618
328.125 -351.562 860
250 -140.625 730
-234.375 31.25 873
179.688 -70.3125 711
203.125 -257.812 1013
-109.375 -93.75 719
15.625 257.812 864
242.188 85.9375 701
-132.812 117.188 813
31.25 -304.688 1087
367.188 148.438 750
234.375 15.625 658
406.25 0 643
-234.375 296.875 978
328.125 421.875 1255
-140.625 -281.25 851
296.875 -406.25 831
445.312 -31.25 653
273.438 257.812 1404
179.688 78.125 730
242.188 -54.6875 688
187.5 210.938 741
78.125 23.4375 710
328.125 -359.375 867
-117.188 -46.875 837
171.875 93.75 723
-109.375 132.812 803
-156.25 421.875 1328
156.25 312.5 938
468.75 -15.625 644
296.875 210.938 734
-117.188 281.25 925
257.812 85.9375 687
460.938 -15.625 644
375 -328.125 663
257.812 70.3125 679
-101.562 -23.4375 849
-218.75 0 889
312.5 7.8125 652
132.812 171.875 761
54.6875 -31.25 693
320.312 312.5 1349
265.625 93.75 697
281.25 148.438 762
23.4375 320.312 956
-85.9375 -101.562 710
171.875 312.5 938
250 -156.25 736
468.75 265.625 1302
-70.3125 0 871
421.875 -15.625 649
367.188 289.062 1349
359.375 0 648
-226.562 320.312 1173
70.3125 109.375 720
15.625 117.188 741
320.312 210.938 731
195.312 54.6875 733
242.188 70.3125 691
148.438 312.5 940
171.875 148.438 769
54.6875 109.375 723
-164.062 -359.375 1177
39.0625 -39.0625 697
7.8125 -31.25 706
-132.812 -85.9375 841
250 117.188 720
-140.625 -93.75 851
-23.4375 54.6875 759
0 -328.125 1119
23.4375 132.812 747
437.5 54.6875 658
312.5 -70.3125 687
-125 312.5 978
-453.125 195.312 802
-500 54.6875 891
-210.938 296.875 970
375 265.625 1365
-93.75 -109.375 719
39.0625 85.9375 719
-171.875 312.5 981
234.375 -234.375 785
93.75 117.188 719
210.938 -218.75 984
484.375 -406.25 602
156.25 -203.125 736
257.812 101.562 704
398.438 -351.562 614
-250 0 894
-132.812 -117.188 750
-179.688 335.938 1177
257.812 39.0625 653
484.375 -414.062 607
187.5 312.5 940
-15.625 -328.125 1123
343.75 -296.875 815
468.75 -148.438 708
359.375 289.062 1349
85.9375 414.062 1302
304.688 -148.438 727
-109.375 -70.3125 837
-359.375 195.312 789
195.312 312.5 940
70.3125 -179.688 829
164.062 312.5 938
15.625 -320.312 1112
-148.438 382.812 1359
-218.75 296.875 964
421.875 148.438 744
117.188 -78.125 704
-78.125 -7.8125 875
101.562 148.438 774
312.5 -289.062 815
226.562 234.375 750
203.125 -343.75 869
289.062 156.25 755
203.125 109.375 783
492.188 156.25 733
226.562 257.812 849
351.562 -7.8125 654
187.5 39.0625 728
414.062 -7.8125 647
31.25 62.5 716
250 0 659
203.125 -429.688 946
-156.25 312.5 975
15.625 132.812 744
-484.375 187.5 807
7.8125 39.0625 734
210.938 304.688 928
179.688 312.5 938
242.188 117.188 723
218.75 109.375 785
125 187.5 754
-117.188 132.812 805
218.75 -148.438 923
250 273.438 1398
-93.75 -117.188 722
-78.125 -101.562 710
62.5 -7.8125 688
-140.625 273.438 908
265.625 -7.8125 663
468.75 -406.25 606
203.125 -273.438 1025
70.3125 93.75 716
140.625 312.5 940
343.75 -281.25 802
234.375 382.812 1227
468.75 -359.375 609
257.812 -54.6875 686
257.812 -85.9375 700
265.625 0 659
-132.812 -78.125 839
343.75 234.375 736
359.375 -7.8125 653
406.25 -179.688 713
7.8125 125 742
-23.4375 -226.562 889
343.75 195.312 731
-203.125 382.812 1232
-62.5 -70.3125 694
-265.625 -359.375 1197
375 -429.688 634
203.125 -54.6875 873
-70.3125 -93.75 701
-375 -179.688 1047
453.125 -390.625 603
-93.75 218.75 764
-109.375 39.0625 854
156.25 421.875 1283
203.125 382.812 1145
-171.875 -226.562 829
-7.8125 320.312 964
195.312 -320.312 849
148.438 -218.75 995
390.625 148.438 749
-171.875 406.25 1343
-46.875 -85.9375 710
125 320.312 946
210.938 -351.562 871
210.938 296.875 918
210.938 -375 891
-23.4375 281.25 862
367.188 195.312 730
93.75 -54.6875 697
70.3125 -62.5 703
156.25 312.5 938
-7.8125 31.25 749
-250 7.8125 887
-148.438 312.5 970
218.75 -62.5 873
187.5 406.25 1202
257.812 31.25 653
398.438 -335.938 622
-328.125 343.75 1063
7.8125 210.938 755
234.375 -125 723
125 -234.375 1010
15.625 46.875 728
-156.25 257.812 889
117.188 320.312 946
-312.5 203.125 783
-132.812 312.5 978
-125 7.8125 871
-164.062 312.5 975
210.938 -359.375 878
62.5 -85.9375 691
-23.4375 320.312 964
70.3125 -164.062 835
-93.75 -15.625 854
445.312 -15.625 647
242.188 -234.375 785
7.8125 -312.5 856
62.5 109.375 720
492.188 195.312 716
210.938 -304.688 837
-320.312 -351.562 1210
257.812 -93.75 703
93.75 164.062 767
-257.812 382.812 1185
390.625 203.125 725
109.375 -62.5 700
-296.875 203.125 783
234.375 23.4375 658
242.188 -226.562 780
484.375 -367.188 603
210.938 203.125 741
484.375 210.938 720
-101.562 -15.625 854
429.688 -15.625 648
-109.375 -78.125 837
-421.875 195.312 798
210.938 -296.875 833
7.8125 -46.875 708
210.938 -367.188 887
-164.062 -171.875 792
-273.438 367.188 1141
101.562 -78.125 707
-125 281.25 867
-85.9375 7.8125 867
164.062 93.75 723
140.625 -210.938 742
164.062 -46.875 734
445.312 187.5 727
210.938 312.5 943
-398.438 234.375 901
117.188 -226.562 1010
-85.9375 203.125 767
78.125 15.625 710
23.4375 -312.5 1097
39.0625 -296.875 1080
-164.062 -226.562 837
-250 375 1161
273.438 -7.8125 661
62.5 85.9375 711
312.5 210.938 731
203.125 296.875 913
351.562 70.3125 675
195.312 -328.125 862
31.25 382.812 1343
0 31.25 744
242.188 281.25 887
226.562 351.562 1077
343.75 23.4375 644
171.875 -46.875 731
367.188 -7.8125 650
62.5 7.8125 698
406.25 -7.8125 647
257.812 85.9375 687
234.375 367.188 1189
460.938 -148.438 708
-140.625 312.5 975
93.75 -250 1028
328.125 -7.8125 655
359.375 -210.938 754
250 -171.875 746
281.25 273.438 1387
218.75 -31.25 854
218.75 203.125 742
-78.125 -93.75 704
171.875 312.5 938
-117.188 281.25 925
-289.062 203.125 781
-203.125 296.875 964
31.25 39.0625 711
-351.562 195.312 787
437.5 -335.938 621
203.125 -351.562 871
46.875 101.562 725
257.812 7.8125 657
234.375 -132.812 727
312.5 156.25 754
218.75 273.438 875
70.3125 429.688 1297
250 -39.0625 678
250 109.375 716
132.812 -85.9375 710
445.312 -414.062 613
-304.688 375 1616
195.312 375 1134
15.625 -304.688 856
125 -226.562 1004
39.0625 85.9375 719
-156.25 -195.312 798
78.125 109.375 717
-164.062 359.375 1387
-39.0625 203.125 762
460.938 -406.25 607
437.5 -15.625 647
226.562 -93.75 706
-414.062 -375 2984
-296.875 343.75 1084
320.312 -7.8125 655
179.688 -93.75 898
226.562 265.625 864
23.4375 -78.125 690
195.312 296.875 910
351.562 265.625 1376
257.812 78.125 683
187.5 320.312 943
234.375 -273.438 813
242.188 -78.125 697
-70.3125 -85.9375 700
179.688 78.125 730
-195.312 296.875 962
-7.8125 -70.3125 688
-304.688 398.438 1594
-7.8125 -328.125 1123
39.0625 -210.938 854
-437.5 195.312 800
31.25 -218.75 858
39.0625 -281.25 831
164.062 312.5 938
203.125 203.125 741
195.312 406.25 1202
210.938 -218.75 984
203.125 -437.5 954
265.625 -15.625 667
-70.3125 429.688 1312
-414.062 218.75 807
-210.938 304.688 981
492.188 -7.8125 635
375 -7.8125 648
7.8125 39.0625 734
210.938 132.812 773
39.0625 62.5 713
304.688 210.938 734
156.25 312.5 938
-179.688 320.312 981
390.625 281.25 1354
179.688 320.312 938
-343.75 218.75 792
304.688 -429.688 796
23.4375 265.625 875
406.25 203.125 723
15.625 -218.75 882
281.25 218.75 736
210.938 -328.125 854
-125 -62.5 837
132.812 -218.75 749
335.938 289.062 1359
85.9375 -62.5 701
250 -164.062 741
132.812 312.5 946
304.688 7.8125 653
-54.6875 -320.312 867
250 210.938 736
46.875 15.625 701
125 312.5 946
210.938 -70.3125 882
421.875 125 725
31.25 70.3125 719
179.688 210.938 741
-46.875 -54.6875 693
453.125 -15.625 647
335.938 -7.8125 655
-125 -101.562 849
140.625 312.5 940
-7.8125 101.562 739
179.688 296.875 915
-398.438 132.812 829
312.5 296.875 1359
187.5 296.875 910
-242.188 -39.0625 915
-62.5 203.125 764
-187.5 296.875 959
171.875 406.25 1292
0 -31.25 710
437.5 187.5 725
0 0 734
195.312 -359.375 882
-171.875 -210.938 809
343.75 -7.8125 654
93.75 -242.188 1025
-117.188 -375 1177
281.25 -7.8125 661
-117.188 -46.875 837
-93.75 -23.4375 849
-156.25 312.5 975
78.125 93.75 713
-281.25 203.125 781
-109.375 -31.25 841
39.0625 7.8125 698
54.6875 109.375 723
156.25 -195.312 736
320.312 0 653
484.375 195.312 719
148.438 -132.812 711
-414.062 195.312 796
265.625 -23.4375 671
250 -31.25 675
203.125 -281.25 1034
195.312 85.9375 796
62.5 -265.625 813
335.938 226.562 738
-148.438 312.5 970
289.062 31.25 649
-132.812 -78.125 839
125 101.562 717
210.938 -226.562 989
-54.6875 -85.9375 704
101.562 320.312 948
281.25 0 658
296.875 7.8125 653
-101.562 281.25 867
210.938 -421.875 938
-15.625 85.9375 741
203.125 -445.312 964
-421.875 210.938 800
390.625 0 644
257.812 62.5 671
265.625 210.938 736
218.75 -62.5 873
-39.0625 281.25 862
257.812 23.4375 653
203.125 367.188 1108
0 -382.812 1169
398.438 0 644
85.9375 -257.812 1038
242.188 -242.188 790
-62.5 218.75 761
-343.75 226.562 794
-78.125 281.25 867
-54.6875 281.25 862
257.812 46.875 661
437.5 218.75 723
39.0625 -289.062 831
210.938 -320.312 849
250 -46.875 683
46.875 101.562 725
351.562 250 1387
273.438 31.25 650
492.188 -15.625 637
460.938 406.25 1245
-7.8125 54.6875 742
-148.438 257.812 887
250 -179.688 750
-164.062 320.312 1177
210.938 -335.938 862
-132.812 203.125 767
234.375 -289.062 823
210.938 -398.438 915
-328.125 320.312 1044
15.625 46.875 728
-85.9375 281.25 869
23.4375 132.812 747
125 406.25 1307
-7.8125 70.3125 744
0 -328.125 1119
-304.688 203.125 781
203.125 -359.375 882
210.938 -312.5 841
109.375 -242.188 1019
-132.812 312.5 978
437.5 -328.125 625
85.9375 -31.25 693
218.75 39.0625 752
-23.4375 -328.125 1123
492.188 -367.188 600
164.062 -70.3125 710
226.562 -226.562 781
226.562 23.4375 755
-117.188 312.5 967
273.438 15.625 653
257.812 -109.375 711
-140.625 312.5 975
171.875 320.312 938
179.688 203.125 742
46.875 -203.125 841
257.812 70.3125 679
-351.562 -414.062 2090
-273.438 203.125 781
210.938 -343.75 867
242.188 -85.9375 703
-460.938 -54.6875 962
-15.625 210.938 759
-101.562 312.5 967
234.375 218.75 739
-179.688 296.875 959
-7.8125 62.5 742
117.188 85.9375 713
46.875 93.75 723
62.5 62.5 707
210.938 -414.062 930
273.438 23.4375 650
171.875 296.875 915
226.562 -320.312 847
62.5 109.375 720
476.562 -406.25 603
437.5 203.125 720
-390.625 203.125 794
273.438 218.75 736
-218.75 312.5 984
-54.6875 -78.125 696
-132.812 281.25 871
289.062 218.75 736
78.125 -93.75 694
-171.875 -460.938 2812
-148.438 250 880
-265.625 296.875 984
390.625 257.812 1376
109.375 421.875 1292
-109.375 -375 1177
-117.188 -70.3125 837
335.938 -375 878
-476.562 -390.625 3064
296.875 210.938 734
226.562 -101.562 707
492.188 -203.125 703
265.625 382.812 1219
132.812 312.5 946
15.625 -234.375 873
476.562 312.5 1264
109.375 312.5 946
-429.688 210.938 802
-203.125 304.688 984
-195.312 390.625 1268
-156.25 -195.312 798
23.4375 39.0625 716
468.75 -406.25 606
-492.188 187.5 809
242.188 375 1193
375 -320.312 668
156.25 320.312 938
398.438 -187.5 710
31.25 -7.8125 696
-101.562 -46.875 839
-85.9375 -15.625 882
54.6875 -281.25 827
242.188 -125 722
226.562 242.188 750
406.25 -359.375 610
195.312 382.812 1145
367.188 39.0625 648
23.4375 -70.3125 688
-187.5 -367.188 1193
7.8125 -78.125 690
257.812 -101.562 706
296.875 0 655
304.688 195.312 738
210.938 -406.25 923
250 -15.625 668
351.562 234.375 734
-23.4375 335.938 1157
257.812 -117.188 716
117.188 312.5 946
390.625 -398.438 614
210.938 351.562 1077
78.125 -250 805
109.375 429.688 1288
234.375 -140.625 730
125 62.5 708
226.562 -296.875 831
-164.062 312.5 975
-476.562 187.5 807
453.125 187.5 725
226.562 250 839
23.4375 31.25 716
-125 -62.5 837
125 -70.3125 704
406.25 -15.625 650
125 312.5 946
382.812 210.938 725
78.125 320.312 956
210.938 -359.375 878
-125 335.938 1173
-23.4375 429.688 1312
-179.688 414.062 1307
-125 -156.25 771
289.062 -437.5 798
-445.312 203.125 802
-406.25 226.562 802
398.438 203.125 725
390.625 203.125 725
-23.4375 70.3125 747
164.062 -343.75 1108
242.188 -234.375 785
-85.9375 -23.4375 854
265.625 -31.25 674
-445.312 250 1785
46.875 70.3125 711
343.75 234.375 736
203.125 -78.125 887
-382.812 -398.438 2078
-250 335.938 1105
-62.5 -85.9375 698
234.375 -117.188 717
-7.8125 101.562 739
250 -187.5 757
492.188 195.312 716
-70.3125 -203.125 882
-187.5 304.688 978
-132.812 -125 750
281.25 273.438 1387
93.75 0 725
46.875 -273.438 829
0 210.938 755
-187.5 343.75 1307
382.812 -203.125 703
0 -7.8125 736
-492.188 31.25 903
250 -7.8125 663
210.938 -382.812 901
195.312 -335.938 862
0 -23.4375 741
-46.875 164.062 781
476.562 -257.812 668
125 -85.9375 708
250 -85.9375 701
437.5 -195.312 706
226.562 -218.75 776
85.9375 -156.25 727
257.812 54.6875 664
382.812 203.125 725
179.688 -78.125 889
31.25 -296.875 843
398.438 164.062 739
156.25 312.5 938
-328.125 312.5 1022
-148.438 -203.125 851
78.125 -54.6875 697
-148.438 320.312 1173
125 -101.562 701
-109.375 312.5 967
273.438 39.0625 654
117.188 93.75 716
7.8125 -328.125 1119
0 117.188 741
398.438 -382.812 606
-93.75 312.5 967
164.062 406.25 1292
-195.312 15.625 878
-125 312.5 978
421.875 54.6875 659
429.688 -390.625 604
156.25 203.125 746
179.688 296.875 915
109.375 -78.125 706
179.688 406.25 1292
484.375 -203.125 704
195.312 296.875 910
484.375 195.312 719
304.688 273.438 1370
-132.812 -101.562 851
148.438 296.875 918
140.625 312.5 940
429.688 -15.625 648
31.25 210.938 754
46.875 39.0625 710
398.438 -15.625 652
273.438 265.625 1398
-257.812 328.125 1080
-125 -468.75 2812
390.625 273.438 1359
250 -171.875 746
-148.438 312.5 970
-312.5 359.375 1108
-39.0625 -312.5 867
-257.812 -62.5 935
39.0625 -179.688 862
-70.3125 -304.688 862
195.312 328.125 943
148.438 312.5 940
375 -304.688 667
265.625 -23.4375 671
-46.875 -312.5 867
85.9375 -242.188 790
-15.625 85.9375 741
273.438 0 658
406.25 210.938 723
39.0625 125 742
31.25 -23.4375 696
257.812 125 728
375 0 647
23.4375 -15.625 698
78.125 -265.625 1041
210.938 -375 891
445.312 -406.25 610
320.312 70.3125 675
93.75 312.5 948
234.375 -148.438 733
54.6875 15.625 706
390.625 250 1381
-140.625 382.812 1359
62.5 -281.25 1063
257.812 -15.625 667
320.312 -265.625 796
-234.375 406.25 1241
484.375 -406.25 602
-156.25 320.312 1173
-156.25 -460.938 2812
265.625 406.25 1278
335.938 23.4375 646
156.25 -203.125 736
476.562 -203.125 701
-85.9375 320.312 967
367.188 -335.938 670
-101.562 312.5 967
-132.812 -164.062 780
54.6875 -195.312 837
23.4375 54.6875 717
453.125 -406.25 608
70.3125 -273.438 1054
296.875 156.25 755
0 109.375 739
257.812 -93.75 703
179.688 156.25 764
210.938 -210.938 978
-46.875 281.25 862
406.25 414.062 1250
414.062 -15.625 650
-125 273.438 913
-312.5 257.812 920
-234.375 351.562 1149
242.188 -93.75 706
-210.938 62.5 851
484.375 -250 674
-78.125 -46.875 697
203.125 296.875 913
265.625 -250 794
437.5 296.875 1297
468.75 148.438 742
-429.688 195.312 800
31.25 328.125 1149
23.4375 140.625 752
85.9375 -164.062 813
-140.625 304.688 878
210.938 -351.562 871
-171.875 296.875 959
375 203.125 725
492.188 218.75 722
-62.5 23.4375 856
117.188 101.562 717
398.438 304.688 1333
-132.812 312.5 978
-23.4375 312.5 867
203.125 -273.438 1025
109.375 312.5 946
125 312.5 946
85.9375 85.9375 710
93.75 429.688 1292
476.562 -250 674
406.25 15.625 638
-117.188 312.5 967
70.3125 312.5 954
-62.5 132.812 800
242.188 -250 796
445.312 -171.875 722
226.562 -54.6875 688
460.938 -250 674
125 437.5 1288
-54.6875 -476.562 2789
476.562 421.875 1232
93.75 -234.375 780
257.812 -109.375 711
-109.375 -39.0625 841
171.875 -164.062 722
390.625 226.562 731
257.812 109.375 710
203.125 -62.5 878
-171.875 398.438 1343
328.125 -7.8125 655
226.562 -85.9375 700
390.625 132.812 733
85.9375 93.75 713
-62.5 312.5 864
-78.125 312.5 869
-140.625 312.5 975
54.6875 320.312 959
-23.4375 304.688 867
390.625 -195.312 707
445.312 -312.5 632
257.812 0 659
187.5 -343.75 1105
-210.938 296.875 970
23.4375 78.125 730
273.438 210.938 736
117.188 312.5 946
468.75 -7.8125 642
195.312 -70.3125 885
390.625 242.188 738
-117.188 -54.6875 835
31.25 70.3125 719
195.312 -328.125 862
-132.812 -132.812 759
-125 -62.5 837
54.6875 429.688 1297
421.875 156.25 741
-132.812 -85.9375 841
-109.375 171.875 783
-210.938 0 889
-289.062 -132.812 992
-23.4375 -328.125 1123
171.875 296.875 915
203.125 437.5 1264
265.625 -31.25 674
-54.6875 15.625 858
-203.125 -62.5 928
460.938 -406.25 607
328.125 -54.6875 679
437.5 -414.062 615
-39.0625 -85.9375 710
203.125 148.438 767
-484.375 296.875 1731
109.375 148.438 774
226.562 265.625 864
304.688 -54.6875 682
-7.8125 93.75 739
203.125 304.688 923
132.812 -93.75 713
-39.0625 312.5 869
406.25 -328.125 625
375 125 725
226.562 -117.188 717
320.312 -421.875 792
101.562 -70.3125 703
453.125 -273.438 655
46.875 93.75 723
-148.438 296.875 875
-203.125 93.75 833
218.75 -281.25 821
421.875 -406.25 611
250 -328.125 851
242.188 93.75 711
62.5 -187.5 835
23.4375 -226.562 862
31.25 148.438 781
265.625 -39.0625 676
164.062 312.5 938
46.875 312.5 954
-484.375 15.625 910
0 7.8125 734
320.312 -7.8125 655
-93.75 312.5 967
390.625 -7.8125 648
375 -296.875 670
296.875 -117.188 711
117.188 406.25 1307
7.8125 -7.8125 731
375 -7.8125 648
242.188 -101.562 707
54.6875 437.5 1297
203.125 351.562 1073
-101.562 312.5 967
250 101.562 707
210.938 -437.5 954
-195.312 39.0625 860
85.9375 7.8125 722
187.5 421.875 1273
54.6875 7.8125 698
-62.5 -476.562 2789
-140.625 250 880
375 -187.5 714
-125 -70.3125 837
-187.5 -171.875 1007
-70.3125 421.875 1317
-109.375 -15.625 851
46.875 164.062 773
312.5 -390.625 894
70.3125 -171.875 835
421.875 281.25 1317
-203.125 312.5 987
210.938 164.062 761
132.812 203.125 747
-140.625 273.438 908
242.188 -132.812 725
242.188 109.375 720
203.125 312.5 940
101.562 312.5 948
257.812 -125 719
-109.375 312.5 967
-23.4375 23.4375 766
54.6875 101.562 722
85.9375 109.375 717
156.25 296.875 915
351.562 312.5 1333
-250 203.125 778
367.188 203.125 727
421.875 -15.625 649
78.125 312.5 951
312.5 195.312 734
-46.875 -54.6875 693
-132.812 320.312 978
-187.5 312.5 978
78.125 78.125 708
-31.25 320.312 967
226.562 -109.375 716
164.062 85.9375 725
265.625 -7.8125 663
210.938 -226.562 989
492.188 179.688 720
-242.188 -414.062 2883
39.0625 320.312 954
421.875 -414.062 618
203.125 343.75 1047
0 312.5 959
382.812 -7.8125 648
-78.125 -109.375 714
250 -23.4375 671
-476.562 -7.8125 928
-46.875 312.5 964
-304.688 -421.875 3037
-70.3125 312.5 867
203.125 -289.062 833
296.875 218.75 734
250 -195.312 759
70.3125 -179.688 829
437.5 15.625 636
234.375 -312.5 841
-125 312.5 978
15.625 320.312 956
171.875 -203.125 975
109.375 312.5 946
390.625 265.625 1359
-156.25 296.875 875
281.25 218.75 736
250 -187.5 757
54.6875 312.5 954
-125 -93.75 845
484.375 -23.4375 646
-117.188 -375 1177
-39.0625 289.062 862
390.625 218.75 725
312.5 289.062 1370
210.938 -312.5 841
203.125 -453.125 973
-54.6875 -70.3125 693
257.812 46.875 661
-218.75 367.188 1181
289.062 -429.688 805
484.375 -15.625 643
289.062 0 657
23.4375 46.875 717
242.188 -242.188 790
304.688 -7.8125 659
117.188 -234.375 1013
-335.938 226.562 794
375 -15.625 654
-132.812 -78.125 839
132.812 320.312 946
-195.312 312.5 978
117.188 421.875 1292
-46.875 -85.9375 710
-117.188 -468.75 2812
85.9375 312.5 948
62.5 312.5 954
-117.188 -78.125 837
171.875 -70.3125 711
234.375 109.375 720
390.625 -15.625 653
-234.375 203.125 778
312.5 0 654
359.375 0 648
-7.8125 320.312 964
-23.4375 -226.562 889
125 203.125 747
445.312 -335.938 620
-125 203.125 769
125 -101.562 701
-62.5 -78.125 697
156.25 -31.25 730
257.812 -132.812 723
265.625 -54.6875 686
-265.625 203.125 781
-15.625 312.5 867
171.875 -132.812 928
210.938 -54.6875 873
375 281.25 1359
453.125 140.625 747
210.938 -390.625 908
203.125 93.75 792
257.812 250 1421
-265.625 -359.375 1197
328.125 257.812 1398
242.188 -148.438 733
-31.25 312.5 867
164.062 296.875 915
203.125 -359.375 882
62.5 -234.375 805
210.938 210.938 739
359.375 31.25 644
31.25 140.625 754
15.625 242.188 759
109.375 93.75 716
195.312 70.3125 736
367.188 312.5 1333
210.938 359.375 1087
-460.938 195.312 803
445.312 -250 671
148.438 203.125 746
210.938 -70.3125 882
171.875 54.6875 720
-117.188 -7.8125 882
125 312.5 946
46.875 7.8125 698
226.562 -210.938 773
54.6875 78.125 711
-15.625 78.125 742
-148.438 -187.5 794
-54.6875 296.875 864
468.75 -15.625 644
-23.4375 289.062 862
-117.188 -93.75 843
382.812 203.125 725
-265.625 -414.062 2859
-500 -70.3125 2271
-257.812 375 1157
-164.062 -210.938 839
-101.562 -54.6875 837
195.312 -335.938 862
132.812 -234.375 1007
-23.4375 320.312 964
273.438 46.875 659
257.812 382.812 1214
-7.8125 312.5 964
-187.5 382.812 1292
-382.812 250 920
-23.4375 109.375 747
39.0625 421.875 1307
23.4375 171.875 771
-15.625 328.125 1153
-23.4375 93.75 742
93.75 -93.75 694
140.625 85.9375 719
-15.625 62.5 747
-78.125 7.8125 867
-23.4375 109.375 747
-70.3125 -476.562 2767
195.312 7.8125 728
-15.625 -328.125 1123
429.688 140.625 747
-140.625 -179.688 789
-148.438 -210.938 851
-312.5 328.125 1057
15.625 -226.562 878
-23.4375 78.125 744
492.188 -23.4375 641
140.625 -85.9375 710
132.812 296.875 918
31.25 62.5 716
195.312 312.5 940
234.375 226.562 746
78.125 -78.125 690
78.125 -78.125 690
-281.25 296.875 989
-101.562 -31.25 841
125 296.875 918
-406.25 195.312 794
-78.125 312.5 869
46.875 398.438 1328
101.562 312.5 948
54.6875 -273.438 827
85.9375 54.6875 704
-171.875 -218.75 821
148.438 296.875 918
234.375 218.75 739
-101.562 312.5 967
-468.75 -31.25 940
203.125 -78.125 887
296.875 -7.8125 661
320.312 304.688 1354
46.875 78.125 716
46.875 429.688 1297
-187.5 398.438 1283
117.188 296.875 920
85.9375 -390.625 2744
-54.6875 312.5 964
148.438 -7.8125 719
335.938 281.25 1365
-148.438 320.312 1173
-125 -70.3125 837
-148.438 242.188 780
-453.125 187.5 803
-382.812 265.625 946
39.0625 -304.688 1087
15.625 312.5 956
-93.75 312.5 967
-85.9375 312.5 967
31.25 85.9375 723
70.3125 85.9375 710
125 320.312 946
-39.0625 -78.125 696
453.125 -242.188 676
-109.375 304.688 867
70.3125 -31.25 691
429.688 -398.438 607
265.625 -39.0625 676
31.25 312.5 956
289.062 296.875 1126
289.062 281.25 1370
281.25 -429.688 809
226.562 -218.75 776
23.4375 250 856
148.438 320.312 940
0 109.375 739
335.938 -382.812 882
54.6875 101.562 722
54.6875 -289.062 1067
484.375 312.5 1250
367.188 -7.8125 650
-93.75 -31.25 845
117.188 320.312 946
304.688 -289.062 817
23.4375 312.5 956
-226.562 406.25 1241
-359.375 273.438 954
46.875 312.5 954
257.812 15.625 654
375 -289.062 670
164.062 -54.6875 741
492.188 -140.625 697
-39.0625 312.5 869
-171.875 -257.812 841
-273.438 203.125 781
453.125 -187.5 713
70.3125 -70.3125 706
93.75 85.9375 710
7.8125 31.25 728
-7.8125 -54.6875 688
-46.875 312.5 964
406.25 -320.312 630
-23.4375 312.5 867
242.188 -257.812 800
164.062 31.25 716
54.6875 -46.875 697
-117.188 312.5 967
-304.688 265.625 933
46.875 0 694
-31.25 -328.125 1123
117.188 312.5 946
281.25 132.812 736
-70.3125 312.5 867
-460.938 -54.6875 962
187.5 312.5 940
101.562 203.125 749
492.188 -257.812 668
-132.812 296.875 871
46.875 93.75 723
-62.5 312.5 864
460.938 304.688 1259
-304.688 375 1616
406.25 -15.625 650
-23.4375 62.5 749
468.75 140.625 746
468.75 132.812 727
382.812 328.125 1317
484.375 203.125 719
46.875 -296.875 1080
-140.625 296.875 878
156.25 296.875 915
101.562 93.75 714
-93.75 -117.188 722
93.75 93.75 713
406.25 -335.938 621
-335.938 296.875 995
250 -203.125 764
250 -179.688 750
414.062 187.5 725
-132.812 -171.875 780
101.562 15.625 711
117.188 62.5 707
-109.375 375 1365
367.188 203.125 727
-54.6875 -281.25 867
-187.5 312.5 978
398.438 -15.625 652
93.75 312.5 948
15.625 39.0625 725
-109.375 -39.0625 841
179.688 -109.375 908
-85.9375 -117.188 720
85.9375 -164.062 813
-125 273.438 913
-7.8125 101.562 739
101.562 -85.9375 710
-375 257.812 933
-210.938 421.875 1288
-15.625 429.688 1312
-210.938 312.5 981
23.4375 429.688 1302
468.75 -203.125 700
-179.688 -250 839
476.562 -218.75 693
132.812 -226.562 1001
257.812 -85.9375 700
-289.062 343.75 1084
445.312 -195.312 707
171.875 -195.312 970
468.75 -195.312 707
-195.312 312.5 978
265.625 -54.6875 686
250 -195.312 759
85.9375 312.5 948
54.6875 0 694
-23.4375 54.6875 759
78.125 312.5 951
398.438 -367.188 608
-218.75 203.125 778
-15.625 312.5 867
179.688 312.5 938
46.875 -281.25 829
62.5 312.5 954
-445.312 187.5 803
78.125 -62.5 701
39.0625 -31.25 694
-78.125 -101.562 710
328.125 -15.625 661
-296.875 203.125 783
289.062 -7.8125 659
171.875 312.5 938
109.375 15.625 711
-93.75 -23.4375 849
328.125 398.438 1273
23.4375 203.125 755
218.75 -70.3125 878
-460.938 203.125 803
359.375 -7.8125 653
210.938 -320.312 849
54.6875 312.5 954
101.562 296.875 918
265.625 -62.5 688
460.938 -15.625 644
-125 320.312 978
257.812 -125 719
-500 46.875 894
-179.688 312.5 981
382.812 -304.688 653
140.625 -85.9375 710
164.062 312.5 938
460.938 195.312 720
398.438 -390.625 607
312.5 -7.8125 657
-70.3125 -101.562 701
-171.875 203.125 771
-31.25 312.5 867
359.375 203.125 728
-140.625 320.312 975
-93.75 -125 722
-179.688 203.125 773
132.812 -453.125 2812
195.312 -343.75 869
226.562 -117.188 717
234.375 210.938 739
-117.188 273.438 913
351.562 0 649
226.562 257.812 849
-148.438 296.875 875
132.812 -125 706
7.8125 -320.312 1115
-46.875 -54.6875 693
-7.8125 312.5 964
468.75 -343.75 616
367.188 234.375 736
-31.25 109.375 747
375 -281.25 687
-171.875 312.5 981
0 414.062 1322
-140.625 273.438 908
-140.625 109.375 817
234.375 234.375 749
484.375 179.688 727
-46.875 -93.75 711
-117.188 296.875 867
140.625 320.312 940
148.438 -226.562 1001
54.6875 101.562 722
62.5 85.9375 711
117.188 414.062 1302
476.562 -7.8125 641
62.5 23.4375 711
-234.375 398.438 1223
421.875 -93.75 686
-179.688 -234.375 829
289.062 -421.875 819
-312.5 320.312 1041
265.625 -46.875 680
-320.312 312.5 1022
312.5 398.438 1278
-125 296.875 867
93.75 203.125 750
-234.375 -453.125 2812
93.75 54.6875 706
0 429.688 1307
-132.812 -101.562 851
468.75 -23.4375 648
78.125 -164.062 825
195.312 -273.438 1034
7.8125 -429.688 2908
476.562 195.312 720
-335.938 320.312 1041
93.75 -85.9375 694
-164.062 -210.938 839
23.4375 -320.312 1108
156.25 -210.938 987
164.062 156.25 766
250 101.562 707
445.312 -406.25 610
171.875 156.25 764
-203.125 312.5 987
78.125 203.125 754
85.9375 406.25 1312
453.125 -406.25 608
187.5 -70.3125 887
31.25 31.25 710
453.125 -414.062 613
46.875 85.9375 716
-226.562 328.125 1173
140.625 62.5 711
7.8125 312.5 959
156.25 406.25 1297
273.438 -148.438 730
-242.188 390.625 1206
453.125 -15.625 647
203.125 46.875 736
398.438 156.25 744
281.25 195.312 739
15.625 125 742
-312.5 -421.875 2984
101.562 320.312 948
-125 -148.438 764
156.25 -218.75 992
203.125 -289.062 833
109.375 296.875 920
101.562 -78.125 707
375 312.5 1328
265.625 -70.3125 691
-15.625 -54.6875 688
7.8125 117.188 741
-335.938 -351.562 2198
101.562 406.25 1307
93.75 296.875 918
-351.562 281.25 967
-210.938 203.125 774
-203.125 429.688 1317
0 85.9375 739
210.938 -328.125 854
-132.812 -93.75 847
-328.125 234.375 794
-250 382.812 1177
242.188 -101.562 707
109.375 406.25 1307
132.812 296.875 918
-23.4375 312.5 867
195.312 78.125 734
-85.9375 -109.375 714
390.625 281.25 1354
304.688 -390.625 896
-328.125 304.688 1013
-7.8125 -78.125 688
-78.125 312.5 869
140.625 296.875 918
-39.0625 312.5 869
93.75 -218.75 774
31.25 62.5 716
117.188 296.875 920
-23.4375 62.5 749
62.5 78.125 710
156.25 312.5 938
484.375 218.75 727
-109.375 273.438 903
414.062 -15.625 650
-164.062 312.5 975
-46.875 312.5 964
-117.188 -54.6875 835
31.25 312.5 956
-140.625 265.625 896
62.5 -31.25 693
-445.312 125 839
-273.438 359.375 1123
23.4375 125 746
273.438 367.188 1185
-54.6875 -312.5 867
492.188 218.75 722
406.25 -343.75 616
101.562 -250 1025
-406.25 382.812 1624
257.812 -140.625 728
343.75 203.125 730
250 -78.125 696
85.9375 304.688 935
93.75 -101.562 697
234.375 -257.812 802
460.938 -23.4375 648
23.4375 -304.688 845
78.125 304.688 938
101.562 -39.0625 693
0 312.5 959
