ply
format ascii 1.0
comment Created by Open3D
element vertex 2383
property double x
property double y
property double z
end_header
31.25 -375 794
-406.25 -312.5 1302
289.062 -78.125 666
70.3125 -85.9375 825
-250 -187.5 906
265.625 -234.375 928
-203.125 -109.375 864
-320.312 78.125 762
406.25 -375 2579
132.812 -312.5 764
289.062 -70.3125 667
226.562 -375 769
-335.938 0 802
210.938 -54.6875 666
-312.5 62.5 764
-273.438 -460.938 3300
-398.438 -23.4375 873
210.938 -234.375 717
-296.875 242.188 843
-265.625 -93.75 849
281.25 195.312 610
250 -78.125 663
-445.312 -445.312 3092
335.938 179.688 674
46.875 -117.188 707
-171.875 -148.438 742
179.688 320.312 619
7.8125 351.562 621
23.4375 7.8125 757
289.062 304.688 622
101.562 390.625 595
-39.0625 -148.438 662
39.0625 -390.625 785
-101.562 -171.875 678
257.812 281.25 608
-281.25 93.75 746
257.812 -390.625 809
-148.438 -203.125 684
-398.438 -203.125 954
-203.125 -218.75 1057
15.625 7.8125 750
62.5 -203.125 908
-304.688 -23.4375 815
195.312 -328.125 762
-218.75 312.5 803
78.125 382.812 597
-101.562 -132.812 706
242.188 -312.5 787
39.0625 367.188 609
179.688 312.5 623
-125 -250 691
-148.438 -140.625 731
-257.812 -117.188 946
171.875 -125 734
-171.875 -140.625 746
-304.688 273.438 1536
-335.938 273.438 1550
-296.875 78.125 754
39.0625 -148.438 693
257.812 -101.562 730
210.938 -250 717
-250 343.75 1470
-367.188 -460.938 3064
-429.688 -179.688 910
-304.688 -31.25 819
-242.188 -187.5 906
70.3125 -101.562 835
296.875 -85.9375 671
-359.375 -265.625 1019
187.5 -101.562 671
328.125 -101.562 678
46.875 23.4375 762
-31.25 -414.062 2432
164.062 437.5 575
359.375 -132.812 849
-117.188 -31.25 800
195.312 187.5 649
15.625 335.938 620
-406.25 -85.9375 862
-367.188 -468.75 3064
359.375 242.188 646
468.75 -195.312 891
-359.375 -23.4375 873
-85.9375 -23.4375 780
296.875 289.062 628
164.062 -218.75 742
164.062 -171.875 747
-289.062 -93.75 913
265.625 289.062 606
203.125 468.75 560
265.625 -171.875 755
-382.812 -39.0625 878
265.625 265.625 610
265.625 156.25 619
187.5 -171.875 731
265.625 -85.9375 666
-406.25 -203.125 948
-476.562 46.875 964
250 -101.562 730
171.875 -156.25 759
312.5 273.438 635
226.562 -335.938 771
-70.3125 289.062 647
85.9375 382.812 597
70.3125 -375 767
-242.188 -414.062 1421
-445.312 335.938 1713
203.125 -187.5 730
-304.688 70.3125 759
-218.75 -148.438 1013
-250 148.438 731
304.688 257.812 641
203.125 -93.75 671
-421.875 -187.5 918
-148.438 -195.312 688
-437.5 7.8125 903
-117.188 -257.812 698
-414.062 179.688 1572
-460.938 85.9375 938
78.125 -195.312 906
234.375 39.0625 747
328.125 -93.75 678
-382.812 -171.875 987
265.625 -78.125 663
210.938 -203.125 730
-54.6875 281.25 644
31.25 -85.9375 713
140.625 273.438 615
-289.062 78.125 754
335.938 -171.875 713
148.438 -289.062 771
-476.562 -265.625 1255
-46.875 -93.75 701
-85.9375 -85.9375 730
-414.062 367.188 1680
-375 -109.375 862
132.812 -93.75 698
-23.4375 343.75 654
62.5 -125 849
273.438 -265.625 954
70.3125 -70.3125 815
359.375 -117.188 837
-125 -265.625 704
-117.188 343.75 783
31.25 -390.625 794
-476.562 -117.188 1090
-125 -390.625 1343
265.625 -226.562 747
187.5 242.188 619
62.5 367.188 607
-148.438 -398.438 1370
-492.188 23.4375 978
218.75 242.188 616
257.812 -140.625 774
31.25 -398.438 796
7.8125 -328.125 819
-257.812 -140.625 943
-351.562 -93.75 864
-453.125 -281.25 1268
-453.125 375 1671
-328.125 265.625 1550
335.938 250 628
-437.5 -23.4375 889
265.625 -101.562 730
-437.5 -15.625 894
-31.25 296.875 638
273.438 148.438 619
273.438 -242.188 933
203.125 -195.312 728
359.375 -140.625 854
93.75 -54.6875 803
-226.562 -421.875 1421
-414.062 -195.312 933
-421.875 -179.688 913
281.25 226.562 621
226.562 -398.438 774
195.312 296.875 630
195.312 -195.312 728
375 460.938 555
164.062 -140.625 762
70.3125 -398.438 769
31.25 343.75 618
-382.812 -265.625 995
-406.25 -54.6875 903
195.312 179.688 648
210.938 -195.312 752
171.875 210.938 632
-31.25 -210.938 662
156.25 -273.438 778
343.75 -164.062 713
-359.375 -109.375 862
210.938 -257.812 711
-132.812 -117.188 738
-179.688 -117.188 864
359.375 -125 843
273.438 -250 940
39.0625 -101.562 719
312.5 -7.8125 771
265.625 281.25 606
453.125 -203.125 894
476.562 -195.312 889
125 -281.25 776
210.938 -39.0625 700
-15.625 -210.938 659
-210.938 -93.75 851
226.562 -140.625 774
-250 -164.062 878
-148.438 320.312 794
148.438 -335.938 757
-421.875 -39.0625 885
484.375 351.562 592
414.062 -226.562 913
203.125 312.5 622
265.625 -164.062 761
-78.125 -218.75 668
179.688 445.312 569
195.312 -210.938 727
-46.875 -156.25 659
-335.938 -23.4375 815
171.875 -148.438 762
70.3125 -109.375 841
234.375 -210.938 738
351.562 273.438 632
54.6875 -109.375 727
-226.562 -85.9375 847
265.625 -195.312 742
-343.75 -351.562 1343
-375 250 1739
-70.3125 -234.375 676
179.688 -109.375 672
289.062 -78.125 666
132.812 -359.375 755
-312.5 -78.125 864
359.375 171.875 675
-257.812 -101.562 989
148.438 -359.375 755
-125 -85.9375 755
-226.562 -125 869
-62.5 -156.25 666
265.625 -296.875 815
39.0625 -132.812 704
-320.312 70.3125 764
-23.4375 296.875 638
-250 -171.875 885
-273.438 -46.875 827
328.125 195.312 667
140.625 257.812 619
-234.375 -78.125 843
-320.312 -429.688 3149
-445.312 -289.062 1278
31.25 -125 700
-343.75 -93.75 867
-429.688 273.438 1785
-78.125 109.375 727
-320.312 -117.188 860
54.6875 -359.375 778
-367.188 -265.625 1013
85.9375 -250 811
210.938 -265.625 710
-304.688 -54.6875 833
-468.75 54.6875 959
210.938 -218.75 725
296.875 -359.375 2767
-257.812 109.375 734
46.875 -406.25 785
-70.3125 -54.6875 742
226.562 -312.5 778
257.812 -359.375 789
296.875 -320.312 2680
335.938 171.875 676
-500 39.0625 984
-210.938 -54.6875 829
46.875 -320.312 785
187.5 -250 720
54.6875 -148.438 871
164.062 445.312 571
0 -164.062 649
-328.125 -359.375 1365
-242.188 -70.3125 839
-429.688 -85.9375 871
-265.625 101.562 741
-187.5 -117.188 867
-132.812 -125 731
187.5 -187.5 728
289.062 242.188 642
-242.188 125 727
-218.75 226.562 845
62.5 -210.938 918
-273.438 -312.5 1034
187.5 -179.688 730
195.312 -179.688 730
460.938 -140.625 847
-320.312 -468.75 3092
-460.938 -23.4375 933
-382.812 -328.125 1317
-234.375 -203.125 930
-187.5 -85.9375 845
273.438 -234.375 928
-320.312 -226.562 1060
-148.438 -23.4375 803
265.625 -93.75 666
-367.188 46.875 789
-101.562 -7.8125 790
31.25 -375 794
468.75 -70.3125 803
460.938 390.625 580
-210.938 -156.25 1016
70.3125 -62.5 811
-15.625 312.5 631
179.688 -171.875 757
-23.4375 -296.875 1232
-54.6875 -156.25 662
-484.375 -421.875 3010
250 -281.25 807
195.312 234.375 619
-437.5 7.8125 903
-210.938 148.438 713
226.562 296.875 627
-70.3125 -62.5 736
328.125 257.812 628
328.125 164.062 682
-242.188 -62.5 835
-273.438 320.312 1496
242.188 -109.375 734
429.688 429.688 564
-101.562 -78.125 747
-109.375 -93.75 739
-429.688 -164.062 898
218.75 265.625 618
-281.25 312.5 1503
-140.625 -62.5 789
179.688 -101.562 672
304.688 -70.3125 674
-476.562 -421.875 3010
-85.9375 257.812 655
-320.312 226.562 856
265.625 296.875 606
-15.625 -85.9375 688
0 320.312 627
-171.875 -70.3125 835
-421.875 -78.125 867
226.562 -226.562 731
164.062 -398.438 757
-429.688 117.188 930
-132.812 218.75 675
132.812 328.125 619
-359.375 117.188 913
453.125 -46.875 789
-250 132.812 725
382.812 312.5 612
148.438 -109.375 686
179.688 -250 722
101.562 -39.0625 796
-281.25 7.8125 794
132.812 265.625 615
218.75 195.312 631
-85.9375 -15.625 787
117.188 -445.312 749
-85.9375 -226.562 675
-320.312 210.938 858
-367.188 -250 1007
-226.562 -132.812 1019
70.3125 -132.812 856
70.3125 -125 849
-398.438 203.125 1609
-375 -234.375 998
-406.25 -109.375 873
-437.5 -445.312 3092
-171.875 -125 752
-187.5 -109.375 862
-39.0625 203.125 682
-343.75 7.8125 798
46.875 -335.938 783
-304.688 171.875 878
335.938 179.688 674
-179.688 -140.625 746
-468.75 -429.688 3037
328.125 -78.125 678
132.812 -429.688 752
296.875 164.062 618
226.562 -273.438 700
70.3125 -117.188 845
-398.438 -210.938 959
265.625 -187.5 746
-289.062 -85.9375 913
-406.25 -312.5 1302
265.625 -156.25 762
-39.0625 -85.9375 704
281.25 218.75 616
-148.438 -210.938 682
-500 -250 1236
320.312 367.188 594
-117.188 226.562 672
-187.5 -273.438 1227
265.625 -78.125 663
210.938 242.188 616
70.3125 -421.875 776
179.688 289.062 616
-273.438 101.562 741
-125 -429.688 3120
-132.812 -242.188 688
242.188 -242.188 720
-218.75 -85.9375 845
-414.062 7.8125 885
-304.688 -23.4375 815
351.562 -156.25 867
281.25 289.062 604
-140.625 -164.062 706
343.75 226.562 638
242.188 -101.562 731
-226.562 -140.625 1013
-218.75 -234.375 959
359.375 164.062 680
-156.25 210.938 682
195.312 460.938 565
54.6875 15.625 766
281.25 273.438 609
-203.125 390.625 1433
265.625 -273.438 959
-234.375 -93.75 854
-171.875 187.5 693
164.062 -359.375 757
54.6875 -406.25 780
70.3125 -156.25 873
210.938 -234.375 717
62.5 281.25 640
273.438 -226.562 925
-54.6875 273.438 649
-273.438 93.75 746
312.5 195.312 615
320.312 -31.25 785
70.3125 -140.625 862
-281.25 -312.5 1031
101.562 -31.25 792
70.3125 -171.875 887
-78.125 -62.5 741
242.188 203.125 628
-367.188 109.375 918
257.812 203.125 613
31.25 -367.188 792
39.0625 -140.625 698
281.25 -31.25 711
203.125 -445.312 783
210.938 265.625 618
-250 -93.75 854
-382.812 -234.375 984
195.312 -93.75 671
70.3125 -148.438 869
148.438 257.812 623
-7.8125 -15.625 733
140.625 421.875 580
-148.438 -203.125 684
-429.688 -296.875 1283
195.312 -140.625 733
39.0625 -359.375 785
210.938 273.438 619
15.625 421.875 742
-351.562 187.5 878
195.312 -187.5 728
-31.25 320.312 631
257.812 -273.438 821
242.188 -296.875 789
281.25 187.5 610
-335.938 -117.188 860
-304.688 -375 1381
210.938 -109.375 719
-312.5 -15.625 809
296.875 -351.562 2744
-195.312 -257.812 1206
250 289.062 609
296.875 -312.5 2659
210.938 -164.062 731
-375 234.375 1594
-320.312 -218.75 1054
148.438 -320.312 762
179.688 468.75 562
125 281.25 614
7.8125 -320.312 821
265.625 -148.438 766
257.812 179.688 612
-460.938 -429.688 3064
78.125 375 602
-23.4375 -7.8125 749
226.562 -179.688 754
-250 -406.25 1415
-273.438 187.5 869
242.188 -234.375 720
-203.125 -210.938 1057
-140.625 -234.375 684
-242.188 -148.438 964
39.0625 -171.875 687
242.188 -125 744
-421.875 187.5 1594
-156.25 -132.812 741
31.25 -312.5 800
304.688 15.625 757
273.438 -234.375 928
54.6875 -265.625 813
-375 39.0625 796
-312.5 -226.562 1057
-257.812 -109.375 946
-335.938 39.0625 780
-257.812 -132.812 946
250 -265.625 821
-140.625 -171.875 700
-93.75 -140.625 696
179.688 39.0625 749
62.5 7.8125 773
-265.625 -101.562 975
171.875 -132.812 774
210.938 -289.062 781
-390.625 -93.75 864
296.875 -78.125 668
70.3125 -164.062 880
218.75 -343.75 769
171.875 -125 734
15.625 15.625 755
265.625 -210.938 742
187.5 -203.125 728
218.75 289.062 630
-187.5 -109.375 862
-78.125 -226.562 672
-23.4375 304.688 636
-289.062 -78.125 913
-281.25 -39.0625 823
-421.875 -187.5 918
-343.75 31.25 781
-273.438 -46.875 827
179.688 -156.25 734
-453.125 382.812 1663
-85.9375 -70.3125 741
-234.375 -171.875 978
289.062 31.25 749
-31.25 -226.562 671
328.125 -78.125 678
335.938 203.125 664
-343.75 -351.562 1343
195.312 -312.5 767
-93.75 250 661
-23.4375 -62.5 708
-70.3125 390.625 759
-414.062 164.062 1550
39.0625 -281.25 811
-148.438 -210.938 682
242.188 -406.25 792
312.5 -70.3125 676
-375 -250 998
39.0625 -281.25 811
93.75 -406.25 762
179.688 -187.5 731
210.938 218.75 619
156.25 -7.8125 771
54.6875 -304.688 785
-156.25 367.188 774
218.75 -54.6875 667
78.125 -343.75 767
-437.5 -23.4375 889
312.5 -117.188 682
179.688 -117.188 734
-281.25 -93.75 913
-117.188 -46.875 787
-421.875 242.188 1823
468.75 382.812 739
273.438 -242.188 933
-250 -85.9375 849
273.438 257.812 613
-226.562 -109.375 864
273.438 -218.75 741
171.875 273.438 616
242.188 -226.562 731
242.188 -132.812 776
304.688 -62.5 676
-109.375 257.812 663
-367.188 -335.938 1328
-148.438 289.062 811
289.062 257.812 642
187.5 250 619
-218.75 -85.9375 845
265.625 -140.625 773
351.562 -62.5 802
-234.375 -125 1022
-195.312 164.062 706
187.5 273.438 619
171.875 250 627
281.25 -273.438 959
148.438 -312.5 762
-335.938 0 802
54.6875 -296.875 789
-257.812 -140.625 943
-257.812 -93.75 849
-148.438 304.688 803
265.625 -109.375 734
101.562 -453.125 754
-351.562 -117.188 860
46.875 351.562 612
273.438 -257.812 946
171.875 -210.938 744
-382.812 -109.375 864
-437.5 -164.062 896
93.75 -453.125 759
46.875 -406.25 785
23.4375 0 757
70.3125 -93.75 829
-367.188 -265.625 1013
179.688 -203.125 730
-218.75 148.438 714
179.688 312.5 623
70.3125 -156.25 873
148.438 320.312 597
226.562 242.188 618
-351.562 -148.438 882
46.875 -375 778
-351.562 23.4375 789
31.25 -93.75 713
-335.938 46.875 774
-242.188 -125 1025
273.438 -117.188 739
-351.562 -78.125 858
70.3125 -132.812 856
218.75 -148.438 769
-210.938 -257.812 978
-250 -101.562 854
-226.562 -117.188 864
-273.438 -101.562 970
39.0625 -398.438 785
-414.062 -187.5 930
156.25 429.688 578
31.25 39.0625 757
-203.125 156.25 708
-187.5 -125 871
421.875 453.125 562
-414.062 -54.6875 898
-382.812 -218.75 978
70.3125 -187.5 898
-390.625 15.625 878
-343.75 -273.438 1041
-281.25 -70.3125 841
-203.125 -101.562 856
23.4375 23.4375 766
367.188 164.062 679
187.5 343.75 609
-367.188 -148.438 882
0 335.938 622
-132.812 -132.812 722
265.625 -164.062 761
-453.125 23.4375 975
367.188 257.812 636
46.875 -148.438 693
289.062 -281.25 964
-62.5 -125 687
78.125 -437.5 774
234.375 242.188 619
242.188 -304.688 787
-351.562 15.625 794
-343.75 -117.188 860
-390.625 -218.75 973
31.25 -117.188 706
70.3125 -171.875 887
85.9375 -218.75 839
296.875 -359.375 2767
-257.812 -312.5 1025
164.062 -351.562 757
-7.8125 312.5 632
179.688 -7.8125 742
187.5 -62.5 674
257.812 -343.75 790
250 -250 719
148.438 289.062 600
-265.625 -312.5 1031
-328.125 -304.688 1034
-289.062 -382.812 1387
-125 -85.9375 755
-359.375 -78.125 858
39.0625 -390.625 785
273.438 -250 940
265.625 -171.875 755
187.5 320.312 619
242.188 -54.6875 668
-23.4375 -195.312 653
-85.9375 250 659
-242.188 -109.375 858
273.438 -85.9375 666
187.5 -195.312 728
250 296.875 625
273.438 -31.25 708
-109.375 234.375 667
-359.375 296.875 1757
-31.25 -171.875 647
-390.625 -93.75 864
-437.5 -140.625 875
-195.312 -101.562 856
304.688 257.812 641
70.3125 -148.438 869
-109.375 -257.812 698
-265.625 -132.812 933
273.438 -226.562 925
46.875 -281.25 805
195.312 242.188 619
304.688 164.062 615
218.75 304.688 624
-101.562 -234.375 680
265.625 242.188 622
257.812 -70.3125 663
-398.438 -85.9375 860
-265.625 -85.9375 849
335.938 -93.75 678
-140.625 -171.875 700
-93.75 242.188 664
312.5 -15.625 776
132.812 -343.75 759
-78.125 -210.938 664
-437.5 -15.625 894
-125 -70.3125 771
257.812 -257.812 946
15.625 328.125 623
156.25 -210.938 739
70.3125 -195.312 906
273.438 203.125 610
140.625 414.062 585
-250 -156.25 875
-250 -62.5 835
101.562 398.438 592
-328.125 -359.375 1365
195.312 187.5 649
-445.312 -156.25 889
-281.25 -453.125 3300
-421.875 203.125 1873
296.875 164.062 618
-187.5 -109.375 862
70.3125 -164.062 880
304.688 203.125 615
70.3125 -140.625 862
289.062 -70.3125 667
-15.625 304.688 635
-320.312 -7.8125 805
273.438 -210.938 741
171.875 -140.625 773
-437.5 312.5 1739
335.938 179.688 674
15.625 -39.0625 728
-226.562 304.688 805
492.188 343.75 597
-140.625 -179.688 697
-437.5 -156.25 894
-15.625 -203.125 655
265.625 -156.25 762
-359.375 54.6875 792
-281.25 -85.9375 913
265.625 273.438 608
-31.25 -132.812 667
359.375 -109.375 833
-46.875 289.062 641
343.75 171.875 676
39.0625 39.0625 757
-429.688 -171.875 903
-320.312 273.438 1543
289.062 296.875 625
125 -85.9375 761
429.688 437.5 563
195.312 273.438 619
-296.875 -117.188 862
296.875 -78.125 668
46.875 -328.125 785
39.0625 -296.875 800
-148.438 203.125 684
484.375 359.375 591
328.125 -31.25 783
-117.188 -54.6875 780
-359.375 -156.25 882
-398.438 -101.562 869
-281.25 -406.25 1404
281.25 226.562 621
156.25 -281.25 776
-437.5 -7.8125 906
-218.75 -187.5 1060
46.875 -171.875 687
-406.25 -312.5 1302
-164.062 -125 752
-468.75 375 1671
-343.75 39.0625 780
31.25 -367.188 792
257.812 -304.688 800
148.438 328.125 618
-281.25 -39.0625 823
-312.5 -101.562 873
-375 -101.562 867
-46.875 281.25 644
-125 -101.562 746
140.625 -429.688 752
265.625 -78.125 663
62.5 -93.75 829
-187.5 -429.688 3178
39.0625 -132.812 704
23.4375 -148.438 672
62.5 -406.25 776
351.562 -93.75 823
203.125 -289.062 717
296.875 296.875 624
-359.375 -453.125 3064
-226.562 -125 869
164.062 437.5 575
195.312 179.688 648
117.188 406.25 588
-304.688 -414.062 3178
265.625 -195.312 742
304.688 273.438 635
312.5 -62.5 679
273.438 210.938 612
85.9375 -445.312 767
242.188 -234.375 720
265.625 -148.438 766
-382.812 -328.125 1317
140.625 265.625 618
70.3125 -375 767
-15.625 -195.312 653
-54.6875 -117.188 690
343.75 -85.9375 678
-289.062 -125 862
-421.875 7.8125 889
-406.25 -195.312 946
-125 -93.75 749
179.688 453.125 566
78.125 421.875 620
234.375 -101.562 734
-312.5 -15.625 809
54.6875 -156.25 697
273.438 -218.75 741
289.062 281.25 632
312.5 304.688 620
328.125 265.625 636
-7.8125 351.562 641
101.562 -312.5 767
273.438 156.25 619
148.438 -296.875 769
-414.062 -304.688 1297
-328.125 54.6875 769
445.312 421.875 720
-312.5 78.125 759
210.938 468.75 560
39.0625 -359.375 785
-296.875 -54.6875 831
39.0625 343.75 615
132.812 421.875 579
-312.5 -46.875 827
351.562 -70.3125 805
171.875 203.125 671
-460.938 62.5 954
171.875 -343.75 759
179.688 242.188 621
-109.375 -125 711
335.938 164.062 682
101.562 312.5 627
-187.5 -265.625 1214
210.938 -101.562 720
-437.5 -85.9375 871
109.375 -78.125 759
140.625 -101.562 693
-359.375 -117.188 860
-359.375 -265.625 1019
-390.625 -210.938 970
109.375 -406.25 761
-39.0625 -148.438 662
-125 -78.125 764
-273.438 101.562 741
-117.188 -78.125 759
289.062 195.312 612
328.125 203.125 666
195.312 312.5 622
234.375 226.562 621
-421.875 164.062 1536
-351.562 -343.75 1338
-62.5 273.438 648
296.875 -367.188 2789
367.188 -78.125 809
250 -273.438 821
-195.312 -101.562 856
-445.312 -46.875 891
203.125 -179.688 730
234.375 218.75 622
109.375 -445.312 754
273.438 -85.9375 666
187.5 -101.562 671
70.3125 375 602
23.4375 -46.875 733
62.5 -187.5 901
-335.938 -7.8125 805
-203.125 -70.3125 835
-304.688 -31.25 819
-351.562 -289.062 1031
46.875 -382.812 780
-203.125 -265.625 989
101.562 -46.875 800
437.5 343.75 597
-46.875 -453.125 2415
62.5 -289.062 790
156.25 320.312 594
335.938 203.125 664
-257.812 335.938 1483
-382.812 -39.0625 878
-171.875 -125 752
-250 -148.438 954
250 -375 785
250 -117.188 739
-453.125 -281.25 1268
-296.875 -70.3125 831
-179.688 -140.625 746
-421.875 -171.875 906
7.8125 -7.8125 739
-437.5 -289.062 1278
-78.125 257.812 655
-265.625 109.375 736
343.75 210.938 662
-414.062 -70.3125 862
-164.062 -148.438 731
-226.562 -210.938 940
-218.75 140.625 716
-343.75 -78.125 860
-289.062 195.312 862
-335.938 -218.75 1057
-39.0625 -85.9375 704
-85.9375 -23.4375 780
31.25 460.938 723
-343.75 -281.25 1034
257.812 -78.125 663
-320.312 -15.625 811
281.25 187.5 610
-281.25 85.9375 747
-351.562 -226.562 1047
-265.625 -398.438 1410
-273.438 -93.75 970
437.5 429.688 719
234.375 -296.875 787
-179.688 -117.188 864
-445.312 164.062 1536
187.5 265.625 621
187.5 -312.5 767
-234.375 -414.062 1427
78.125 -437.5 774
273.438 -203.125 741
-171.875 -117.188 759
-148.438 -218.75 682
242.188 -210.938 739
242.188 -171.875 764
-351.562 31.25 785
70.3125 -250 815
-140.625 -179.688 697
-257.812 -54.6875 831
-398.438 -62.5 860
54.6875 -359.375 778
203.125 468.75 560
-367.188 54.6875 803
265.625 304.688 606
-109.375 -257.812 698
218.75 -351.562 767
62.5 -257.812 813
445.312 414.062 570
-250 -226.562 948
-210.938 -234.375 959
304.688 164.062 615
359.375 -101.562 825
93.75 -453.125 759
-132.812 -125 731
-335.938 390.625 1663
-390.625 -320.312 1312
54.6875 23.4375 762
187.5 289.062 632
453.125 406.25 575
-359.375 39.0625 785
203.125 195.312 631
164.062 320.312 594
-296.875 -31.25 817
-148.438 -210.938 682
-328.125 46.875 773
-328.125 -218.75 1054
242.188 -179.688 759
179.688 -148.438 736
-109.375 250 663
-343.75 -203.125 1041
62.5 -328.125 776
93.75 296.875 632
140.625 -343.75 757
-289.062 -31.25 817
210.938 -85.9375 667
39.0625 -367.188 785
-54.6875 -164.062 659
-320.312 -23.4375 815
-304.688 -117.188 867
-281.25 328.125 1503
179.688 -210.938 728
-54.6875 -85.9375 711
-226.562 -109.375 864
187.5 453.125 566
70.3125 0 774
62.5 -117.188 845
54.6875 -414.062 783
-132.812 210.938 679
-187.5 -273.438 1227
375 398.438 579
-421.875 -453.125 3149
-125 218.75 675
242.188 -156.25 774
101.562 -320.312 766
367.188 171.875 675
156.25 437.5 574
-406.25 335.938 1713
101.562 -23.4375 785
31.25 -359.375 792
289.062 -70.3125 667
-375 304.688 1748
62.5 7.8125 773
-101.562 -164.062 683
242.188 -93.75 730
-281.25 93.75 746
296.875 -85.9375 671
179.688 -23.4375 682
117.188 296.875 632
70.3125 -218.75 920
31.25 -164.062 679
-492.188 -7.8125 1004
203.125 -429.688 773
-187.5 296.875 805
140.625 273.438 615
-390.625 101.562 923
195.312 -289.062 717
-484.375 7.8125 992
226.562 -390.625 773
265.625 -140.625 773
242.188 273.438 637
-421.875 -101.562 873
-195.312 -148.438 878
156.25 265.625 623
-437.5 -140.625 875
93.75 -210.938 915
210.938 -304.688 774
148.438 -429.688 754
265.625 -164.062 761
-328.125 -359.375 1365
109.375 -62.5 761
164.062 -210.938 742
273.438 -195.312 741
-242.188 289.062 817
156.25 -421.875 757
-312.5 -375 1387
39.0625 -351.562 783
203.125 273.438 619
-140.625 -187.5 690
203.125 -101.562 723
-195.312 -101.562 856
125 -429.688 754
-7.8125 -203.125 655
-289.062 335.938 1713
250 257.812 619
-460.938 -273.438 1259
-367.188 -335.938 1328
195.312 -101.562 728
156.25 453.125 569
-234.375 -85.9375 849
-54.6875 -429.688 3120
-15.625 -101.562 680
-421.875 -23.4375 882
-195.312 -23.4375 805
250 203.125 616
-93.75 -171.875 675
-234.375 -156.25 964
476.562 375 741
-132.812 -140.625 717
-257.812 -70.3125 841
-398.438 -195.312 954
-109.375 -195.312 670
-140.625 -140.625 727
210.938 -335.938 767
-54.6875 281.25 644
367.188 -85.9375 815
-296.875 -304.688 1034
187.5 -171.875 731
476.562 -335.938 2522
273.438 -171.875 749
-117.188 -250 691
-156.25 195.312 687
-437.5 -7.8125 906
234.375 -312.5 781
-7.8125 -242.188 675
39.0625 351.562 612
-226.562 -78.125 843
-289.062 -46.875 827
281.25 257.812 612
351.562 171.875 676
-414.062 -62.5 901
31.25 -320.312 798
-289.062 -406.25 1404
-210.938 -171.875 1022
-414.062 132.812 913
-203.125 -93.75 851
203.125 -296.875 774
453.125 -195.312 891
-210.938 148.438 713
0 -54.6875 708
-289.062 320.312 1503
265.625 -132.812 773
46.875 -132.812 708
210.938 -218.75 725
351.562 156.25 686
187.5 -164.062 733
62.5 -421.875 781
-382.812 93.75 925
-195.312 273.438 819
296.875 -70.3125 670
31.25 -343.75 794
-250 117.188 731
429.688 445.312 713
187.5 242.188 619
-281.25 -304.688 1034
273.438 242.188 623
-414.062 23.4375 887
-140.625 -164.062 706
242.188 -148.438 776
-289.062 -117.188 862
-78.125 -226.562 672
-46.875 -304.688 1241
218.75 -242.188 716
78.125 -15.625 781
-335.938 54.6875 771
-367.188 -257.812 1010
218.75 226.562 618
210.938 226.562 618
39.0625 -132.812 704
242.188 187.5 619
-429.688 -39.0625 887
250 -320.312 787
-273.438 -125 930
242.188 -125 744
-125 -101.562 746
-304.688 -85.9375 910
-343.75 -62.5 856
39.0625 -382.812 785
-226.562 132.812 722
-140.625 171.875 698
-117.188 -62.5 771
179.688 296.875 596
273.438 -226.562 925
-171.875 -117.188 759
-148.438 -429.688 3149
296.875 164.062 618
85.9375 -226.562 839
-437.5 -226.562 1206
-492.188 -23.4375 1016
195.312 -132.812 734
46.875 -281.25 805
242.188 460.938 561
187.5 257.812 620
70.3125 -429.688 781
171.875 289.062 596
-382.812 281.25 1776
273.438 281.25 606
78.125 -281.25 787
-421.875 250 1823
-265.625 -304.688 1031
-421.875 0 882
-437.5 -148.438 882
187.5 460.938 565
-171.875 -140.625 746
-359.375 -273.438 1019
210.938 -203.125 730
289.062 140.625 676
-429.688 -31.25 885
250 226.562 623
39.0625 39.0625 757
273.438 -234.375 928
460.938 398.438 579
296.875 203.125 614
-429.688 -171.875 903
367.188 265.625 632
-39.0625 -46.875 733
187.5 -210.938 727
-289.062 304.688 1509
125 -171.875 734
93.75 -62.5 807
-414.062 218.75 1853
-218.75 -179.688 973
-351.562 -289.062 1025
-468.75 -273.438 1259
484.375 125 691
-85.9375 -320.312 1268
375 257.812 635
164.062 -343.75 755
23.4375 335.938 621
-351.562 -343.75 1338
-125 -109.375 744
-39.0625 -132.812 676
257.812 -281.25 803
234.375 234.375 615
101.562 -445.312 761
-7.8125 -203.125 657
234.375 -273.438 703
101.562 390.625 594
343.75 179.688 672
210.938 312.5 622
203.125 -187.5 728
-54.6875 -93.75 708
210.938 -320.312 762
265.625 -78.125 662
203.125 453.125 566
-453.125 70.3125 951
289.062 265.625 611
195.312 -195.312 730
-500 -320.312 2883
-125 -242.188 687
242.188 -289.062 783
179.688 437.5 574
54.6875 -335.938 783
273.438 -179.688 749
312.5 7.8125 762
296.875 -78.125 667
117.188 -343.75 759
195.312 -164.062 730
-351.562 54.6875 790
-343.75 -85.9375 860
359.375 257.812 636
-125 -117.188 741
218.75 -203.125 725
62.5 359.375 609
-171.875 -85.9375 845
-195.312 -281.25 995
-70.3125 -93.75 720
78.125 -414.062 776
-23.4375 304.688 636
39.0625 -109.375 696
234.375 -414.062 774
-289.062 -70.3125 901
-171.875 187.5 694
328.125 -39.0625 789
85.9375 -453.125 787
-257.812 -54.6875 831
-414.062 -304.688 1297
-273.438 -390.625 1392
132.812 -406.25 755
-218.75 250 833
218.75 -171.875 728
203.125 -109.375 730
-429.688 289.062 1766
-101.562 414.062 757
218.75 -234.375 719
-62.5 -101.562 708
101.562 -375 759
171.875 -132.812 694
-140.625 -187.5 697
132.812 406.25 588
-289.062 -382.812 1387
171.875 328.125 593
203.125 -312.5 764
273.438 234.375 623
273.438 -203.125 741
-265.625 -46.875 827
-312.5 -218.75 1054
-421.875 -46.875 887
-265.625 -125 864
-39.0625 289.062 642
343.75 187.5 671
242.188 -375 767
-281.25 -85.9375 910
-296.875 -23.4375 815
-437.5 320.312 1739
-218.75 -421.875 1433
78.125 -375 769
-179.688 -289.062 1001
-367.188 -117.188 860
31.25 -351.562 802
195.312 281.25 615
-312.5 -367.188 1365
171.875 -109.375 683
-343.75 -296.875 1028
0 -476.562 2365
-375 -226.562 975
-390.625 -85.9375 860
-382.812 -226.562 970
-375 -70.3125 856
46.875 -398.438 789
-62.5 265.625 653
-117.188 -70.3125 769
335.938 179.688 674
-406.25 -460.938 3120
-234.375 -70.3125 839
-453.125 390.625 1647
-140.625 -195.312 688
-210.938 -445.312 3238
132.812 -273.438 774
-296.875 -46.875 827
46.875 31.25 761
-117.188 226.562 672
-289.062 -398.438 1392
-382.812 -101.562 867
-414.062 -46.875 887
320.312 296.875 623
351.562 164.062 680
-375 -328.125 1317
320.312 -70.3125 668
195.312 273.438 618
78.125 -23.4375 787
78.125 -242.188 827
-375 -242.188 984
250 -101.562 733
210.938 -93.75 668
-62.5 -93.75 714
359.375 -148.438 697
-335.938 -101.562 869
335.938 -78.125 672
-234.375 -164.062 882
-101.562 242.188 666
-15.625 -210.938 659
226.562 -93.75 667
-390.625 -320.312 1312
226.562 -257.812 707
-320.312 -210.938 1047
234.375 -203.125 742
273.438 -218.75 746
39.0625 -382.812 794
78.125 -273.438 796
296.875 304.688 622
125 -164.062 730
-234.375 296.875 817
-421.875 195.312 1894
492.188 351.562 593
-265.625 -93.75 964
54.6875 23.4375 764
-234.375 -414.062 1427
-210.938 -171.875 1019
-328.125 62.5 769
-23.4375 296.875 638
-421.875 -15.625 885
-414.062 23.4375 891
-250 -93.75 847
-320.312 62.5 764
-179.688 -109.375 860
273.438 -85.9375 662
23.4375 -320.312 815
-359.375 -257.812 1007
78.125 -46.875 800
218.75 -289.062 774
-195.312 -242.188 975
250 -46.875 668
78.125 -39.0625 796
-421.875 -179.688 906
-375 46.875 805
-62.5 -226.562 672
265.625 -125 739
-132.812 -242.188 688
-164.062 -132.812 742
70.3125 414.062 631
-109.375 -164.062 691
-468.75 -289.062 1264
39.0625 -296.875 811
-429.688 281.25 1785
296.875 -78.125 667
328.125 203.125 637
-257.812 -93.75 970
31.25 -39.0625 722
-304.688 -15.625 809
203.125 460.938 564
203.125 335.938 613
70.3125 -312.5 781
-179.688 -132.812 875
195.312 210.938 630
62.5 -367.188 776
304.688 -125 755
-328.125 0 802
-289.062 -304.688 1034
-109.375 -445.312 3208
164.062 -421.875 757
-500 15.625 984
250 195.312 632
-390.625 195.312 1616
265.625 -140.625 774
109.375 -312.5 767
210.938 242.188 615
250 -109.375 736
273.438 -78.125 662
-421.875 0 889
218.75 -195.312 725
78.125 -7.8125 778
-109.375 -31.25 800
39.0625 -343.75 794
31.25 -328.125 802
-78.125 -226.562 674
-304.688 -242.188 1050
-164.062 187.5 691
257.812 296.875 625
-335.938 7.8125 796
-23.4375 -218.75 666
-328.125 39.0625 780
468.75 390.625 578
-164.062 304.688 803
-406.25 -31.25 875
242.188 -140.625 771
-335.938 -46.875 887
242.188 -234.375 727
281.25 250 621
218.75 296.875 628
265.625 -85.9375 662
-54.6875 273.438 650
-54.6875 -210.938 662
-85.9375 390.625 759
-203.125 -210.938 948
-195.312 -70.3125 835
-226.562 -101.562 856
484.375 -85.9375 813
-359.375 31.25 787
-429.688 -31.25 889
242.188 -226.562 730
226.562 304.688 625
265.625 -70.3125 662
-304.688 -226.562 1057
-304.688 -210.938 1047
78.125 -85.9375 825
156.25 304.688 597
273.438 -273.438 809
-273.438 -39.0625 823
289.062 242.188 623
242.188 -195.312 742
164.062 -367.188 754
273.438 -210.938 742
-296.875 -62.5 894
78.125 -78.125 821
78.125 -62.5 811
203.125 -164.062 728
31.25 -343.75 802
265.625 -257.812 946
-203.125 -226.562 954
70.3125 -125 849
164.062 -164.062 736
-312.5 -39.0625 825
-210.938 320.312 805
343.75 203.125 663
281.25 -242.188 933
46.875 351.562 613
46.875 -140.625 693
-343.75 -187.5 1025
367.188 -117.188 837
210.938 -195.312 727
-187.5 -265.625 981
210.938 171.875 647
-164.062 -140.625 734
-148.438 -132.812 741
320.312 273.438 634
-429.688 226.562 1843
-398.438 132.812 913
210.938 257.812 614
-164.062 -148.438 734
-296.875 -273.438 1044
-367.188 -257.812 998
187.5 351.562 606
359.375 -140.625 697
-406.25 -195.312 928
-39.0625 -7.8125 769
234.375 -289.062 781
-437.5 -148.438 882
-343.75 -195.312 1031
296.875 203.125 610
164.062 -335.938 755
-218.75 -218.75 948
320.312 257.812 631
304.688 -46.875 672
-367.188 -453.125 3064
304.688 -335.938 2659
-421.875 -46.875 887
-15.625 -218.75 664
265.625 -101.562 730
281.25 -250 943
-140.625 -195.312 688
187.5 -109.375 682
70.3125 -101.562 719
78.125 375 603
250 179.688 621
-15.625 320.312 631
210.938 -289.062 717
359.375 179.688 672
164.062 257.812 627
-460.938 -273.438 1264
0 320.312 628
156.25 -359.375 754
312.5 265.625 637
148.438 -171.875 734
156.25 289.062 603
-343.75 -78.125 860
-328.125 -101.562 869
187.5 289.062 600
70.3125 7.8125 771
78.125 -367.188 769
226.562 265.625 614
-375 226.562 1609
367.188 -125 841
140.625 -218.75 823
164.062 312.5 593
39.0625 -85.9375 707
93.75 390.625 594
179.688 445.312 570
156.25 -421.875 755
-429.688 273.438 1794
78.125 -70.3125 815
-437.5 -289.062 1278
-125 -109.375 744
-234.375 -117.188 1016
-351.562 -171.875 1013
242.188 39.0625 747
218.75 273.438 618
-62.5 273.438 650
-398.438 -312.5 1302
-242.188 -109.375 951
-140.625 -226.562 682
140.625 -351.562 755
78.125 -398.438 771
62.5 -398.438 780
-390.625 -117.188 860
320.312 -62.5 670
335.938 257.812 628
179.688 -125 769
-382.812 -54.6875 860
187.5 -187.5 741
-7.8125 -195.312 652
-265.625 125 736
304.688 210.938 611
-179.688 -109.375 860
-203.125 -93.75 851
-421.875 -148.438 889
-140.625 -179.688 703
281.25 257.812 615
-382.812 210.938 1616
70.3125 -414.062 780
-31.25 -78.125 710
62.5 414.062 653
179.688 -148.438 757
46.875 -171.875 667
-296.875 -414.062 3178
54.6875 -117.188 710
-85.9375 -109.375 717
273.438 -195.312 742
-351.562 -78.125 858
-210.938 -85.9375 847
-15.625 304.688 635
281.25 -265.625 951
-296.875 -54.6875 827
218.75 468.75 560
-335.938 39.0625 780
-70.3125 -226.562 672
-250 -406.25 1415
218.75 242.188 614
-257.812 -398.438 1410
273.438 296.875 606
78.125 -31.25 792
-296.875 70.3125 759
429.688 -218.75 910
250 -70.3125 662
101.562 -453.125 757
101.562 -54.6875 805
210.938 273.438 618
-398.438 -117.188 862
296.875 31.25 750
343.75 164.062 679
-125 -117.188 741
-125 -242.188 687
-421.875 257.812 1813
179.688 453.125 566
-335.938 -351.562 1349
-171.875 -117.188 864
140.625 -359.375 754
-273.438 -78.125 837
-70.3125 -218.75 668
242.188 -210.938 734
171.875 -335.938 755
78.125 -328.125 773
179.688 -140.625 762
-398.438 187.5 1594
156.25 429.688 577
-140.625 382.812 767
218.75 -226.562 720
-359.375 -101.562 867
-304.688 -78.125 862
39.0625 -304.688 805
148.438 -101.562 693
62.5 -179.688 894
-296.875 -117.188 860
273.438 -179.688 749
203.125 -93.75 674
320.312 -70.3125 668
-414.062 -93.75 871
62.5 15.625 767
-328.125 -117.188 858
-390.625 -203.125 951
-445.312 359.375 1688
109.375 -70.3125 813
-312.5 -367.188 1365
-351.562 -343.75 1338
203.125 -265.625 716
234.375 195.312 630
-23.4375 -390.625 2485
265.625 -132.812 778
-445.312 -437.5 3092
-132.812 218.75 678
-343.75 15.625 792
242.188 -312.5 776
-398.438 -203.125 943
-406.25 -54.6875 891
-429.688 -304.688 1288
-195.312 -101.562 856
85.9375 -382.812 766
171.875 -359.375 754
304.688 320.312 614
-351.562 23.4375 790
-179.688 179.688 697
250 -78.125 662
140.625 -296.875 766
-304.688 -15.625 809
-343.75 -351.562 1343
210.938 -109.375 725
-242.188 -62.5 835
-85.9375 250 659
109.375 312.5 625
-7.8125 -210.938 659
242.188 250 615
-273.438 -39.0625 823
250 -304.688 783
-375 265.625 1794
39.0625 -375 794
-429.688 -156.25 889
281.25 39.0625 746
156.25 -429.688 749
445.312 429.688 565
-93.75 -179.688 675
-304.688 62.5 762
78.125 -101.562 835
-179.688 -281.25 998
-390.625 78.125 938
257.812 171.875 619
-289.062 -39.0625 823
328.125 -7.8125 769
265.625 -148.438 769
-382.812 39.0625 887
-117.188 -78.125 766
-140.625 -203.125 686
78.125 -93.75 831
148.438 421.875 580
156.25 -296.875 766
-273.438 93.75 746
242.188 226.562 616
210.938 320.312 618
-406.25 -23.4375 875
-281.25 -125 860
-359.375 -437.5 3092
-414.062 -187.5 918
203.125 273.438 619
-46.875 281.25 646
242.188 218.75 620
-257.812 109.375 738
-164.062 359.375 781
304.688 -78.125 667
179.688 203.125 670
343.75 171.875 676
476.562 367.188 585
-226.562 140.625 717
195.312 273.438 618
281.25 -242.188 933
289.062 -273.438 821
187.5 -164.062 755
265.625 -281.25 805
54.6875 -328.125 785
-375 -242.188 984
78.125 359.375 608
-265.625 -46.875 827
85.9375 359.375 607
-148.438 328.125 790
257.812 -93.75 728
-406.25 187.5 1594
148.438 335.938 614
109.375 -46.875 798
-429.688 -109.375 867
-343.75 31.25 785
-453.125 7.8125 987
-171.875 -132.812 875
273.438 -171.875 752
78.125 -125 849
250 -93.75 728
-281.25 93.75 747
93.75 421.875 610
125 289.062 635
-125 234.375 674
78.125 -132.812 856
226.562 296.875 627
203.125 296.875 612
70.3125 375 603
-78.125 375 766
-320.312 -304.688 1031
-78.125 -367.188 1317
-398.438 -54.6875 894
-335.938 -210.938 1047
-234.375 125 727
-242.188 -179.688 894
242.188 -125 776
-328.125 -62.5 860
234.375 304.688 624
93.75 -453.125 764
195.312 265.625 621
-367.188 257.812 1757
203.125 -289.062 717
-218.75 375 1452
195.312 -171.875 728
218.75 -109.375 722
195.312 -265.625 716
445.312 265.625 628
46.875 -109.375 700
-382.812 46.875 887
23.4375 0 739
218.75 -273.438 717
-390.625 -210.938 956
328.125 -23.4375 780
179.688 -109.375 682
281.25 375 594
171.875 -312.5 761
203.125 312.5 622
-312.5 -117.188 860
-70.3125 265.625 653
265.625 179.688 614
-179.688 -109.375 860
-179.688 -289.062 1001
54.6875 -148.438 697
-187.5 -257.812 981
250 -273.438 704
78.125 -140.625 862
179.688 250 628
-414.062 210.938 1863
109.375 -39.0625 796
-210.938 -117.188 869
273.438 -203.125 741
62.5 -429.688 796
-460.938 -429.688 3092
-320.312 218.75 860
-234.375 132.812 723
-382.812 -226.562 970
-171.875 179.688 696
281.25 -226.562 923
195.312 250 621
-382.812 -101.562 867
-328.125 -296.875 1034
-367.188 250 1739
62.5 -132.812 701
367.188 -109.375 831
273.438 -187.5 744
-250 281.25 825
265.625 -156.25 764
-164.062 -148.438 734
335.938 -101.562 675
-429.688 -296.875 1283
-257.812 -218.75 1050
93.75 382.812 598
15.625 382.812 666
78.125 -109.375 841
-390.625 218.75 1647
-70.3125 257.812 657
445.312 -210.938 898
210.938 -85.9375 668
-23.4375 -429.688 2415
-140.625 -203.125 686
125 406.25 588
304.688 164.062 616
54.6875 -109.375 711
-484.375 -257.812 1245
218.75 -257.812 713
-156.25 195.312 687
-445.312 367.188 1680
351.562 164.062 680
-382.812 -15.625 873
195.312 343.75 609
195.312 -210.938 725
54.6875 -382.812 781
-296.875 148.438 891
39.0625 -335.938 796
-210.938 -85.9375 847
-242.188 -117.188 940
-250 -140.625 867
-164.062 -156.25 733
289.062 218.75 612
234.375 -375 762
156.25 -335.938 755
70.3125 -375 773
-70.3125 398.438 754
-406.25 -195.312 928
273.438 218.75 619
-421.875 -296.875 1283
-398.438 398.438 1639
-320.312 -296.875 1034
234.375 257.812 614
304.688 -320.312 2639
273.438 -85.9375 662
171.875 -351.562 754
-304.688 -382.812 1387
289.062 289.062 602
-390.625 -218.75 962
-140.625 -195.312 688
-132.812 -156.25 716
-156.25 -218.75 686
242.188 -296.875 778
-203.125 -125 869
218.75 -234.375 719
218.75 -187.5 725
-31.25 289.062 642
-406.25 -62.5 896
-203.125 -156.25 1013
-179.688 -85.9375 845
203.125 -320.312 761
-23.4375 -132.812 666
304.688 -78.125 667
-375 -328.125 1317
218.75 -265.625 714
-140.625 203.125 686
429.688 453.125 557
437.5 437.5 563
359.375 -101.562 679
-164.062 187.5 691
-343.75 23.4375 790
-234.375 351.562 1464
250 -101.562 733
39.0625 -367.188 792
-218.75 140.625 717
-445.312 -281.25 1273
-257.812 -132.812 867
-101.562 351.562 780
0 406.25 749
78.125 -117.188 845
-312.5 62.5 762
7.8125 -164.062 642
-289.062 78.125 755
-453.125 -250 1227
-281.25 0 796
-46.875 -156.25 662
-226.562 351.562 1464
289.062 195.312 609
15.625 328.125 622
-93.75 242.188 666
140.625 289.062 613
-429.688 15.625 894
242.188 -250 720
210.938 -250 716
140.625 -164.062 730
-242.188 -39.0625 821
179.688 -289.062 769
125 351.562 609
-234.375 335.938 1483
250 -117.188 739
-31.25 296.875 640
-125 343.75 781
78.125 -312.5 776
296.875 351.562 602
-132.812 210.938 680
187.5 328.125 616
85.9375 343.75 614
-164.062 -132.812 742
281.25 -250 943
210.938 -312.5 766
-31.25 -140.625 667
-304.688 156.25 887
-359.375 257.812 1757
-70.3125 -367.188 1307
-273.438 -390.625 1392
54.6875 -273.438 807
210.938 -390.625 761
-484.375 -54.6875 1044
-210.938 281.25 815
445.312 343.75 597
-179.688 281.25 815
70.3125 -273.438 798
-351.562 -281.25 1019
-406.25 -39.0625 880
250 -234.375 725
250 -125 778
93.75 -234.375 821
226.562 -39.0625 666
187.5 -156.25 759
23.4375 -359.375 805
-398.438 -109.375 873
-23.4375 -437.5 2398
-296.875 -375 1376
62.5 367.188 606
-164.062 -140.625 734
335.938 203.125 664
226.562 226.562 618
187.5 -210.938 727
328.125 250 629
273.438 -164.062 759
-101.562 343.75 781
-7.8125 -210.938 659
187.5 -109.375 682
78.125 -148.438 869
39.0625 343.75 618
-15.625 -312.5 1250
0 312.5 631
195.312 304.688 624
101.562 -453.125 757
250 -109.375 736
31.25 -148.438 668
-343.75 15.625 792
-226.562 132.812 722
179.688 -132.812 767
-218.75 -421.875 1433
304.688 296.875 624
-351.562 -85.9375 860
-351.562 -273.438 1019
242.188 296.875 625
78.125 0 774
-195.312 -226.562 1169
78.125 -156.25 873
359.375 -93.75 674
-335.938 -351.562 1349
257.812 203.125 627
210.938 203.125 631
265.625 -93.75 727
93.75 -31.25 792
-179.688 -273.438 1219
-273.438 -304.688 1034
-125 -117.188 741
-398.438 -312.5 1302
273.438 -304.688 803
281.25 156.25 620
-93.75 -117.188 717
-398.438 78.125 938
-226.562 -171.875 973
46.875 -398.438 789
54.6875 -406.25 785
476.562 -226.562 2365
78.125 -171.875 887
78.125 -367.188 769
-312.5 -7.8125 803
132.812 -78.125 759
-367.188 -468.75 3037
-210.938 -234.375 956
70.3125 7.8125 771
179.688 281.25 615
-289.062 85.9375 752
-101.562 -257.812 697
351.562 -85.9375 672
93.75 -390.625 762
-93.75 -164.062 684
140.625 -367.188 754
367.188 -132.812 696
257.812 289.062 629
320.312 -117.188 688
148.438 273.438 612
476.562 382.812 581
-132.812 -164.062 707
195.312 281.25 615
-359.375 -93.75 864
281.25 -85.9375 662
-351.562 179.688 885
367.188 171.875 674
203.125 -187.5 728
273.438 273.438 612
-250 -54.6875 831
-429.688 -164.062 891
-421.875 109.375 928
-484.375 -414.062 3010
296.875 265.625 611
343.75 164.062 679
304.688 -312.5 2639
46.875 -367.188 787
203.125 -54.6875 670
-257.812 273.438 827
171.875 437.5 575
-187.5 -101.562 856
250 -85.9375 662
-414.062 7.8125 889
281.25 -226.562 923
-468.75 -265.625 1250
46.875 39.0625 757
203.125 -93.75 674
-406.25 -304.688 1292
-31.25 7.8125 773
-414.062 171.875 1557
78.125 -179.688 889
-210.938 -171.875 1019
-156.25 -125 754
78.125 -140.625 862
265.625 -265.625 821
273.438 250 621
218.75 -250 714
210.938 -289.062 717
203.125 187.5 648
-242.188 -62.5 835
257.812 210.938 625
78.125 -125 849
265.625 171.875 616
156.25 -70.3125 687
-429.688 7.8125 910
-343.75 -281.25 1028
-437.5 156.25 1509
-218.75 -78.125 843
156.25 7.8125 767
195.312 39.0625 749
343.75 203.125 663
179.688 460.938 565
-54.6875 -54.6875 741
281.25 -234.375 928
54.6875 -101.562 716
242.188 242.188 615
-218.75 -54.6875 829
-406.25 171.875 1557
7.8125 328.125 623
242.188 -203.125 741
-312.5 -70.3125 862
-382.812 -210.938 964
156.25 -15.625 700
250 460.938 561
-140.625 -210.938 682
-117.188 -85.9375 757
296.875 203.125 610
171.875 304.688 594
-421.875 -125 867
54.6875 -218.75 662
289.062 -125 739
-54.6875 -117.188 694
-257.812 -85.9375 843
78.125 -421.875 778
-15.625 -218.75 664
-234.375 -148.438 951
-78.125 -218.75 670
-492.188 -250 1241
-101.562 234.375 668
-109.375 -250 691
148.438 304.688 599
-390.625 -468.75 3092
78.125 -164.062 880
78.125 -445.312 783
250 39.0625 747
31.25 343.75 618
-125 -125 727
187.5 289.062 600
343.75 265.625 635
-453.125 398.438 1647
328.125 -70.3125 671
-359.375 -85.9375 860
242.188 -70.3125 662
-226.562 -125 1022
-140.625 -203.125 686
218.75 -328.125 762
-343.75 -171.875 1013
-242.188 117.188 733
-195.312 -218.75 1165
-195.312 -132.812 873
179.688 210.938 667
-7.8125 -203.125 657
78.125 -195.312 906
-273.438 -70.3125 837
468.75 398.438 578
78.125 -132.812 856
171.875 -421.875 757
-164.062 -125 754
70.3125 -171.875 887
-421.875 257.812 1813
367.188 -140.625 697
-367.188 31.25 789
257.812 257.812 619
179.688 -351.562 754
93.75 -406.25 766
-179.688 -195.312 708
-31.25 -148.438 662
78.125 -187.5 898
273.438 -156.25 762
-226.562 -93.75 854
203.125 -335.938 759
226.562 -351.562 764
164.062 -195.312 736
-148.438 203.125 684
78.125 -54.6875 805
195.312 289.062 612
195.312 -312.5 762
-281.25 85.9375 750
164.062 -320.312 757
-62.5 265.625 653
31.25 335.938 620
-281.25 -78.125 906
281.25 -218.75 742
85.9375 -453.125 787
273.438 -148.438 766
343.75 226.562 636
-414.062 132.812 930
-117.188 -93.75 750
195.312 453.125 566
62.5 -78.125 734
343.75 187.5 671
250 -218.75 727
375 -78.125 811
39.0625 -312.5 803
226.562 468.75 561
-421.875 -164.062 896
343.75 -171.875 719
148.438 265.625 612
54.6875 -148.438 697
-179.688 367.188 1307
187.5 203.125 670
93.75 -351.562 762
187.5 -148.438 764
171.875 -257.812 787
250 -226.562 728
257.812 -70.3125 662
-31.25 -85.9375 706
328.125 -62.5 674
31.25 23.4375 764
-367.188 -78.125 858
39.0625 -359.375 792
179.688 -343.75 755
250 -242.188 722
-195.312 -242.188 975
85.9375 -437.5 780
312.5 218.75 632
46.875 -351.562 787
117.188 398.438 591
-437.5 328.125 1722
-289.062 -226.562 1057
-429.688 -15.625 889
-289.062 -390.625 1392
109.375 -15.625 781
335.938 -85.9375 672
265.625 218.75 623
31.25 -7.8125 739
-242.188 -406.25 1415
234.375 203.125 627
-125 218.75 676
-203.125 -218.75 951
-304.688 -218.75 1050
-187.5 -101.562 856
-265.625 -468.75 3365
-414.062 0 885
46.875 -132.812 693
117.188 -445.312 749
-70.3125 -125 696
273.438 -140.625 769
-257.812 -398.438 1410
-421.875 -7.8125 885
-382.812 31.25 794
351.562 234.375 630
304.688 -148.438 742
-93.75 -210.938 668
250 -312.5 780
-328.125 -85.9375 862
-429.688 296.875 1757
492.188 359.375 591
-39.0625 289.062 642
-351.562 31.25 787
31.25 7.8125 749
304.688 -179.688 734
-414.062 -304.688 1297
273.438 -179.688 749
250 -234.375 725
257.812 -304.688 787
289.062 -62.5 664
-375 -54.6875 858
-15.625 -195.312 654
-375 -328.125 1317
70.3125 -390.625 773
46.875 -382.812 785
-429.688 -132.812 871
-218.75 -132.812 1016
156.25 -320.312 757
-312.5 -304.688 1034
164.062 265.625 627
78.125 -148.438 869
-46.875 -85.9375 711
-328.125 -281.25 1038
70.3125 -132.812 856
273.438 -187.5 744
-179.688 171.875 698
-273.438 109.375 739
-257.812 -226.562 1054
-7.8125 320.312 630
-164.062 -156.25 733
-375 -226.562 975
210.938 -179.688 728
-78.125 -171.875 670
281.25 234.375 625
320.312 -164.062 723
-140.625 -210.938 682
289.062 234.375 627
-195.312 -210.938 1050
296.875 -70.3125 667
-164.062 -117.188 867
-421.875 -296.875 1283
-132.812 -171.875 701
-398.438 -93.75 867
-312.5 -210.938 1047
179.688 289.062 600
-414.062 -39.0625 882
-414.062 15.625 891
78.125 -171.875 887
179.688 304.688 594
-453.125 -289.062 1278
195.312 -101.562 675
-343.75 23.4375 790
320.312 -15.625 776
-367.188 -250 992
312.5 15.625 759
-23.4375 -156.25 650
-320.312 -101.562 869
-250 -54.6875 831
0 -78.125 691
164.062 -351.562 754
179.688 -171.875 746
-390.625 140.625 903
179.688 -101.562 679
-164.062 -132.812 742
-54.6875 -226.562 670
-429.688 -7.8125 918
-31.25 -7.8125 764
-429.688 -445.312 3120
-257.812 -78.125 843
-195.312 351.562 1264
-351.562 46.875 781
195.312 -445.312 754
78.125 -429.688 781
187.5 296.875 597
-398.438 -109.375 873
335.938 203.125 664
179.688 273.438 619
-335.938 -93.75 864
-218.75 -78.125 843
-7.8125 335.938 635
-156.25 218.75 701
-382.812 -93.75 864
281.25 -210.938 742
210.938 257.812 614
-164.062 187.5 691
148.438 -335.938 755
-312.5 -445.312 3178
-445.312 -281.25 1273
109.375 -210.938 837
-351.562 -281.25 1019
273.438 -171.875 752
-414.062 218.75 1853
-359.375 -335.938 1328
171.875 -101.562 682
70.3125 367.188 606
-351.562 15.625 794
70.3125 -195.312 906
-234.375 -109.375 854
-218.75 -210.938 933
-62.5 -93.75 714
218.75 265.625 615
-187.5 -257.812 981
-250 273.438 825
23.4375 -148.438 667
132.812 -281.25 773
-179.688 -273.438 1219
62.5 -164.062 880
-359.375 -265.625 1007
437.5 445.312 560
-109.375 226.562 671
-101.562 -171.875 683
-453.125 406.25 1639
312.5 -187.5 728
234.375 -351.562 767
31.25 15.625 750
242.188 273.438 618
250 -132.812 778
195.312 460.938 564
78.125 -187.5 898
54.6875 -132.812 701
-171.875 351.562 787
-23.4375 -468.75 2349
117.188 -70.3125 761
492.188 -195.312 882
-445.312 78.125 948
-343.75 -101.562 867
-195.312 -93.75 851
257.812 -312.5 783
109.375 -453.125 754
-210.938 -179.688 1028
-93.75 421.875 754
203.125 289.062 612
343.75 234.375 630
265.625 -70.3125 662
117.188 406.25 588
-382.812 23.4375 796
281.25 -195.312 741
453.125 421.875 570
-390.625 -101.562 869
46.875 -296.875 802
-171.875 195.312 694
-117.188 -179.688 686
-226.562 -70.3125 837
156.25 257.812 615
351.562 187.5 670
-250 -101.562 981
125 421.875 584
367.188 -101.562 827
-257.812 -46.875 827
-320.312 -359.375 1359
265.625 187.5 612
62.5 -281.25 802
359.375 257.812 636
179.688 -117.188 682
-437.5 85.9375 935
85.9375 -343.75 764
375 171.875 674
-437.5 -23.4375 889
304.688 -70.3125 667
-109.375 -250 691
39.0625 -46.875 725
-375 -234.375 975
62.5 -414.062 783
484.375 375 584
-320.312 0 802
-289.062 -78.125 906
54.6875 -406.25 785
-351.562 -164.062 1010
179.688 -195.312 739
359.375 164.062 680
-281.25 -31.25 817
-7.8125 -195.312 652
281.25 -218.75 742
-304.688 164.062 882
-421.875 -70.3125 869
281.25 -109.375 734
281.25 -242.188 933
164.062 -289.062 767
78.125 -414.062 776
-46.875 -93.75 706
281.25 -257.812 946
250 -164.062 761
-257.812 312.5 1503
156.25 -234.375 805
-429.688 7.8125 910
-289.062 -23.4375 813
-429.688 -23.4375 889
-23.4375 -414.062 2432
39.0625 -101.562 698
54.6875 -273.438 807
-437.5 335.938 1713
234.375 218.75 620
281.25 -226.562 923
210.938 195.312 632
-226.562 359.375 1458
-335.938 195.312 871
148.438 -179.688 736
257.812 -234.375 725
-265.625 -109.375 943
-179.688 -125 873
-460.938 78.125 962
328.125 -70.3125 671
-382.812 -218.75 964
273.438 -195.312 742
-15.625 335.938 644
148.438 -343.75 754
-242.188 -156.25 880
156.25 -195.312 736
-398.438 -195.312 940
-171.875 179.688 696
70.3125 -429.688 789
226.562 -78.125 664
210.938 -437.5 773
-304.688 -375 1376
164.062 289.062 601
62.5 -421.875 789
179.688 328.125 593
328.125 -109.375 682
-296.875 -265.625 1047
-218.75 148.438 714
39.0625 -125 688
-398.438 -78.125 860
210.938 335.938 613
70.3125 -179.688 891
320.312 -7.8125 769
210.938 296.875 628
-281.25 -382.812 1387
0 320.312 628
-476.562 62.5 962
-429.688 93.75 933
156.25 328.125 598
351.562 210.938 661
39.0625 -156.25 672
187.5 -156.25 759
242.188 195.312 630
-335.938 -101.562 869
382.812 257.812 636
132.812 414.062 585
-273.438 -125 864
273.438 226.562 623
39.0625 -31.25 738
273.438 -132.812 774
