ply
format ascii 1.0
comment Created by Open3D
element vertex 2334
property double x
property double y
property double z
end_header
85.9375 -445.312 956
-320.312 265.625 1041
125 -445.312 948
-7.8125 375 1149
-296.875 -7.8125 998
273.438 78.125 1647
39.0625 -335.938 975
-15.625 -7.8125 946
-179.688 328.125 1223
-187.5 85.9375 964
-273.438 -62.5 940
-171.875 -132.812 933
-320.312 -62.5 1063
-289.062 328.125 1232
-125 265.625 1047
-343.75 -93.75 1063
273.438 93.75 1663
109.375 -195.312 875
-171.875 328.125 1214
-234.375 234.375 1034
421.875 -304.688 962
-23.4375 -7.8125 948
-312.5 -148.438 1028
476.562 -429.688 2958
-70.3125 250 1038
-117.188 351.562 1181
375 203.125 1655
-46.875 320.312 1210
-351.562 335.938 1227
-203.125 0 967
-390.625 -187.5 1483
-179.688 -171.875 933
-226.562 0 954
7.8125 375 1138
-179.688 -148.438 998
-101.562 335.938 1214
210.938 203.125 1731
-54.6875 250 1038
-210.938 -148.438 918
-187.5 -203.125 943
7.8125 390.625 1149
234.375 -46.875 933
39.0625 421.875 1214
132.812 -343.75 981
195.312 210.938 1739
-351.562 375 1189
-70.3125 320.312 1214
-187.5 351.562 1181
-203.125 -31.25 930
-265.625 -164.062 973
281.25 265.625 1410
-15.625 304.688 1094
-23.4375 320.312 1108
-210.938 -132.812 984
-398.438 335.938 1227
-164.062 -187.5 946
-289.062 -132.812 995
164.062 -46.875 928
484.375 -429.688 2789
-429.688 382.812 1130
421.875 -70.3125 923
-179.688 -70.3125 920
109.375 -390.625 959
-414.062 -320.312 2933
-15.625 -15.625 938
-31.25 382.812 1149
398.438 -257.812 920
-460.938 62.5 918
-320.312 -117.188 1060
-23.4375 414.062 1181
273.438 85.9375 1655
-460.938 343.75 1097
7.8125 -382.812 959
-265.625 46.875 913
109.375 -31.25 933
-85.9375 250 1041
-460.938 -390.625 2835
125 -390.625 962
-273.438 164.062 998
-359.375 -156.25 1354
-132.812 -117.188 935
-187.5 -210.938 946
-132.812 312.5 1250
-156.25 -46.875 930
281.25 54.6875 975
-437.5 -382.812 2835
-421.875 375 1141
125 -359.375 978
0 -257.812 1067
-85.9375 -23.4375 984
54.6875 289.062 1579
-429.688 -296.875 2958
70.3125 218.75 1731
-273.438 -156.25 975
132.812 -429.688 948
-187.5 265.625 1050
140.625 -257.812 1007
421.875 -242.188 885
-359.375 15.625 973
31.25 -382.812 956
125 -437.5 948
-429.688 -328.125 2908
343.75 343.75 1328
-414.062 343.75 1189
250 -304.688 1084
-312.5 -54.6875 1073
335.938 -304.688 970
-242.188 234.375 1031
-304.688 320.312 1255
328.125 -54.6875 930
132.812 -265.625 1013
-7.8125 -296.875 1219
-117.188 343.75 1210
265.625 140.625 1696
132.812 -328.125 989
23.4375 -195.312 887
-281.25 0 978
-7.8125 -437.5 1126
-359.375 -70.3125 1149
359.375 -265.625 928
148.438 -429.688 954
453.125 -70.3125 923
-203.125 351.562 1181
484.375 390.625 1181
-351.562 -78.125 1157
-257.812 273.438 1038
203.125 312.5 1387
273.438 179.688 1731
-78.125 140.625 987
31.25 351.562 1193
117.188 -351.562 978
-375 54.6875 913
-281.25 -203.125 925
39.0625 -296.875 989
7.8125 -359.375 973
343.75 -195.312 873
414.062 -70.3125 925
281.25 78.125 1647
-54.6875 -7.8125 946
210.938 -39.0625 938
-242.188 171.875 981
-218.75 -46.875 923
132.812 -289.062 1004
492.188 -312.5 1047
-226.562 265.625 1047
0 -382.812 1141
70.3125 -453.125 954
-414.062 -257.812 2859
-437.5 -398.438 2812
-281.25 296.875 1283
273.438 140.625 1696
-429.688 101.562 970
171.875 -390.625 967
-250 -195.312 923
31.25 -304.688 989
-78.125 164.062 998
-179.688 -39.0625 925
-367.188 -101.562 1227
-304.688 -23.4375 1031
-179.688 -179.688 935
226.562 218.75 1655
-148.438 359.375 1177
-101.562 -78.125 954
226.562 -39.0625 948
-93.75 -31.25 995
289.062 140.625 1696
-164.062 -39.0625 933
93.75 -382.812 959
-54.6875 -15.625 940
-85.9375 125 978
70.3125 -445.312 954
117.188 -382.812 967
-93.75 -23.4375 984
-367.188 -93.75 1173
23.4375 335.938 1197
-101.562 -93.75 951
-437.5 -445.312 2767
70.3125 -23.4375 935
-500 -289.062 2184
257.812 289.062 1354
-93.75 -171.875 887
265.625 156.25 1713
-445.312 -328.125 2933
-210.938 273.438 1038
78.125 -359.375 970
367.188 281.25 1365
351.562 265.625 1398
273.438 54.6875 981
-281.25 -62.5 946
281.25 203.125 2040
492.188 -78.125 918
78.125 -257.812 1010
250 164.062 1713
-101.562 -85.9375 954
421.875 156.25 1445
242.188 171.875 1722
85.9375 -375 962
31.25 -328.125 978
273.438 46.875 954
-445.312 171.875 1001
-164.062 304.688 1564
-156.25 328.125 1214
-156.25 304.688 1564
-70.3125 195.312 1010
-226.562 -187.5 943
-140.625 -78.125 930
-140.625 -54.6875 933
-406.25 -210.938 3010
-257.812 289.062 1292
-78.125 -7.8125 956
171.875 359.375 1427
-78.125 156.25 992
218.75 195.312 1731
39.0625 328.125 1185
-250 359.375 1185
476.562 -390.625 2958
-226.562 -218.75 1161
218.75 187.5 1731
-429.688 -335.938 2883
-320.312 -109.375 1057
-101.562 -281.25 3120
-226.562 351.562 1185
484.375 382.812 1177
-242.188 257.812 1044
140.625 -273.438 1010
226.562 0 901
281.25 195.312 1731
398.438 351.562 1338
414.062 -242.188 889
156.25 -421.875 956
132.812 -414.062 954
156.25 -210.938 885
-117.188 -78.125 940
-93.75 78.125 959
-406.25 -218.75 3010
-382.812 54.6875 913
-359.375 -93.75 1206
273.438 187.5 1739
-156.25 -117.188 930
23.4375 -414.062 946
445.312 203.125 1359
54.6875 281.25 1601
101.562 -289.062 1001
-156.25 -93.75 925
476.562 -382.812 2984
-164.062 -171.875 935
-359.375 54.6875 913
-187.5 -179.688 935
85.9375 390.625 1214
-70.3125 218.75 1022
54.6875 -31.25 933
-117.188 -187.5 1387
-148.438 335.938 1210
-210.938 -101.562 915
54.6875 414.062 1206
117.188 -421.875 948
-101.562 304.688 1250
195.312 296.875 1536
-46.875 304.688 1241
273.438 62.5 981
-429.688 -359.375 2859
-164.062 -132.812 935
-421.875 312.5 1177
476.562 -367.188 2984
62.5 -195.312 880
281.25 46.875 954
-273.438 -140.625 987
140.625 -351.562 981
242.188 343.75 1338
-109.375 -117.188 951
-265.625 296.875 1278
-226.562 179.688 998
-93.75 85.9375 964
7.8125 -281.25 1138
484.375 -250 885
-500 -390.625 2908
148.438 -31.25 933
39.0625 -382.812 956
23.4375 359.375 1202
78.125 -421.875 948
-156.25 -70.3125 923
-93.75 351.562 1181
-367.188 -85.9375 1173
78.125 -445.312 954
39.0625 46.875 908
-273.438 -125 995
-85.9375 109.375 973
-23.4375 421.875 1181
-484.375 -218.75 2381
414.062 -281.25 898
-164.062 -125 933
39.0625 320.312 1202
-289.062 -7.8125 995
-437.5 -375 2859
-359.375 -109.375 1241
484.375 -312.5 1060
-62.5 -359.375 2984
-257.812 312.5 1255
-70.3125 -335.938 3037
-39.0625 -406.25 1161
476.562 406.25 1250
367.188 187.5 1688
-289.062 -15.625 1010
-382.812 -187.5 1489
-140.625 -117.188 933
-101.562 -78.125 954
-15.625 -390.625 1145
70.3125 -390.625 956
23.4375 351.562 1210
-406.25 171.875 1001
-78.125 148.438 987
31.25 351.562 1193
382.812 -242.188 896
-265.625 -125 987
-226.562 304.688 1250
-54.6875 -351.562 1214
257.812 273.438 1376
390.625 242.188 1564
335.938 -234.375 889
304.688 226.562 1427
453.125 390.625 1302
132.812 -320.312 992
328.125 -296.875 970
203.125 -382.812 1041
39.0625 -343.75 973
-375 -187.5 1067
-117.188 -109.375 946
-62.5 -460.938 2789
31.25 359.375 1197
-203.125 -132.812 923
-70.3125 210.938 1019
0 -250 1041
23.4375 445.312 1185
429.688 109.375 1365
-320.312 289.062 1283
-398.438 164.062 998
476.562 -406.25 2958
343.75 -328.125 1185
-101.562 -62.5 956
-187.5 -210.938 946
-335.938 -132.812 1112
62.5 -23.4375 935
-187.5 -203.125 943
-218.75 273.438 1047
-281.25 289.062 1283
-250 -101.562 946
-359.375 335.938 1227
-195.312 -203.125 940
-273.438 -78.125 940
62.5 210.938 1739
335.938 -273.438 995
39.0625 351.562 1181
-46.875 312.5 1245
476.562 -414.062 2958
-85.9375 132.812 981
-257.812 -31.25 930
0 -281.25 1153
-257.812 156.25 992
-70.3125 195.312 1010
-250 257.812 1044
-335.938 179.688 1001
-320.312 -62.5 1063
-93.75 257.812 1044
484.375 -78.125 920
-281.25 -210.938 1145
-23.4375 203.125 1019
-281.25 -70.3125 946
-23.4375 289.062 1090
-367.188 -93.75 1173
-296.875 179.688 995
-304.688 -39.0625 1057
132.812 -281.25 1004
-273.438 296.875 1278
-132.812 -62.5 928
-23.4375 296.875 1094
125 -421.875 948
125 -421.875 948
-203.125 -109.375 920
54.6875 445.312 1227
-414.062 -226.562 2958
-31.25 390.625 1415
-476.562 62.5 918
-93.75 -39.0625 1001
-242.188 -203.125 928
132.812 -304.688 998
23.4375 390.625 1130
-210.938 351.562 1177
-62.5 101.562 964
-156.25 -164.062 940
210.938 195.312 1731
-226.562 -179.688 938
-156.25 335.938 1206
226.562 -46.875 933
476.562 -375 2984
23.4375 429.688 1185
367.188 351.562 1297
-460.938 -414.062 2812
-445.312 85.9375 920
-250 -234.375 1161
242.188 179.688 1731
-265.625 156.25 989
-125 -125 946
210.938 -218.75 882
476.562 -351.562 3010
273.438 296.875 1338
46.875 -320.312 981
-398.438 195.312 1016
-31.25 382.812 1149
46.875 -359.375 967
109.375 -296.875 998
390.625 -265.625 913
148.438 7.8125 898
-218.75 -125 923
-70.3125 171.875 998
-375 179.688 995
328.125 -312.5 1112
70.3125 -429.688 948
-226.562 -164.062 925
218.75 187.5 1731
476.562 -335.938 1115
-367.188 -117.188 1264
476.562 -429.688 2958
-460.938 -375 2933
-468.75 -460.938 2744
-312.5 -39.0625 1057
304.688 250 1427
343.75 257.812 1410
-117.188 320.312 1214
-78.125 -109.375 903
-257.812 296.875 1288
-460.938 -242.188 2598
-257.812 -54.6875 930
109.375 -359.375 973
-421.875 320.312 1177
54.6875 -195.312 880
-304.688 -15.625 1010
-7.8125 390.625 1153
-351.562 -54.6875 1105
-101.562 250 1041
179.688 -46.875 930
-351.562 -85.9375 1185
-328.125 335.938 1223
304.688 -304.688 1105
-468.75 296.875 1077
-335.938 -46.875 1077
-500 -242.188 2241
250 171.875 1722
257.812 -398.438 1028
-23.4375 -421.875 1145
109.375 -39.0625 930
85.9375 -296.875 992
335.938 -296.875 970
-406.25 -187.5 1489
-70.3125 -367.188 2984
31.25 -320.312 984
335.938 -265.625 973
31.25 -382.812 956
-242.188 -187.5 928
-39.0625 367.188 1169
-132.812 -101.562 935
-140.625 -54.6875 933
-273.438 -70.3125 940
23.4375 -281.25 1007
-210.938 257.812 1047
-54.6875 156.25 992
-179.688 -132.812 930
242.188 -304.688 1084
171.875 -31.25 946
-85.9375 320.312 1214
226.562 -390.625 1031
195.312 54.6875 962
367.188 -273.438 923
476.562 -421.875 2958
-421.875 -257.812 2789
-382.812 398.438 1245
476.562 -437.5 2958
-328.125 -171.875 1034
-93.75 250 1041
-109.375 -54.6875 954
-70.3125 203.125 1013
-265.625 312.5 1250
-320.312 -140.625 1041
101.562 296.875 1564
-437.5 -390.625 2835
-164.062 -117.188 928
-445.312 -453.125 2744
-101.562 -70.3125 954
-320.312 -132.812 1025
156.25 -414.062 959
-343.75 398.438 1370
367.188 273.438 1387
54.6875 -367.188 962
46.875 -453.125 1119
-226.562 257.812 1047
101.562 304.688 1536
375 -273.438 915
-273.438 171.875 998
46.875 421.875 1210
-265.625 164.062 995
54.6875 203.125 1739
-375 335.938 1227
257.812 164.062 1713
-218.75 -203.125 935
-304.688 -54.6875 1073
257.812 265.625 1387
-93.75 -15.625 970
0 -273.438 1115
-15.625 367.188 1145
273.438 195.312 1739
-304.688 -62.5 1063
-312.5 -46.875 1073
-289.062 343.75 1210
250 164.062 1713
468.75 -93.75 920
-101.562 343.75 1181
-390.625 -203.125 3092
312.5 -70.3125 925
0 -265.625 1094
445.312 375 1333
-343.75 -62.5 1115
54.6875 335.938 1185
273.438 117.188 1680
-140.625 -101.562 933
-296.875 -101.562 1060
382.812 -320.312 973
-31.25 265.625 1077
31.25 421.875 1219
-351.562 421.875 1338
46.875 -265.625 1001
0 -187.5 882
-171.875 304.688 1579
-437.5 -296.875 2958
-195.312 257.812 1047
-343.75 -78.125 1080
281.25 93.75 1663
-179.688 273.438 1047
375 257.812 1387
54.6875 -320.312 981
39.0625 328.125 1185
375 -312.5 975
-31.25 -429.688 1145
39.0625 -429.688 946
320.312 -70.3125 925
-406.25 421.875 1169
125 -304.688 995
-429.688 -343.75 2883
39.0625 421.875 1214
-7.8125 382.812 1149
148.438 -304.688 1001
492.188 351.562 1157
-359.375 -70.3125 1149
-289.062 -39.0625 962
-195.312 351.562 1181
-171.875 -187.5 948
-117.188 289.062 1283
-39.0625 -460.938 1165
-78.125 179.688 1001
46.875 -460.938 1123
-125 351.562 1181
31.25 -250 1016
-171.875 -195.312 954
-179.688 257.812 1044
-257.812 -31.25 930
23.4375 -406.25 946
23.4375 -312.5 989
-109.375 -109.375 948
46.875 -31.25 933
-273.438 -54.6875 938
39.0625 -421.875 946
-85.9375 132.812 981
-445.312 -335.938 2908
31.25 -460.938 1123
210.938 -54.6875 930
-46.875 187.5 1007
-39.0625 -445.312 1165
-78.125 164.062 998
-445.312 -421.875 2789
-421.875 -265.625 2812
-195.312 -31.25 928
-367.188 -85.9375 1173
-117.188 -85.9375 943
187.5 -296.875 1001
-140.625 -132.812 938
-328.125 -109.375 1057
-289.062 367.188 1185
-101.562 359.375 1173
70.3125 218.75 1731
414.062 289.062 1470
-312.5 -117.188 1060
218.75 -54.6875 930
-203.125 273.438 1038
156.25 -421.875 956
-23.4375 304.688 1101
-265.625 -39.0625 933
-429.688 343.75 1141
476.562 -359.375 2984
-164.062 328.125 1214
-46.875 312.5 1245
250 -359.375 1034
-351.562 -101.562 1077
-140.625 312.5 1572
-296.875 -234.375 1145
0 437.5 1197
476.562 -398.438 2958
78.125 -320.312 987
-125 -70.3125 946
-164.062 -179.688 943
-203.125 265.625 1047
265.625 265.625 1392
-250 296.875 1288
46.875 320.312 1193
-85.9375 140.625 989
70.3125 -367.188 970
-281.25 320.312 1255
140.625 -414.062 956
-132.812 265.625 1047
367.188 -78.125 923
-281.25 46.875 915
367.188 -312.5 959
-54.6875 265.625 1047
492.188 359.375 1165
-31.25 257.812 1073
117.188 -421.875 951
-234.375 -125 925
-359.375 265.625 1044
-367.188 -46.875 1084
164.062 289.062 1550
-289.062 296.875 1288
-343.75 335.938 1223
93.75 -296.875 995
-23.4375 429.688 1193
445.312 -210.938 871
-7.8125 398.438 1165
273.438 132.812 1696
-265.625 -210.938 928
-132.812 335.938 1214
-117.188 226.562 1031
0 445.312 1197
-101.562 226.562 1031
-406.25 281.25 1255
-375 398.438 1288
218.75 195.312 1731
93.75 -390.625 959
-335.938 -179.688 984
-15.625 320.312 1108
-414.062 -218.75 2984
85.9375 320.312 1536
-375 421.875 1273
218.75 -218.75 878
62.5 296.875 1557
-476.562 304.688 1080
-273.438 -210.938 1153
-23.4375 250 1054
-132.812 359.375 1177
-320.312 -156.25 1004
46.875 312.5 1197
148.438 289.062 1557
-382.812 421.875 1259
15.625 414.062 1134
-375 304.688 1297
15.625 429.688 1181
492.188 398.438 1189
-445.312 -179.688 1489
-54.6875 -460.938 1181
-156.25 -101.562 933
-31.25 -375 1157
-437.5 359.375 1130
-54.6875 -156.25 885
-250 179.688 975
250 289.062 1354
-93.75 -101.562 915
62.5 382.812 1250
-359.375 -62.5 1115
125 289.062 1572
117.188 -414.062 954
210.938 -304.688 1087
-109.375 351.562 1177
132.812 -296.875 1001
-312.5 -39.0625 1054
-7.8125 -445.312 1126
101.562 296.875 1564
351.562 -312.5 970
-62.5 351.562 1169
-164.062 -78.125 928
296.875 257.812 1427
-281.25 7.8125 967
-93.75 93.75 967
-281.25 -171.875 920
156.25 -429.688 946
468.75 -320.312 1094
-445.312 -414.062 2789
7.8125 414.062 1169
62.5 351.562 1197
125 -351.562 981
78.125 -453.125 951
226.562 382.812 1376
-70.3125 210.938 1022
7.8125 398.438 1134
-23.4375 312.5 1108
15.625 406.25 1134
-343.75 -54.6875 1097
-15.625 -328.125 1214
109.375 -351.562 978
304.688 289.062 1387
203.125 320.312 1381
-492.188 -187.5 2317
-226.562 -156.25 925
-429.688 -187.5 3092
-62.5 304.688 1245
414.062 -289.062 898
140.625 335.938 1477
171.875 -351.562 978
367.188 296.875 1322
117.188 -39.0625 930
-367.188 -171.875 1084
-70.3125 218.75 1025
-359.375 -85.9375 1094
148.438 -23.4375 935
-62.5 343.75 1177
-468.75 -23.4375 1063
7.8125 -382.812 959
-148.438 312.5 1245
-289.062 234.375 1034
382.812 -78.125 923
484.375 375 1214
-328.125 179.688 1007
-148.438 304.688 1250
-351.562 -125 1115
-414.062 320.312 1214
226.562 335.938 1343
-101.562 -39.0625 1001
85.9375 328.125 1523
7.8125 320.312 1105
-343.75 -179.688 989
-304.688 -39.0625 1054
-164.062 -234.375 984
-46.875 320.312 1119
-117.188 -156.25 964
273.438 70.3125 1639
-328.125 101.562 973
148.438 -421.875 954
-203.125 -164.062 923
-93.75 101.562 973
343.75 304.688 1297
484.375 -312.5 1050
218.75 187.5 1739
-234.375 -250 1157
-203.125 -187.5 946
62.5 390.625 1219
-296.875 -54.6875 956
-195.312 289.062 1283
101.562 429.688 1328
-132.812 -125 946
367.188 -265.625 920
414.062 -85.9375 923
-85.9375 117.188 978
140.625 -406.25 959
140.625 289.062 1564
-359.375 -125 1115
125 -281.25 1004
-437.5 -460.938 2744
-93.75 78.125 964
-93.75 -39.0625 1001
-109.375 -101.562 956
-289.062 -132.812 995
476.562 -390.625 2859
-281.25 -164.062 975
-31.25 398.438 1169
484.375 343.75 1153
85.9375 -367.188 967
-320.312 -101.562 1057
-296.875 0 978
484.375 382.812 1210
468.75 -125 903
-93.75 -23.4375 978
-23.4375 421.875 1185
-117.188 -125 956
-421.875 -296.875 2908
-179.688 -39.0625 930
476.562 -382.812 2984
250 171.875 1731
54.6875 -382.812 959
-203.125 -46.875 923
78.125 -312.5 989
460.938 171.875 1278
-273.438 179.688 975
-359.375 -93.75 1087
70.3125 445.312 1250
-445.312 -406.25 2812
-351.562 414.062 1359
-429.688 -335.938 2883
46.875 -406.25 948
-78.125 171.875 1001
-23.4375 -414.062 1138
-429.688 -382.812 2835
-429.688 -328.125 2883
-39.0625 -7.8125 946
-109.375 289.062 1283
101.562 289.062 1579
265.625 132.812 1696
-218.75 -242.188 1130
164.062 328.125 1477
-125 281.25 1283
-70.3125 203.125 1019
46.875 -289.062 995
-273.438 -62.5 935
-406.25 -242.188 2958
-109.375 281.25 1283
-93.75 -31.25 992
-367.188 -164.062 1421
132.812 -289.062 1004
-320.312 -179.688 935
476.562 -406.25 2958
-39.0625 375 1439
117.188 -445.312 951
23.4375 -414.062 946
289.062 375 1333
-125 304.688 1250
-273.438 -46.875 930
31.25 351.562 1185
-492.188 -164.062 2271
-281.25 15.625 954
78.125 -296.875 995
367.188 -289.062 908
-312.5 289.062 1288
-226.562 -195.312 935
-273.438 -148.438 978
-109.375 -117.188 956
-289.062 7.8125 967
-164.062 -164.062 943
-242.188 265.625 1047
-46.875 343.75 1181
-23.4375 437.5 1193
-437.5 -367.188 2835
-23.4375 -421.875 1138
-273.438 -54.6875 933
-39.0625 -398.438 1149
-320.312 -85.9375 1057
-250 351.562 1189
-328.125 -164.062 1010
46.875 -429.688 946
179.688 -351.562 1080
-101.562 -70.3125 967
70.3125 -367.188 970
-78.125 187.5 1010
39.0625 398.438 1206
125 -351.562 981
164.062 296.875 1550
101.562 -375 967
-117.188 -101.562 954
-54.6875 281.25 1090
-156.25 281.25 1292
187.5 -367.188 1063
-351.562 -54.6875 1101
-31.25 -7.8125 948
-15.625 281.25 1084
-312.5 -46.875 1073
289.062 304.688 1317
-109.375 -109.375 956
-296.875 -242.188 1145
-390.625 54.6875 918
31.25 -328.125 978
-203.125 -218.75 948
-484.375 -171.875 2333
-257.812 156.25 995
-39.0625 367.188 1153
-250 -187.5 928
359.375 54.6875 1632
-429.688 -179.688 1470
445.312 132.812 1328
328.125 -289.062 975
62.5 -359.375 970
-85.9375 132.812 984
-31.25 -437.5 1141
-359.375 -62.5 1115
-140.625 -78.125 935
343.75 265.625 1398
-453.125 -460.938 2744
335.938 250 1421
-117.188 -93.75 951
-304.688 -31.25 1041
15.625 359.375 1214
-343.75 -171.875 989
62.5 382.812 1250
-289.062 -210.938 1149
359.375 -273.438 920
-23.4375 -375 1153
-320.312 -109.375 1060
125 -414.062 956
125 -437.5 948
31.25 -312.5 987
-171.875 -23.4375 938
23.4375 -312.5 987
234.375 195.312 1739
-78.125 195.312 1013
234.375 390.625 1359
46.875 -359.375 970
-218.75 328.125 1219
-78.125 156.25 995
46.875 -23.4375 938
476.562 -226.562 867
-476.562 406.25 1141
-117.188 -85.9375 948
-125 -70.3125 946
281.25 156.25 1705
0 -250 1038
-335.938 -132.812 1044
31.25 -304.688 989
-289.062 -234.375 1153
-281.25 -140.625 987
-328.125 -117.188 1060
335.938 343.75 1292
-265.625 -117.188 954
476.562 406.25 1232
-93.75 101.562 973
-164.062 -85.9375 928
-250 0 943
-312.5 -156.25 989
117.188 -304.688 998
492.188 -250 867
-54.6875 343.75 1181
-85.9375 125 981
23.4375 351.562 1202
-140.625 -109.375 938
-476.562 109.375 973
-132.812 -62.5 940
-304.688 -15.625 1013
-296.875 -31.25 964
-257.812 -31.25 930
-85.9375 140.625 989
7.8125 421.875 1177
-296.875 -117.188 1007
-7.8125 429.688 1193
-375 -179.688 1483
-23.4375 -429.688 1138
-109.375 343.75 1177
-23.4375 -320.312 1283
31.25 351.562 1185
-15.625 359.375 1138
-117.188 -195.312 1392
-367.188 -132.812 1312
-257.812 -179.688 925
-132.812 -93.75 943
109.375 -304.688 998
-39.0625 -429.688 1149
117.188 -406.25 959
164.062 289.062 1550
-39.0625 171.875 1001
70.3125 382.812 1236
-445.312 -320.312 2933
-7.8125 421.875 1181
46.875 320.312 1193
39.0625 421.875 1214
273.438 -62.5 928
-250 -7.8125 940
54.6875 -281.25 1001
-304.688 -93.75 1060
257.812 210.938 2028
-335.938 -171.875 984
-476.562 382.812 1126
-218.75 0 973
273.438 296.875 1333
-484.375 390.625 1134
-242.188 351.562 1185
-195.312 -125 930
328.125 -234.375 885
250 -328.125 1077
-296.875 351.562 1193
359.375 289.062 1349
351.562 -62.5 928
23.4375 -320.312 984
-367.188 382.812 1322
296.875 140.625 1705
-203.125 -140.625 998
-234.375 -242.188 1157
-203.125 -171.875 930
-7.8125 406.25 1173
85.9375 226.562 1696
421.875 218.75 1433
15.625 437.5 1197
476.562 210.938 1236
-257.812 0 943
-54.6875 289.062 1264
-257.812 -156.25 923
-187.5 328.125 1214
117.188 -414.062 954
-234.375 -7.8125 948
-304.688 -62.5 954
-406.25 -265.625 2958
-203.125 -265.625 3120
62.5 359.375 1197
-445.312 -328.125 2958
7.8125 335.938 1123
-171.875 -226.562 973
39.0625 -296.875 989
-109.375 -101.562 956
-117.188 -125 956
101.562 289.062 1579
117.188 -421.875 951
195.312 351.562 1439
54.6875 -273.438 1001
-31.25 398.438 1169
-390.625 164.062 1001
-23.4375 -312.5 1283
62.5 -85.9375 915
445.312 382.812 1317
-367.188 -125 1292
-39.0625 375 1439
-15.625 -156.25 887
-101.562 -54.6875 962
-312.5 351.562 1193
429.688 164.062 1404
-296.875 -46.875 962
-406.25 -210.938 3010
-140.625 -125 943
-203.125 -242.188 1101
-101.562 -62.5 964
375 273.438 1365
476.562 -351.562 3010
109.375 -414.062 954
-500 101.562 928
-156.25 289.062 1283
476.562 -414.062 2958
125 -406.25 959
492.188 351.562 1157
-179.688 -156.25 1001
-15.625 351.562 1130
-31.25 -312.5 1278
-62.5 250 1044
-320.312 -62.5 1067
-226.562 289.062 1288
-273.438 156.25 995
-210.938 -31.25 930
-210.938 -31.25 930
437.5 -335.938 1169
-367.188 -93.75 1210
93.75 -312.5 992
31.25 -406.25 948
320.312 351.562 1292
-164.062 -62.5 925
-359.375 -62.5 1115
-296.875 0 978
-148.438 -85.9375 935
242.188 171.875 1731
125 -351.562 981
335.938 -320.312 973
-328.125 -148.438 1041
31.25 304.688 1202
-210.938 -210.938 943
-250 -15.625 938
-171.875 -179.688 943
-7.8125 -320.312 1210
-171.875 -132.812 935
351.562 -343.75 1202
-273.438 -179.688 923
0 -257.812 1060
453.125 -328.125 1119
-93.75 320.312 1223
-164.062 -46.875 935
101.562 296.875 1564
-101.562 -15.625 967
-312.5 187.5 973
-70.3125 218.75 1025
-54.6875 171.875 1001
-375 -109.375 1245
226.562 -406.25 1028
117.188 -406.25 959
39.0625 -351.562 970
-484.375 -156.25 1439
-320.312 -78.125 1057
70.3125 -320.312 989
-281.25 -46.875 938
46.875 -390.625 956
-140.625 -117.188 938
-54.6875 -390.625 1169
-7.8125 -257.812 1063
62.5 -429.688 948
78.125 -281.25 1001
-304.688 -39.0625 1054
476.562 -375 2984
-289.062 -164.062 973
132.812 -281.25 1010
31.25 359.375 1189
-289.062 -226.562 1149
-273.438 429.688 1370
351.562 -281.25 915
-23.4375 -406.25 1138
-164.062 335.938 1210
-281.25 7.8125 967
148.438 -437.5 946
273.438 117.188 1680
-226.562 -187.5 943
93.75 -250 998
117.188 -296.875 1001
-242.188 -78.125 925
-382.812 171.875 995
-437.5 289.062 1161
-289.062 -171.875 920
-296.875 -226.562 1145
31.25 -335.938 975
-31.25 312.5 1112
-320.312 -101.562 1057
-109.375 -93.75 954
-23.4375 234.375 1044
242.188 -320.312 1077
-320.312 -54.6875 1077
-406.25 179.688 1010
-328.125 -54.6875 1077
-187.5 -70.3125 923
351.562 296.875 1343
-85.9375 156.25 995
-414.062 -265.625 2859
-312.5 62.5 915
-429.688 -320.312 2933
-335.938 -125 1060
-375 -101.562 1227
343.75 257.812 1404
-23.4375 359.375 1138
-367.188 -78.125 1157
117.188 -398.438 962
476.562 -234.375 867
148.438 -210.938 882
-54.6875 289.062 1264
-85.9375 148.438 992
-23.4375 343.75 1130
-500 -156.25 2286
-265.625 -195.312 928
-281.25 -210.938 1153
-312.5 -31.25 1044
-281.25 -156.25 978
-210.938 -218.75 943
-273.438 289.062 1283
-375 93.75 920
-328.125 -156.25 1038
46.875 304.688 1197
7.8125 -281.25 1004
-203.125 -210.938 948
-343.75 -46.875 1080
-31.25 406.25 1177
-382.812 -195.312 3064
-125 -101.562 946
-101.562 257.812 1044
-62.5 109.375 973
-109.375 328.125 1214
-304.688 -15.625 1013
-85.9375 140.625 989
242.188 -328.125 1073
-359.375 -148.438 1349
117.188 -289.062 1004
-406.25 164.062 1001
492.188 -304.688 1010
250 -398.438 1031
-54.6875 -179.688 882
476.562 -367.188 2984
-304.688 -70.3125 951
132.812 -289.062 1004
-117.188 -93.75 951
390.625 250 1550
-187.5 -125 930
101.562 -289.062 1001
359.375 62.5 1639
-421.875 -250 2767
15.625 382.812 1141
-296.875 -125 998
-281.25 -70.3125 940
-250 -218.75 1161
31.25 -359.375 967
-156.25 359.375 1177
-125 -78.125 943
-281.25 -78.125 943
476.562 -320.312 1087
-78.125 195.312 1013
335.938 -328.125 1173
-242.188 398.438 1427
-117.188 328.125 1219
-304.688 -7.8125 995
85.9375 -289.062 998
351.562 265.625 1392
273.438 125 1696
-273.438 351.562 1189
-78.125 296.875 1241
-140.625 -7.8125 967
-93.75 93.75 967
-210.938 -93.75 918
218.75 195.312 1731
484.375 218.75 1084
289.062 304.688 1317
-179.688 -93.75 923
250 203.125 2040
39.0625 -429.688 946
-476.562 320.312 1087
257.812 148.438 1705
367.188 289.062 1338
-359.375 15.625 970
23.4375 421.875 1227
-226.562 -62.5 923
125 -343.75 984
148.438 -351.562 981
-78.125 179.688 1007
-460.938 -414.062 2789
-437.5 -242.188 2618
-437.5 351.562 1134
-117.188 -203.125 1392
351.562 -296.875 970
132.812 -437.5 948
265.625 125 1688
257.812 289.062 1354
390.625 296.875 1328
-257.812 -156.25 923
-164.062 359.375 1177
390.625 -273.438 913
-179.688 -187.5 946
93.75 -304.688 992
-257.812 156.25 995
-85.9375 132.812 984
0 -382.812 973
265.625 -62.5 928
-7.8125 -281.25 1145
-351.562 -70.3125 1094
-70.3125 210.938 1022
-7.8125 -335.938 1197
-140.625 335.938 1219
226.562 179.688 1739
-296.875 179.688 975
-421.875 -281.25 2908
-31.25 250 1047
-492.188 289.062 1070
-445.312 -375 2835
195.312 203.125 1739
-39.0625 359.375 1181
476.562 -437.5 2958
-93.75 265.625 1044
-125 -117.188 951
-414.062 -218.75 2984
-23.4375 445.312 1206
187.5 210.938 1739
-148.438 -54.6875 938
-117.188 -164.062 967
-78.125 187.5 1010
-85.9375 -140.625 891
-320.312 -93.75 1057
-343.75 367.188 1189
-273.438 -46.875 930
-93.75 117.188 978
-335.938 -39.0625 1060
-281.25 -125 998
-132.812 -62.5 940
-85.9375 -390.625 2958
-46.875 -343.75 1206
-242.188 257.812 1047
-140.625 -93.75 940
101.562 -39.0625 933
-93.75 101.562 973
-23.4375 281.25 1090
-289.062 -62.5 948
-54.6875 296.875 1245
31.25 -296.875 992
-421.875 312.5 1197
78.125 335.938 1496
453.125 406.25 1283
-500 265.625 1054
289.062 257.812 1427
-250 171.875 975
125 -359.375 978
-23.4375 328.125 1115
-187.5 -171.875 930
429.688 343.75 1376
242.188 -351.562 1057
-179.688 -195.312 956
-468.75 -234.375 2485
15.625 359.375 1214
-304.688 -23.4375 1025
-195.312 -7.8125 981
-78.125 -375 2984
257.812 390.625 1322
382.812 234.375 1586
-46.875 335.938 1214
-273.438 -195.312 928
-367.188 -164.062 1421
-140.625 359.375 1181
-210.938 -132.812 923
125 -335.938 987
117.188 -406.25 959
492.188 343.75 1153
-156.25 -156.25 954
359.375 -296.875 959
-445.312 375 1123
-210.938 -85.9375 920
46.875 -195.312 880
-7.8125 -296.875 1197
148.438 -429.688 946
-468.75 -375 2883
-109.375 312.5 1245
-390.625 335.938 1223
-375 -109.375 1245
-23.4375 -398.438 1145
-23.4375 335.938 1123
31.25 421.875 1219
-93.75 -125 901
156.25 -46.875 930
-156.25 265.625 1044
-101.562 -23.4375 978
7.8125 414.062 1169
-15.625 359.375 1138
-257.812 -109.375 943
-375 -101.562 1227
-148.438 -46.875 940
39.0625 429.688 1219
421.875 351.562 1365
-421.875 273.438 1057
-429.688 -281.25 2835
-296.875 -31.25 964
148.438 -414.062 956
-109.375 -85.9375 954
-445.312 -414.062 2789
31.25 -257.812 1007
476.562 -359.375 2984
-46.875 -125 896
-15.625 382.812 1157
-367.188 -109.375 1236
15.625 421.875 1177
-23.4375 -414.062 1138
78.125 367.188 1245
15.625 351.562 1214
-218.75 -210.938 940
-500 367.188 1123
46.875 359.375 1189
359.375 281.25 1370
-46.875 359.375 1177
-148.438 359.375 1177
-273.438 -62.5 935
437.5 367.188 1343
-85.9375 164.062 998
-343.75 281.25 1057
-296.875 -93.75 1067
-414.062 -250 2958
484.375 367.188 1173
-320.312 -70.3125 1060
39.0625 414.062 1214
70.3125 406.25 1219
109.375 -351.562 978
335.938 304.688 1297
-304.688 179.688 998
-312.5 -31.25 1044
-15.625 390.625 1165
-304.688 -78.125 1063
46.875 414.062 1214
-78.125 203.125 1019
-234.375 0 970
132.812 -273.438 1013
320.312 -226.562 878
484.375 -312.5 1050
125 -351.562 981
-15.625 -460.938 1138
39.0625 328.125 1185
-78.125 265.625 1047
476.562 398.438 1232
7.8125 -320.312 989
93.75 -421.875 948
-187.5 304.688 1264
-265.625 164.062 998
-343.75 -132.812 1112
-187.5 -179.688 935
-156.25 -46.875 938
117.188 -398.438 962
125 -414.062 956
125 -414.062 956
-257.812 257.812 1047
54.6875 -343.75 975
132.812 -421.875 954
62.5 -460.938 1130
375 -343.75 970
-281.25 -62.5 938
-210.938 -226.562 1108
46.875 296.875 1572
-226.562 -218.75 940
-171.875 328.125 1223
257.812 164.062 1713
54.6875 359.375 1197
-273.438 312.5 1255
-54.6875 296.875 1245
-296.875 -156.25 984
281.25 187.5 1731
242.188 343.75 1328
359.375 250 1398
304.688 -296.875 1070
-187.5 -187.5 946
-398.438 -187.5 1489
453.125 398.438 1292
195.312 210.938 2065
-328.125 320.312 1255
265.625 -46.875 928
-281.25 -187.5 923
187.5 351.562 1445
23.4375 429.688 1232
273.438 117.188 1680
-476.562 -195.312 2317
-500 -164.062 2271
15.625 335.938 1197
273.438 195.312 1739
-359.375 414.062 1328
-335.938 179.688 1007
-31.25 -335.938 1210
-117.188 -187.5 1376
-148.438 -70.3125 928
140.625 7.8125 901
-328.125 -117.188 1060
-15.625 375 1153
-164.062 -171.875 943
-265.625 -117.188 954
109.375 375 1415
-468.75 335.938 1097
-242.188 179.688 975
54.6875 -359.375 970
-382.812 281.25 1312
-46.875 335.938 1214
-70.3125 351.562 1169
265.625 195.312 1739
375 210.938 1632
132.812 -406.25 959
-7.8125 414.062 1181
-281.25 164.062 998
117.188 195.312 1739
-210.938 -171.875 928
-210.938 265.625 1047
257.812 289.062 1354
-7.8125 -289.062 1181
-93.75 -15.625 967
-250 -195.312 925
39.0625 -343.75 973
-210.938 -15.625 998
31.25 312.5 1202
-460.938 -406.25 2859
70.3125 218.75 1705
-289.062 -226.562 1149
-70.3125 218.75 1025
-312.5 -23.4375 1025
257.812 273.438 1376
-93.75 109.375 975
-445.312 -406.25 2812
359.375 -343.75 973
-312.5 -187.5 935
242.188 -312.5 1080
-23.4375 273.438 1084
-406.25 265.625 1047
-312.5 320.312 1255
-70.3125 -7.8125 954
-304.688 -46.875 962
-296.875 -164.062 973
-31.25 -453.125 1145
-187.5 -226.562 959
-289.062 -210.938 1149
-421.875 -257.812 2767
-367.188 265.625 1044
109.375 304.688 1529
-31.25 414.062 1185
-437.5 101.562 967
70.3125 382.812 1236
-187.5 -171.875 930
-187.5 -164.062 930
351.562 39.0625 973
476.562 -382.812 2984
273.438 54.6875 981
-437.5 -375 2859
367.188 78.125 1647
265.625 109.375 1671
117.188 -390.625 964
-296.875 0 978
-62.5 -15.625 943
-250 234.375 1031
-414.062 304.688 1227
265.625 117.188 1680
109.375 296.875 1564
101.562 -304.688 998
-437.5 320.312 1149
-367.188 -78.125 1157
-210.938 0 967
-445.312 281.25 1054
-257.812 421.875 1387
-78.125 187.5 1010
-125 -179.688 1359
-367.188 -70.3125 1145
-304.688 335.938 1219
-101.562 -23.4375 978
-31.25 320.312 1115
-429.688 -312.5 2933
-343.75 -109.375 1063
320.312 -312.5 973
-195.312 265.625 1054
78.125 -421.875 948
429.688 171.875 1392
23.4375 -304.688 989
-101.562 281.25 1288
101.562 -375 967
39.0625 -382.812 956
101.562 312.5 1523
70.3125 -359.375 970
-85.9375 164.062 998
-367.188 -85.9375 1173
414.062 -296.875 898
265.625 164.062 1713
31.25 -437.5 948
492.188 164.062 1057
-273.438 -46.875 930
367.188 265.625 1381
-218.75 -109.375 923
15.625 320.312 1202
-343.75 375 1189
-85.9375 156.25 995
-109.375 -101.562 956
23.4375 -421.875 946
-250 164.062 995
-343.75 -164.062 1070
453.125 156.25 1307
-117.188 281.25 1283
-445.312 -429.688 2767
62.5 398.438 1214
148.438 -429.688 946
-140.625 304.688 1250
195.312 203.125 1739
-109.375 -93.75 954
-140.625 -62.5 933
-78.125 125 978
-203.125 164.062 1001
453.125 -226.562 867
476.562 -312.5 1063
335.938 250 1421
187.5 210.938 1739
359.375 289.062 1349
-406.25 320.312 1241
210.938 328.125 1381
101.562 304.688 1529
382.812 -273.438 913
187.5 -39.0625 935
195.312 210.938 2065
-195.312 -234.375 1084
-70.3125 234.375 1034
-195.312 -210.938 946
70.3125 -421.875 948
-343.75 -179.688 989
109.375 -382.812 967
226.562 187.5 1739
-437.5 -359.375 2835
179.688 218.75 2040
414.062 -304.688 962
-164.062 218.75 1028
242.188 -375 1031
62.5 390.625 1219
39.0625 421.875 1214
39.0625 -289.062 995
-85.9375 265.625 1047
-421.875 -289.062 2933
-31.25 234.375 1041
-109.375 -78.125 956
-421.875 -273.438 2835
-406.25 187.5 1010
-296.875 -226.562 1145
-101.562 -78.125 964
-421.875 289.062 1206
-406.25 -203.125 3010
335.938 257.812 1410
-343.75 179.688 1007
328.125 -70.3125 928
-375 -117.188 1264
-195.312 -203.125 946
-46.875 359.375 1177
-171.875 -156.25 1007
-242.188 171.875 981
140.625 -429.688 946
-367.188 -156.25 1387
-23.4375 445.312 1206
-414.062 281.25 1241
148.438 -421.875 954
-164.062 289.062 1283
109.375 367.188 1427
-93.75 125 981
-265.625 -23.4375 933
156.25 -398.438 962
-101.562 -31.25 992
-234.375 328.125 1223
7.8125 437.5 1197
164.062 -23.4375 935
-468.75 -453.125 2744
-289.062 -234.375 1153
-132.812 -109.375 943
328.125 -304.688 973
476.562 -398.438 2958
-304.688 -31.25 1041
46.875 289.062 1586
-125 312.5 1250
-93.75 101.562 973
-406.25 351.562 1206
273.438 101.562 1671
-492.188 -257.812 2226
23.4375 421.875 1227
250 -31.25 933
476.562 101.562 1214
-210.938 351.562 1189
-289.062 93.75 967
-109.375 -85.9375 954
-7.8125 -375 992
242.188 281.25 1370
-226.562 328.125 1219
359.375 273.438 1387
132.812 -296.875 1001
265.625 93.75 1671
-15.625 62.5 918
-218.75 351.562 1189
-257.812 -70.3125 933
-117.188 -101.562 954
-195.312 -101.562 920
492.188 289.062 1119
-101.562 -54.6875 962
273.438 109.375 1671
382.812 -289.062 910
-85.9375 171.875 1001
187.5 289.062 1557
15.625 429.688 1181
343.75 -296.875 973
-250 -187.5 928
492.188 179.688 1067
-265.625 -109.375 948
390.625 -257.812 920
-250 -23.4375 933
273.438 93.75 1663
-117.188 -210.938 1445
-101.562 78.125 962
-335.938 -54.6875 1094
265.625 101.562 1671
-171.875 289.062 1288
398.438 -320.312 964
-93.75 117.188 978
-453.125 101.562 970
-445.312 -312.5 2958
-328.125 -109.375 1057
-78.125 195.312 1013
-375 -109.375 1245
-203.125 -203.125 946
-257.812 -179.688 925
-234.375 -125 925
281.25 -54.6875 930
46.875 -281.25 1001
62.5 296.875 1557
-148.438 -54.6875 938
-226.562 335.938 1219
-234.375 -164.062 925
-31.25 328.125 1119
-226.562 -210.938 940
-226.562 -46.875 925
-429.688 367.188 1149
-304.688 -7.8125 995
492.188 -304.688 1010
109.375 289.062 1579
148.438 -445.312 948
-429.688 -320.312 2933
85.9375 351.562 1464
0 -382.812 973
-132.812 351.562 1181
-484.375 312.5 1084
125 -304.688 998
-54.6875 273.438 1087
15.625 367.188 1232
-62.5 265.625 1047
-296.875 -78.125 951
312.5 -54.6875 928
-289.062 -218.75 1149
-265.625 -179.688 928
351.562 -273.438 925
-23.4375 351.562 1134
70.3125 -359.375 970
-179.688 -226.562 959
46.875 414.062 1214
-85.9375 148.438 992
265.625 132.812 1696
-70.3125 -359.375 3010
-414.062 273.438 1054
-453.125 -359.375 2883
-476.562 414.062 1145
-125 -78.125 943
-117.188 -117.188 956
70.3125 -421.875 948
-15.625 398.438 1169
351.562 296.875 1343
-312.5 -117.188 1010
78.125 -125 901
-109.375 -70.3125 962
-62.5 140.625 987
-156.25 304.688 1250
-187.5 -132.812 933
-39.0625 382.812 1427
460.938 140.625 1278
46.875 -351.562 973
195.312 312.5 1489
-296.875 -7.8125 995
46.875 296.875 1572
-437.5 -273.438 2789
445.312 109.375 1333
132.812 -351.562 981
187.5 218.75 2040
0 367.188 1141
-273.438 7.8125 962
-257.812 414.062 1392
-429.688 328.125 1169
-39.0625 375 1439
-367.188 -70.3125 1145
-132.812 -85.9375 943
-257.812 -101.562 940
23.4375 -328.125 978
46.875 -320.312 984
-242.188 93.75 970
-171.875 -171.875 943
78.125 -320.312 987
-93.75 132.812 984
-171.875 -70.3125 925
-23.4375 -390.625 1145
265.625 109.375 1671
414.062 132.812 1445
-234.375 -156.25 923
-281.25 164.062 998
343.75 265.625 1398
-304.688 -31.25 1041
31.25 421.875 1219
15.625 -406.25 948
273.438 70.3125 1639
23.4375 351.562 1202
-281.25 296.875 1283
-70.3125 328.125 1210
-46.875 351.562 1177
-429.688 375 1145
320.312 351.562 1292
-101.562 85.9375 967
-78.125 210.938 1022
-195.312 -210.938 946
468.75 125 1241
-375 -187.5 1503
-78.125 218.75 1025
125 -265.625 1013
-140.625 -101.562 940
226.562 179.688 1739
375 218.75 1616
359.375 -273.438 920
-445.312 -320.312 2933
-62.5 273.438 1283
-179.688 -195.312 956
-367.188 -39.0625 1073
-421.875 304.688 1197
-351.562 -140.625 1112
70.3125 367.188 1232
-296.875 -15.625 1010
-101.562 -46.875 1022
109.375 -351.562 978
-187.5 -39.0625 930
-429.688 343.75 1157
-359.375 -125 1115
-359.375 -125 1115
-125 -164.062 967
-78.125 203.125 1019
23.4375 -15.625 946
-54.6875 -359.375 1206
-476.562 -398.438 2908
203.125 203.125 1739
-85.9375 171.875 1001
-109.375 -62.5 962
15.625 390.625 1134
-54.6875 304.688 1245
265.625 62.5 981
-234.375 -179.688 935
31.25 -382.812 956
335.938 -281.25 1004
-218.75 -132.812 923
148.438 -421.875 954
-179.688 -132.812 935
320.312 -296.875 975
492.188 335.938 1149
-242.188 -132.812 923
-156.25 78.125 964
-117.188 78.125 962
195.312 210.938 2065
-109.375 -281.25 3092
484.375 375 1214
265.625 85.9375 1655
-289.062 -70.3125 946
-468.75 -460.938 2744
62.5 -390.625 959
-273.438 -125 998
203.125 -390.625 1034
-7.8125 -382.812 973
-7.8125 -273.438 1115
-296.875 -218.75 1145
195.312 -375 1044
0 -250 1038
-85.9375 156.25 995
-31.25 296.875 1101
-414.062 171.875 1004
-375 -171.875 1458
-437.5 -367.188 2835
-15.625 414.062 1181
-421.875 351.562 1181
-140.625 -109.375 938
-78.125 343.75 1181
-320.312 -93.75 1057
-31.25 421.875 1365
492.188 343.75 1153
-125 -109.375 948
31.25 -335.938 975
273.438 179.688 1731
39.0625 -359.375 967
78.125 -281.25 1001
265.625 78.125 1647
-54.6875 320.312 1210
39.0625 -343.75 973
-375 -117.188 1264
250 156.25 1713
-179.688 -109.375 925
-195.312 -203.125 946
359.375 281.25 1370
117.188 -398.438 962
-132.812 281.25 1283
-359.375 -78.125 1094
-375 -85.9375 1173
-406.25 -226.562 2984
-289.062 -78.125 943
351.562 -265.625 928
296.875 250 1433
-101.562 304.688 1250
-203.125 328.125 1219
210.938 304.688 1392
-437.5 375 1134
-93.75 109.375 975
-148.438 -54.6875 938
-375 -101.562 1227
15.625 -414.062 946
343.75 250 1404
-406.25 304.688 1245
164.062 -210.938 880
-414.062 -234.375 2958
-414.062 -234.375 2958
-203.125 39.0625 913
179.688 218.75 2040
179.688 -148.438 894
453.125 320.312 1317
-265.625 -31.25 930
351.562 328.125 1297
15.625 359.375 1214
-101.562 -15.625 967
-164.062 -148.438 954
-78.125 171.875 1001
-39.0625 382.812 1427
-296.875 -31.25 964
-54.6875 312.5 1245
281.25 351.562 1317
-375 -179.688 1483
-54.6875 328.125 1210
31.25 351.562 1185
-406.25 164.062 1001
-453.125 328.125 1115
-375 -93.75 1210
-101.562 93.75 967
62.5 -453.125 954
328.125 -296.875 975
46.875 421.875 1214
-468.75 -445.312 2767
-367.188 -156.25 1387
-148.438 -78.125 933
382.812 -312.5 954
-367.188 -109.375 1236
125 -429.688 948
-62.5 265.625 1047
484.375 359.375 1165
-375 -195.312 1060
-445.312 -304.688 3037
54.6875 210.938 1739
-218.75 -93.75 920
117.188 -304.688 998
46.875 289.062 1586
195.312 203.125 1739
-78.125 203.125 1019
70.3125 -414.062 951
-31.25 414.062 1185
23.4375 -320.312 984
281.25 304.688 1317
-62.5 273.438 1283
-164.062 -70.3125 925
-281.25 171.875 1004
-210.938 -31.25 930
250 351.562 1317
273.438 54.6875 981
-31.25 -421.875 1141
78.125 398.438 1227
-445.312 -421.875 2767
445.312 390.625 1302
31.25 328.125 1189
382.812 289.062 1338
367.188 -312.5 959
-203.125 -179.688 935
-7.8125 445.312 1202
-85.9375 -7.8125 956
273.438 62.5 981
-218.75 -62.5 923
70.3125 -273.438 1004
23.4375 351.562 1202
265.625 93.75 1671
-320.312 -54.6875 1077
-437.5 382.812 1134
343.75 -343.75 1206
117.188 -437.5 948
242.188 203.125 1739
351.562 -109.375 910
375 -367.188 1349
-296.875 -132.812 995
-125 289.062 1278
101.562 -296.875 1001
-203.125 312.5 1250
-328.125 -109.375 1057
-273.438 -54.6875 933
476.562 390.625 1232
46.875 281.25 1601
-289.062 7.8125 967
-312.5 -39.0625 1054
187.5 218.75 2040
-453.125 -460.938 2744
-164.062 -101.562 928
-273.438 156.25 995
85.9375 -289.062 998
-289.062 -187.5 923
-242.188 46.875 913
492.188 273.438 1112
-484.375 398.438 1134
-335.938 -164.062 1044
-414.062 -210.938 2984
-171.875 335.938 1219
31.25 320.312 1197
-289.062 -62.5 948
-421.875 390.625 1157
289.062 257.812 1427
-148.438 226.562 1034
31.25 335.938 1189
296.875 -304.688 1105
-164.062 -164.062 943
-171.875 -179.688 943
-414.062 351.562 1193
-265.625 85.9375 964
-39.0625 390.625 1415
-351.562 398.438 1365
54.6875 367.188 1185
85.9375 226.562 1696
265.625 70.3125 1647
-421.875 -281.25 2908
-93.75 117.188 978
-85.9375 164.062 998
-101.562 -31.25 992
-335.938 70.3125 920
-23.4375 367.188 1149
265.625 101.562 1671
-93.75 132.812 984
7.8125 328.125 1108
-429.688 312.5 1173
-140.625 -132.812 943
-210.938 -109.375 923
484.375 367.188 1173
-312.5 179.688 1004
-109.375 -70.3125 962
-39.0625 296.875 1101
125 -414.062 956
-31.25 218.75 1025
-437.5 398.438 1138
125 -320.312 992
109.375 -429.688 948
-210.938 -70.3125 923
-85.9375 -382.812 2958
273.438 78.125 1647
-312.5 -23.4375 1025
54.6875 -320.312 984
-492.188 296.875 1070
226.562 -54.6875 930
23.4375 359.375 1202
-210.938 359.375 1189
-281.25 -140.625 987
-187.5 -171.875 930
-23.4375 257.812 1073
-117.188 -117.188 956
-429.688 -281.25 2835
-429.688 -312.5 2933
78.125 320.312 1181
-281.25 -54.6875 938
-117.188 -109.375 954
453.125 -226.562 867
-109.375 -54.6875 962
-273.438 46.875 915
54.6875 343.75 1193
492.188 -234.375 864
62.5 328.125 1193
-54.6875 312.5 1245
31.25 -343.75 973
-273.438 -39.0625 930
460.938 -320.312 1057
-414.062 320.312 1214
-328.125 351.562 1197
-398.438 54.6875 918
-390.625 -46.875 1090
-359.375 421.875 1322
-31.25 421.875 1365
-171.875 -15.625 984
-351.562 54.6875 915
-468.75 312.5 1087
-257.812 -101.562 940
476.562 -406.25 2958
203.125 203.125 1739
492.188 -304.688 1010
-250 257.812 1047
187.5 296.875 1536
-156.25 226.562 1031
445.312 -226.562 867
304.688 312.5 1302
-312.5 296.875 1288
140.625 -421.875 954
-15.625 -289.062 1181
-15.625 -23.4375 938
-31.25 429.688 1354
-437.5 -359.375 2835
203.125 328.125 1381
-39.0625 289.062 1097
273.438 46.875 978
-437.5 -250 2680
-125 -85.9375 946
-437.5 -304.688 2933
-46.875 367.188 1177
-367.188 -70.3125 1145
203.125 195.312 1739
-218.75 273.438 1047
54.6875 359.375 1197
273.438 -39.0625 943
-257.812 0 943
-265.625 -242.188 1161
-492.188 -250 2226
-195.312 328.125 1214
-117.188 -218.75 1483
-210.938 273.438 1047
-312.5 234.375 1034
375 -296.875 946
-39.0625 382.812 1427
78.125 -375 967
148.438 -421.875 954
-187.5 351.562 1189
-132.812 312.5 1245
-15.625 -328.125 1214
-101.562 78.125 962
-335.938 -156.25 1050
-46.875 203.125 1019
15.625 429.688 1181
328.125 250 1421
-179.688 -85.9375 923
-7.8125 -250 1044
46.875 -281.25 1001
-367.188 -125 1292
-382.812 -187.5 1489
46.875 445.312 1232
437.5 140.625 1349
-148.438 -132.812 943
101.562 -351.562 978
-242.188 -187.5 930
-281.25 -148.438 984
-492.188 -210.938 2271
-187.5 -156.25 930
-375 -85.9375 1173
-164.062 -140.625 946
429.688 351.562 1365
-226.562 273.438 1050
187.5 210.938 1739
-78.125 210.938 1022
-140.625 -117.188 938
15.625 -414.062 946
359.375 -375 1349
156.25 62.5 973
78.125 -296.875 995
-320.312 -46.875 1077
-328.125 -140.625 1041
125 -445.312 948
-421.875 296.875 1206
-343.75 179.688 1007
109.375 -421.875 948
93.75 304.688 1543
-414.062 -242.188 2908
-179.688 304.688 1264
-148.438 312.5 1245
476.562 -226.562 867
265.625 296.875 1338
-195.312 -179.688 935
132.812 335.938 1477
39.0625 421.875 1214
-210.938 -171.875 928
-265.625 265.625 1047
125 62.5 970
226.562 187.5 1739
-101.562 93.75 967
-453.125 62.5 915
-289.062 312.5 1255
-281.25 -70.3125 940
-62.5 -156.25 885
179.688 343.75 1464
-31.25 -429.688 1138
109.375 421.875 1338
328.125 -265.625 973
203.125 -367.188 1057
242.188 164.062 1722
-7.8125 -265.625 1090
453.125 187.5 1307
62.5 218.75 1722
-46.875 -421.875 1157
359.375 257.812 1398
375 -320.312 973
-210.938 328.125 1223
46.875 335.938 1185
-234.375 -164.062 925
164.062 -46.875 930
-437.5 -265.625 2723
382.812 273.438 1359
46.875 429.688 1219
-445.312 -398.438 2835
-101.562 250 1044
257.812 156.25 1705
39.0625 -382.812 956
-320.312 -39.0625 1057
210.938 187.5 1739
250 281.25 1370
226.562 179.688 1739
117.188 -359.375 978
125 -296.875 1001
210.938 -398.438 1031
-203.125 -31.25 930
242.188 265.625 1381
-406.25 -195.312 3037
-101.562 -39.0625 1001
-453.125 375 1123
414.062 -296.875 898
-31.25 -414.062 1138
-39.0625 281.25 1090
-437.5 265.625 1054
109.375 -382.812 967
-421.875 -273.438 2835
-304.688 0 978
-117.188 -39.0625 1010
109.375 -445.312 951
-101.562 -85.9375 962
242.188 273.438 1376
-406.25 195.312 1019
-359.375 -54.6875 1105
-226.562 -101.562 923
179.688 218.75 2040
54.6875 -429.688 948
-335.938 195.312 978
-85.9375 187.5 1010
-218.75 265.625 1047
-500 -273.438 2212
-132.812 -70.3125 940
-281.25 -234.375 1157
70.3125 367.188 1232
242.188 -359.375 1031
-15.625 -398.438 1138
78.125 -273.438 1007
-195.312 -70.3125 923
-39.0625 390.625 1415
-257.812 -187.5 925
359.375 281.25 1370
-289.062 -70.3125 946
-359.375 -117.188 1255
-62.5 281.25 1283
-312.5 -15.625 1016
15.625 -312.5 989
0 -382.812 973
-226.562 351.562 1189
-343.75 -132.812 1112
-148.438 -54.6875 938
-85.9375 164.062 998
-460.938 -437.5 2767
-367.188 -132.812 1312
476.562 -312.5 1063
-351.562 382.812 1370
15.625 445.312 1197
265.625 187.5 1739
125 -335.938 987
-39.0625 398.438 1404
-171.875 -78.125 925
390.625 257.812 1536
-109.375 250 1044
-343.75 -101.562 1060
-320.312 187.5 967
-234.375 273.438 1050
0 414.062 1173
-164.062 335.938 1210
226.562 195.312 1739
-320.312 -164.062 998
-46.875 335.938 1214
-39.0625 195.312 1016
-62.5 273.438 1283
-85.9375 179.688 1007
234.375 179.688 1739
234.375 171.875 1731
15.625 -460.938 1123
-117.188 -101.562 954
492.188 281.25 1115
62.5 -367.188 967
156.25 -414.062 956
-359.375 320.312 1259
39.0625 -289.062 995
31.25 421.875 1219
62.5 445.312 1241
437.5 -164.062 891
335.938 398.438 1292
-187.5 -78.125 923
265.625 140.625 1705
7.8125 -250 1031
-39.0625 164.062 998
-31.25 429.688 1354
93.75 -312.5 992
-203.125 -140.625 998
-179.688 -226.562 959
-343.75 -70.3125 1067
-328.125 187.5 973
468.75 -226.562 867
-109.375 -62.5 962
320.312 -296.875 975
-382.812 179.688 995
-93.75 140.625 989
-375 -93.75 1210
320.312 179.688 1713
-171.875 -179.688 943
-101.562 101.562 970
-39.0625 187.5 1010
109.375 -421.875 948
-164.062 375 1458
-328.125 296.875 1292
476.562 382.812 1236
-164.062 304.688 1250
-46.875 -343.75 1206
429.688 359.375 1354
273.438 62.5 981
70.3125 -414.062 951
-453.125 289.062 1130
15.625 281.25 1609
-429.688 320.312 1169
320.312 -7.8125 901
-453.125 -351.562 2908
117.188 -421.875 951
0 320.312 1105
250 273.438 1376
-265.625 289.062 1283
39.0625 312.5 1202
-453.125 -445.312 2744
-437.5 328.125 1145
-281.25 -15.625 964
265.625 70.3125 1647
117.188 -351.562 981
-375 320.312 1264
210.938 273.438 1439
-140.625 -62.5 933
-125 -101.562 946
-125 -195.312 1404
335.938 320.312 1292
250 156.25 1713
265.625 179.688 1739
62.5 304.688 1550
-101.562 -23.4375 978
-171.875 -7.8125 975
7.8125 359.375 1138
351.562 -62.5 928
-23.4375 242.188 1047
-187.5 257.812 1047
367.188 304.688 1312
-234.375 351.562 1185
-421.875 -375 2859
-250 -203.125 925
7.8125 445.312 1197
-85.9375 171.875 1001
-195.312 351.562 1185
-171.875 351.562 1189
-125 -93.75 946
187.5 304.688 1523
171.875 -304.688 992
-62.5 171.875 1001
-7.8125 -382.812 973
-375 -85.9375 1173
359.375 -265.625 923
-23.4375 -375 1153
-242.188 257.812 1047
85.9375 445.312 1250
-312.5 -101.562 1057
-140.625 -93.75 940
-78.125 257.812 1047
54.6875 210.938 1739
-78.125 250 1044
195.312 210.938 2065
-398.438 351.562 1219
93.75 -375 967
-382.812 171.875 995
-109.375 304.688 1250
-93.75 132.812 984
-289.062 7.8125 967
468.75 164.062 1250
-31.25 406.25 1177
39.0625 -460.938 1119
-179.688 -179.688 938
375 -312.5 956
-195.312 -78.125 920
-429.688 -320.312 2933
335.938 -312.5 973
-70.3125 304.688 1245
-445.312 -179.688 1489
-304.688 -78.125 1063
125 -289.062 1004
-437.5 -382.812 2835
421.875 -289.062 901
-351.562 179.688 1007
-179.688 289.062 1283
101.562 445.312 1307
492.188 335.938 1149
46.875 -382.812 959
-289.062 -210.938 1149
-304.688 -31.25 1041
-445.312 -460.938 2744
273.438 93.75 1663
281.25 304.688 1317
492.188 351.562 1157
-31.25 242.188 1044
265.625 359.375 1297
203.125 203.125 1739
-429.688 351.562 1157
445.312 -218.75 867
398.438 257.812 1523
-210.938 312.5 1255
265.625 46.875 962
-351.562 -46.875 1084
-281.25 234.375 1034
265.625 312.5 1338
