ply
format ascii 1.0
comment Created by Open3D
element vertex 2386
property double x
property double y
property double z
end_header
-31.25 359.375 1268
39.0625 23.4375 992
445.312 273.438 1410
-46.875 -46.875 1070
210.938 -304.688 1236
289.062 -375 1010
468.75 -171.875 964
-85.9375 15.625 1060
140.625 281.25 1087
62.5 132.812 992
-289.062 187.5 954
312.5 195.312 1833
179.688 328.125 1268
-132.812 421.875 1458
109.375 -187.5 1041
125 343.75 1255
296.875 -382.812 1019
-62.5 -70.3125 1073
234.375 -125 959
-117.188 -117.188 1101
-148.438 390.625 1210
203.125 70.3125 959
234.375 -367.188 1044
125 320.312 1292
70.3125 0 956
-7.8125 -23.4375 1060
226.562 289.062 1149
-210.938 429.688 1101
-93.75 320.312 1054
132.812 328.125 1268
210.938 -39.0625 995
359.375 -250 1080
132.812 335.938 1259
7.8125 0 1067
312.5 7.8125 1013
-15.625 -140.625 984
23.4375 -109.375 1013
218.75 406.25 1223
54.6875 -7.8125 959
-39.0625 328.125 1601
343.75 -148.438 951
164.062 -195.312 1126
453.125 375 1421
140.625 -414.062 1223
203.125 234.375 1080
429.688 281.25 1415
210.938 -7.8125 1060
132.812 281.25 1084
-320.312 320.312 1970
382.812 -343.75 1044
164.062 0 970
46.875 -78.125 987
39.0625 54.6875 984
148.438 117.188 1004
140.625 343.75 1250
492.188 -31.25 1028
460.938 -328.125 1452
101.562 -148.438 981
398.438 265.625 1452
54.6875 335.938 1283
54.6875 390.625 1489
390.625 -7.8125 1025
15.625 304.688 1073
125 -203.125 1044
-117.188 328.125 1054
242.188 234.375 1087
281.25 15.625 1007
492.188 -39.0625 1025
-62.5 117.188 930
437.5 281.25 1410
484.375 234.375 1489
164.062 78.125 948
78.125 93.75 940
-101.562 -7.8125 1101
-140.625 375 1219
210.938 -140.625 1013
289.062 -132.812 943
-218.75 398.438 1080
0 304.688 1067
257.812 -406.25 1202
-31.25 390.625 1206
460.938 -7.8125 1013
140.625 -109.375 975
-117.188 -46.875 1108
460.938 -164.062 962
203.125 -406.25 1189
93.75 -265.625 1354
-46.875 109.375 930
-156.25 351.562 1572
-265.625 281.25 998
234.375 203.125 1067
-109.375 -140.625 1094
328.125 0 1010
-7.8125 109.375 935
218.75 164.062 1041
46.875 -195.312 1126
265.625 -265.625 1067
226.562 -289.062 1273
335.938 -140.625 948
367.188 -343.75 1041
78.125 15.625 959
-39.0625 375 1236
367.188 31.25 975
203.125 406.25 1255
132.812 445.312 1387
414.062 328.125 1410
390.625 242.188 1496
328.125 -210.938 1080
-54.6875 351.562 1278
23.4375 15.625 995
351.562 -273.438 1067
375 0 1019
250 -132.812 943
367.188 -7.8125 1013
156.25 359.375 1223
85.9375 -125 956
15.625 351.562 1278
93.75 382.812 1219
93.75 125 995
203.125 414.062 1268
-195.312 406.25 1087
-468.75 7.8125 2381
187.5 -46.875 978
125 -23.4375 948
234.375 -62.5 992
101.562 -7.8125 959
218.75 234.375 1084
31.25 54.6875 987
304.688 203.125 2129
304.688 -242.188 1067
-23.4375 -31.25 1080
-39.0625 351.562 1273
46.875 54.6875 978
351.562 -257.812 1077
-101.562 -39.0625 1101
164.062 320.312 1292
203.125 382.812 1245
257.812 15.625 998
-164.062 125 920
250 -351.562 1044
335.938 171.875 1823
-101.562 -148.438 1063
117.188 -62.5 948
164.062 359.375 1223
101.562 367.188 1214
-39.0625 382.812 1197
-125 367.188 1543
-281.25 148.438 908
62.5 296.875 1077
242.188 132.812 1028
-171.875 421.875 1173
23.4375 335.938 1283
7.8125 367.188 1241
296.875 -265.625 1054
-460.938 39.0625 2365
242.188 117.188 1025
398.438 -15.625 1010
429.688 -164.062 962
-31.25 335.938 1273
210.938 70.3125 959
320.312 -429.688 3064
-156.25 414.062 1464
132.812 -179.688 1004
218.75 117.188 1016
210.938 62.5 959
140.625 -218.75 1197
250 351.562 1255
296.875 437.5 1359
23.4375 125 938
125 281.25 1080
234.375 -289.062 1087
218.75 70.3125 959
-421.875 148.438 903
312.5 281.25 1639
148.438 -375 1214
320.312 -304.688 1044
171.875 273.438 1084
-23.4375 335.938 1292
218.75 421.875 1241
101.562 -156.25 975
390.625 320.312 1427
304.688 -140.625 946
-70.3125 398.438 1177
-62.5 359.375 1557
-218.75 312.5 1028
-39.0625 359.375 1268
62.5 -70.3125 975
218.75 210.938 1070
-226.562 320.312 1034
367.188 -367.188 1031
117.188 -226.562 1297
226.562 429.688 1245
-31.25 -148.438 984
148.438 -296.875 1273
132.812 -218.75 1197
367.188 -375 1028
-78.125 398.438 1181
-375 320.312 1993
0 367.188 1241
-125 351.562 1572
-179.688 398.438 1214
-78.125 414.062 1193
343.75 171.875 1813
-125 390.625 1214
101.562 -70.3125 954
437.5 -359.375 1149
398.438 -7.8125 1022
-46.875 -39.0625 1070
312.5 -382.812 1019
-39.0625 -210.938 1185
-117.188 367.188 1557
-367.188 414.062 1766
46.875 -101.562 998
101.562 -195.312 1016
-140.625 390.625 1210
187.5 -382.812 1185
187.5 15.625 1019
-78.125 -203.125 1165
-453.125 -7.8125 2349
164.062 117.188 1004
-210.938 132.812 915
218.75 148.438 1031
437.5 -140.625 962
296.875 7.8125 1004
445.312 187.5 1757
234.375 312.5 1157
187.5 312.5 1278
367.188 -257.812 1080
15.625 328.125 1283
101.562 289.062 1077
132.812 304.688 1307
-31.25 -210.938 1185
226.562 -257.812 1250
203.125 -109.375 1073
328.125 39.0625 973
23.4375 -101.562 1016
257.812 289.062 1632
445.312 226.562 1529
125 -226.562 1259
15.625 375 1236
-31.25 382.812 1236
296.875 210.938 1739
54.6875 54.6875 978
468.75 54.6875 1057
23.4375 -117.188 1007
7.8125 23.4375 1038
117.188 -210.938 1063
250 273.438 1138
-101.562 382.812 1489
234.375 234.375 1087
156.25 250 1073
367.188 0 1016
468.75 -31.25 1025
320.312 179.688 1833
132.812 375 1223
7.8125 375 1241
-31.25 406.25 1202
54.6875 -23.4375 964
218.75 140.625 1031
-289.062 210.938 964
-78.125 375 1509
-101.562 -39.0625 1101
367.188 -359.375 1034
140.625 367.188 1219
-148.438 -460.938 2812
-15.625 398.438 1202
164.062 335.938 1255
281.25 195.312 1823
-234.375 382.812 1063
101.562 312.5 1317
-117.188 414.062 1464
203.125 -265.625 1278
132.812 -226.562 1219
-132.812 -148.438 1090
296.875 -140.625 943
46.875 367.188 1250
390.625 335.938 1458
117.188 -140.625 973
93.75 359.375 1259
226.562 23.4375 1004
-273.438 250 984
46.875 382.812 1496
-156.25 85.9375 967
-351.562 320.312 1993
39.0625 -195.312 1130
460.938 -148.438 964
-265.625 289.062 1004
-140.625 414.062 1458
54.6875 335.938 1283
62.5 -7.8125 959
-242.188 359.375 1050
23.4375 -140.625 954
195.312 109.375 1013
390.625 0 1013
23.4375 390.625 1483
140.625 375 1219
375 -148.438 951
-39.0625 289.062 1054
-140.625 398.438 1210
-351.562 -210.938 2984
171.875 -257.812 1259
250 23.4375 1004
250 -343.75 1054
218.75 109.375 1016
390.625 257.812 1470
109.375 109.375 946
179.688 359.375 1227
15.625 39.0625 1013
242.188 -242.188 1108
375 437.5 1343
-31.25 359.375 1268
250 195.312 1067
-265.625 273.438 998
132.812 -171.875 992
210.938 -7.8125 1060
164.062 343.75 1259
-70.3125 0 1084
257.812 -312.5 1057
414.062 -156.25 959
250 46.875 970
85.9375 62.5 962
320.312 -367.188 1016
7.8125 390.625 1202
15.625 -54.6875 1038
62.5 117.188 946
-62.5 406.25 1185
-476.562 -15.625 2317
406.25 328.125 1410
242.188 -250 1097
117.188 15.625 959
234.375 -15.625 1016
257.812 -343.75 1041
460.938 281.25 1410
-109.375 125 925
-62.5 257.812 992
312.5 -367.188 1016
179.688 -171.875 1090
125 -15.625 948
250 421.875 1283
359.375 -343.75 1038
78.125 15.625 959
234.375 -54.6875 992
101.562 -250 1338
132.812 351.562 1250
-39.0625 -39.0625 1077
-85.9375 390.625 1197
179.688 -265.625 1288
398.438 -343.75 1123
-31.25 101.562 935
39.0625 -140.625 956
-273.438 265.625 995
351.562 179.688 1813
39.0625 101.562 938
-39.0625 398.438 1197
-54.6875 382.812 1516
-109.375 328.125 1050
31.25 -15.625 975
93.75 335.938 1283
453.125 226.562 1529
15.625 -62.5 1038
164.062 359.375 1223
-218.75 140.625 913
-15.625 312.5 1067
296.875 54.6875 970
226.562 15.625 1016
78.125 265.625 1063
453.125 179.688 1748
132.812 -390.625 1232
203.125 367.188 1206
-39.0625 148.438 987
-7.8125 -62.5 1054
117.188 -117.188 956
335.938 -359.375 1025
31.25 140.625 989
-117.188 -39.0625 1165
-15.625 351.562 1268
203.125 265.625 1094
39.0625 -78.125 992
-7.8125 -273.438 3178
242.188 414.062 1278
273.438 70.3125 970
31.25 -195.312 1138
414.062 -7.8125 1022
171.875 -31.25 967
250 414.062 1278
62.5 -132.812 970
-210.938 125 923
453.125 -164.062 962
429.688 281.25 1415
-281.25 195.312 959
398.438 -250 1169
-210.938 421.875 1094
-85.9375 -39.0625 1090
304.688 -382.812 1019
179.688 257.812 1084
85.9375 -70.3125 956
203.125 421.875 1268
210.938 109.375 1016
-85.9375 406.25 1197
171.875 281.25 1084
140.625 -7.8125 956
-250 171.875 913
367.188 -343.75 1041
390.625 -15.625 1010
-281.25 421.875 1073
109.375 -156.25 981
140.625 359.375 1232
93.75 304.688 1317
296.875 -343.75 1019
85.9375 -109.375 956
-23.4375 375 1232
390.625 359.375 1445
195.312 -39.0625 978
445.312 -164.062 962
-382.812 351.562 1904
70.3125 335.938 1288
23.4375 367.188 1236
54.6875 93.75 938
382.812 359.375 1458
406.25 -250 1165
148.438 -210.938 1181
148.438 367.188 1219
140.625 31.25 1004
-367.188 320.312 1993
70.3125 296.875 1080
210.938 -101.562 1044
31.25 343.75 1278
390.625 -156.25 954
78.125 -296.875 1445
-15.625 -164.062 975
242.188 343.75 1185
437.5 23.4375 984
335.938 46.875 973
375 39.0625 978
335.938 179.688 1833
15.625 46.875 998
-195.312 375 1236
257.812 -382.812 1031
257.812 -203.125 1084
210.938 15.625 1019
203.125 -250 1227
242.188 312.5 1157
109.375 39.0625 992
226.562 328.125 1173
-281.25 234.375 975
-15.625 -62.5 1067
-289.062 195.312 956
351.562 343.75 1496
-39.0625 375 1236
109.375 328.125 1283
203.125 -62.5 998
101.562 359.375 1214
-31.25 351.562 1273
101.562 382.812 1219
-23.4375 335.938 1292
-164.062 335.938 1050
125 367.188 1219
54.6875 15.625 973
54.6875 382.812 1496
234.375 15.625 1013
-78.125 367.188 1543
-468.75 398.438 1794
-7.8125 15.625 1047
-39.0625 70.3125 973
-171.875 398.438 1210
132.812 320.312 1292
23.4375 328.125 1283
7.8125 367.188 1241
-195.312 382.812 1070
304.688 -203.125 1070
429.688 312.5 1452
-46.875 398.438 1193
179.688 312.5 1297
437.5 -23.4375 1016
-312.5 343.75 1915
148.438 257.812 1077
39.0625 -31.25 970
15.625 -46.875 1041
140.625 7.8125 962
-140.625 328.125 1047
62.5 -7.8125 959
195.312 -156.25 1060
187.5 -46.875 978
-125 421.875 1452
312.5 15.625 1001
-382.812 320.312 1993
-78.125 390.625 1181
-101.562 -7.8125 1101
296.875 -250 1060
-109.375 -101.562 1130
-117.188 -70.3125 1130
367.188 -218.75 1084
46.875 -31.25 970
179.688 -320.312 1223
-70.3125 406.25 1193
-85.9375 382.812 1516
-500 -156.25 2143
-7.8125 375 1241
195.312 367.188 1232
187.5 -15.625 984
7.8125 46.875 1001
109.375 367.188 1214
-70.3125 156.25 984
109.375 375 1214
-117.188 164.062 978
70.3125 -7.8125 959
367.188 78.125 1050
460.938 242.188 1516
109.375 289.062 1077
132.812 -148.438 981
-39.0625 -148.438 1001
156.25 -390.625 1202
93.75 351.562 1255
226.562 -250 1223
-39.0625 -70.3125 1084
-7.8125 39.0625 1013
-281.25 226.562 973
171.875 117.188 1007
39.0625 -46.875 995
-140.625 390.625 1210
132.812 328.125 1268
468.75 242.188 1509
429.688 -15.625 1022
31.25 54.6875 987
210.938 -46.875 1004
-85.9375 0 1087
7.8125 -148.438 956
382.812 54.6875 981
31.25 -93.75 1025
-101.562 -195.312 1145
46.875 7.8125 978
-117.188 148.438 930
-117.188 -31.25 1149
62.5 -15.625 959
-171.875 171.875 973
-101.562 -93.75 1126
234.375 -335.938 1070
140.625 343.75 1250
226.562 414.062 1236
101.562 304.688 1317
46.875 -23.4375 964
218.75 -15.625 1057
328.125 -140.625 946
367.188 -296.875 1060
125 -351.562 1245
335.938 -210.938 1080
-265.625 289.062 1004
7.8125 31.25 1028
-62.5 382.812 1509
-31.25 375 1236
234.375 -343.75 1060
23.4375 304.688 1070
-156.25 132.812 923
328.125 15.625 1001
70.3125 359.375 1250
-132.812 367.188 1536
15.625 398.438 1202
242.188 -234.375 1112
15.625 -39.0625 1044
23.4375 -132.812 954
-429.688 -23.4375 3120
109.375 -343.75 1268
31.25 304.688 1067
-101.562 23.4375 1057
312.5 -265.625 1057
-257.812 304.688 1013
-31.25 234.375 989
164.062 359.375 1223
-78.125 15.625 1060
-429.688 320.312 1993
93.75 -23.4375 959
-132.812 -140.625 1415
-164.062 421.875 1458
-203.125 375 1070
15.625 351.562 1278
-31.25 -31.25 1084
-54.6875 7.8125 1073
62.5 -195.312 1115
242.188 31.25 992
171.875 -398.438 1193
-390.625 320.312 1993
398.438 250 1483
-335.938 320.312 1981
335.938 0 1010
335.938 7.8125 1013
-23.4375 -62.5 1073
179.688 -23.4375 970
-78.125 -148.438 1038
-101.562 226.562 1007
132.812 -7.8125 954
117.188 343.75 1255
-23.4375 312.5 1063
78.125 -289.062 1427
132.812 367.188 1223
93.75 375 1214
-171.875 421.875 1173
187.5 -164.062 1070
164.062 -265.625 1288
0 0 1073
117.188 -343.75 1264
15.625 375 1236
296.875 -328.125 1025
-148.438 414.062 1464
406.25 -242.188 1149
171.875 -179.688 1112
-265.625 281.25 998
-70.3125 375 1509
-406.25 320.312 1993
257.812 -320.312 1050
-140.625 414.062 1458
-7.8125 -148.438 967
-62.5 156.25 984
164.062 -257.812 1268
-242.188 367.188 1057
335.938 -390.625 1022
15.625 343.75 1278
-468.75 -226.562 2618
320.312 210.938 1748
281.25 -382.812 1019
109.375 343.75 1255
343.75 -210.938 1077
312.5 351.562 1496
156.25 -148.438 995
23.4375 54.6875 989
23.4375 398.438 1483
-46.875 406.25 1185
164.062 -398.438 1197
-257.812 312.5 1019
203.125 -78.125 998
-421.875 320.312 1993
-78.125 -85.9375 1073
187.5 -406.25 1189
-117.188 -109.375 1328
-54.6875 -54.6875 1070
-31.25 398.438 1206
-281.25 218.75 967
-289.062 210.938 964
23.4375 23.4375 1031
171.875 15.625 1016
-117.188 125 925
140.625 -375 1219
250 -351.562 1044
70.3125 296.875 1080
328.125 -367.188 1019
312.5 -351.562 1019
-46.875 -39.0625 1070
101.562 125 995
351.562 -296.875 1057
-164.062 171.875 975
312.5 -328.125 1031
289.062 210.938 1731
0 93.75 938
39.0625 359.375 1250
-132.812 390.625 1214
-62.5 406.25 1185
195.312 -328.125 1219
-218.75 429.688 1097
54.6875 -70.3125 984
39.0625 54.6875 984
-210.938 429.688 1101
-117.188 -62.5 1130
-23.4375 -15.625 1105
281.25 226.562 1739
-101.562 -15.625 1119
101.562 312.5 1317
15.625 226.562 992
171.875 312.5 1283
289.062 218.75 1731
289.062 218.75 1731
-70.3125 -15.625 1084
218.75 109.375 1016
-78.125 296.875 1047
265.625 15.625 1001
179.688 -171.875 1090
-78.125 -78.125 1073
15.625 39.0625 1013
-117.188 -39.0625 1165
-210.938 -171.875 3208
-15.625 148.438 989
429.688 -23.4375 1016
203.125 -148.438 1034
132.812 351.562 1250
85.9375 132.812 1001
164.062 39.0625 989
429.688 281.25 1415
-15.625 398.438 1202
-148.438 -156.25 1470
140.625 117.188 946
-414.062 320.312 1993
101.562 382.812 1219
250 304.688 1157
-78.125 0 1087
-31.25 -187.5 1185
-195.312 398.438 1087
-289.062 148.438 906
-93.75 0 1087
195.312 -265.625 1278
109.375 351.562 1255
164.062 15.625 970
132.812 343.75 1250
109.375 -234.375 1317
-203.125 421.875 1094
179.688 -39.0625 970
257.812 23.4375 1001
-31.25 351.562 1273
445.312 23.4375 987
70.3125 445.312 1398
62.5 203.125 1016
93.75 -7.8125 959
-78.125 382.812 1503
-226.562 179.688 967
39.0625 382.812 1489
101.562 343.75 1259
156.25 367.188 1210
132.812 281.25 1084
93.75 -195.312 1077
359.375 -289.062 1060
234.375 343.75 1185
203.125 7.8125 1031
210.938 15.625 1019
62.5 -7.8125 959
23.4375 -195.312 1149
54.6875 445.312 1398
-93.75 226.562 1010
195.312 367.188 1232
210.938 -257.812 1259
0 234.375 992
343.75 7.8125 1010
367.188 125 1804
437.5 179.688 1794
-62.5 359.375 1557
265.625 -343.75 1025
-320.312 -132.812 1458
-70.3125 382.812 1503
-109.375 164.062 978
203.125 -257.812 1264
164.062 335.938 1255
375 -7.8125 1016
-15.625 375 1232
54.6875 226.562 1001
226.562 101.562 964
-273.438 265.625 995
226.562 -414.062 1189
367.188 195.312 1757
-15.625 -140.625 984
54.6875 335.938 1283
218.75 179.688 1050
-54.6875 320.312 1047
195.312 -359.375 1193
-101.562 -39.0625 1101
382.812 179.688 1813
210.938 -140.625 1013
-93.75 257.812 1025
0 328.125 1278
273.438 179.688 1823
335.938 -414.062 3037
164.062 -382.812 1202
125 304.688 1322
343.75 -343.75 1031
-132.812 414.062 1464
-7.8125 -62.5 1054
273.438 -320.312 1031
-70.3125 414.062 1197
242.188 171.875 1054
7.8125 15.625 1047
421.875 -156.25 959
164.062 23.4375 1013
218.75 7.8125 1028
15.625 -23.4375 1038
-148.438 328.125 1050
-15.625 312.5 1067
-23.4375 382.812 1236
164.062 -187.5 1138
453.125 203.125 1722
-15.625 -15.625 1101
218.75 429.688 1245
-328.125 320.312 1981
-78.125 406.25 1193
-109.375 -101.562 1130
-125 -125 1370
406.25 273.438 1445
-117.188 328.125 1054
-164.062 312.5 1038
-54.6875 117.188 930
335.938 -218.75 1084
-85.9375 406.25 1197
-23.4375 359.375 1273
54.6875 -109.375 1004
375 351.562 1458
0 343.75 1278
-23.4375 -140.625 987
-226.562 390.625 1070
109.375 -335.938 1268
226.562 343.75 1181
312.5 70.3125 973
476.562 250 1496
140.625 -210.938 1202
85.9375 -117.188 956
445.312 -15.625 1028
140.625 304.688 1307
-117.188 382.812 1489
304.688 343.75 1509
218.75 117.188 1016
-117.188 -31.25 1149
203.125 390.625 1250
-15.625 109.375 935
-54.6875 156.25 984
23.4375 351.562 1288
179.688 -54.6875 973
242.188 -226.562 1153
0 390.625 1202
70.3125 7.8125 956
-62.5 296.875 1050
484.375 -171.875 964
375 78.125 1054
-46.875 328.125 1601
296.875 -203.125 1073
-125 375 1543
-210.938 414.062 1087
-296.875 375 1044
210.938 242.188 1084
-15.625 390.625 1202
-257.812 320.312 1022
-109.375 -15.625 1119
171.875 367.188 1197
398.438 265.625 1452
218.75 -390.625 1185
257.812 195.312 1067
-210.938 437.5 1101
187.5 -265.625 1278
-109.375 328.125 1050
210.938 -23.4375 1077
476.562 226.562 1509
476.562 320.312 1410
-78.125 414.062 1193
492.188 31.25 998
-257.812 265.625 995
210.938 -54.6875 1004
23.4375 375 1236
335.938 -148.438 951
31.25 -78.125 992
-156.25 351.562 1572
-328.125 171.875 903
93.75 -70.3125 954
54.6875 390.625 1489
132.812 -375 1232
85.9375 -273.438 1398
-62.5 398.438 1193
468.75 -23.4375 1041
-125 367.188 1543
-117.188 390.625 1214
85.9375 304.688 1080
-195.312 421.875 1094
62.5 343.75 1288
296.875 15.625 1004
101.562 78.125 943
31.25 359.375 1250
-125 406.25 1503
-242.188 351.562 1044
-125 351.562 1572
210.938 320.312 1181
335.938 -140.625 948
492.188 -31.25 1028
70.3125 406.25 1464
54.6875 62.5 970
-93.75 382.812 1509
-85.9375 -31.25 1097
-101.562 226.562 1007
15.625 390.625 1202
-85.9375 -15.625 1101
304.688 218.75 1739
78.125 -109.375 956
31.25 -140.625 954
7.8125 31.25 1028
421.875 -15.625 1025
93.75 351.562 1255
359.375 0 1022
406.25 -15.625 1019
218.75 -265.625 1278
453.125 -23.4375 1025
125 -117.188 962
132.812 85.9375 946
250 -375 1038
0 -62.5 1050
7.8125 -109.375 1007
7.8125 390.625 1202
148.438 367.188 1219
-109.375 390.625 1496
-164.062 398.438 1210
140.625 375 1219
242.188 312.5 1157
-85.9375 -54.6875 1080
-101.562 406.25 1197
171.875 78.125 951
359.375 179.688 1853
-375 320.312 1993
78.125 15.625 959
312.5 210.938 1748
62.5 335.938 1288
54.6875 382.812 1496
109.375 375 1214
-62.5 320.312 1047
195.312 351.562 1232
351.562 -148.438 951
437.5 -15.625 1025
375 -343.75 1041
-85.9375 0 1087
179.688 445.312 1376
-54.6875 437.5 1421
-54.6875 -62.5 1073
-132.812 -140.625 1415
-289.062 406.25 1073
304.688 195.312 1833
429.688 -156.25 959
398.438 210.938 1594
187.5 -23.4375 970
281.25 445.312 1354
23.4375 23.4375 1031
390.625 -343.75 1044
101.562 -54.6875 951
7.8125 -93.75 1016
375 117.188 1804
453.125 281.25 1410
-7.8125 312.5 1073
-7.8125 -132.812 995
-54.6875 -210.938 1177
242.188 -328.125 1070
-54.6875 406.25 1181
242.188 429.688 1288
148.438 -390.625 1210
234.375 -390.625 1185
-218.75 -148.438 1477
453.125 -328.125 1126
62.5 -70.3125 975
242.188 -218.75 1126
-117.188 -117.188 1101
78.125 -195.312 1094
335.938 281.25 1503
437.5 -7.8125 1019
54.6875 -23.4375 964
312.5 281.25 1639
-351.562 320.312 1993
156.25 -195.312 1157
296.875 210.938 1739
23.4375 328.125 1283
-484.375 -390.625 2618
-15.625 367.188 1236
-265.625 296.875 1010
-390.625 156.25 896
-23.4375 -210.938 1185
31.25 54.6875 987
31.25 335.938 1273
-46.875 359.375 1278
218.75 0 1041
257.812 289.062 1632
-132.812 375 1214
296.875 -351.562 1016
132.812 -218.75 1197
234.375 210.938 1073
93.75 93.75 940
226.562 7.8125 1022
234.375 -359.375 1044
93.75 437.5 1398
0 15.625 1047
117.188 289.062 1077
-62.5 -140.625 1028
-39.0625 -78.125 1084
109.375 289.062 1077
-195.312 429.688 1101
-78.125 117.188 928
210.938 -132.812 1019
476.562 -171.875 964
148.438 320.312 1292
-125 398.438 1210
-39.0625 109.375 935
-125 117.188 925
54.6875 -195.312 1119
-78.125 -140.625 1041
-281.25 242.188 981
-296.875 187.5 954
101.562 -250 1338
187.5 -164.062 1070
296.875 -132.812 943
117.188 109.375 946
31.25 382.812 1489
375 -289.062 1067
78.125 -54.6875 964
-351.562 -250 2958
-109.375 109.375 928
468.75 -164.062 962
218.75 -125 1004
78.125 296.875 1080
187.5 -429.688 1197
-23.4375 335.938 1292
289.062 226.562 1731
62.5 132.812 992
234.375 23.4375 1001
46.875 296.875 1070
-101.562 109.375 928
-117.188 421.875 1458
320.312 203.125 2129
31.25 367.188 1250
54.6875 23.4375 973
39.0625 140.625 992
312.5 265.625 1647
140.625 351.562 1232
437.5 -23.4375 1016
468.75 281.25 1410
54.6875 -15.625 959
-101.562 -7.8125 1101
46.875 93.75 938
328.125 -320.312 1038
132.812 -203.125 1034
39.0625 -101.562 1001
398.438 -15.625 1010
-70.3125 140.625 933
-117.188 414.062 1464
-289.062 203.125 962
-15.625 335.938 1268
226.562 320.312 1169
-62.5 -210.938 1177
-23.4375 406.25 1202
382.812 328.125 1433
-289.062 195.312 956
15.625 -343.75 3120
421.875 281.25 1404
132.812 -109.375 978
156.25 -15.625 959
218.75 171.875 1047
132.812 343.75 1250
203.125 -359.375 1193
-273.438 242.188 981
70.3125 -15.625 959
226.562 414.062 1236
304.688 85.9375 1022
15.625 367.188 1236
-179.688 117.188 928
-31.25 375 1236
46.875 101.562 938
46.875 -23.4375 964
-445.312 171.875 2415
140.625 281.25 1087
242.188 -23.4375 987
484.375 250 1477
257.812 -210.938 1108
375 0 1019
250 -125 943
-93.75 406.25 1197
-187.5 156.25 920
-23.4375 -125 1010
15.625 140.625 989
148.438 281.25 1080
164.062 -367.188 1202
140.625 -125 962
31.25 -132.812 954
140.625 -359.375 1223
382.812 -367.188 1034
414.062 31.25 984
156.25 -265.625 1292
101.562 359.375 1214
-70.3125 242.188 987
203.125 359.375 1210
437.5 226.562 1536
148.438 -203.125 1185
218.75 164.062 1041
203.125 -15.625 1070
234.375 429.688 1245
203.125 7.8125 1031
351.562 164.062 1823
-164.062 335.938 1050
156.25 -289.062 1278
-15.625 406.25 1206
242.188 351.562 1185
468.75 250 1503
-101.562 -31.25 1141
203.125 -351.562 1193
109.375 382.812 1219
-117.188 -31.25 1149
31.25 304.688 1067
46.875 -15.625 962
-31.25 382.812 1236
-117.188 -109.375 1328
320.312 195.312 1833
-109.375 -15.625 1119
218.75 351.562 1185
312.5 351.562 1496
109.375 -234.375 1317
70.3125 7.8125 956
-7.8125 398.438 1206
250 31.25 992
367.188 -335.938 1044
54.6875 -39.0625 975
242.188 -210.938 1108
320.312 179.688 1833
-7.8125 351.562 1264
164.062 382.812 1193
484.375 -23.4375 1038
70.3125 296.875 1080
273.438 15.625 1004
-78.125 390.625 1181
-85.9375 -85.9375 1073
437.5 -164.062 962
234.375 0 1013
-164.062 414.062 1210
-148.438 -156.25 1470
-273.438 250 984
-15.625 -23.4375 1115
320.312 -296.875 1044
281.25 -234.375 1067
101.562 328.125 1283
218.75 148.438 1031
171.875 273.438 1084
125 125 1001
-109.375 406.25 1503
265.625 -195.312 1057
85.9375 382.812 1219
179.688 -171.875 1090
257.812 234.375 1094
-132.812 398.438 1210
-187.5 406.25 1173
23.4375 351.562 1288
-132.812 390.625 1214
273.438 195.312 1833
46.875 62.5 973
203.125 375 1241
15.625 46.875 998
265.625 62.5 964
187.5 -367.188 1193
-156.25 335.938 1050
296.875 -382.812 1019
70.3125 351.562 1250
-54.6875 -54.6875 1070
304.688 -140.625 946
195.312 375 1268
179.688 320.312 1268
328.125 46.875 973
195.312 -156.25 1060
132.812 -398.438 1232
445.312 62.5 1063
-453.125 -46.875 2317
-46.875 382.812 1193
156.25 343.75 1255
281.25 -125 940
109.375 312.5 1317
382.812 335.938 1464
359.375 7.8125 1007
203.125 382.812 1245
414.062 328.125 1410
-226.562 140.625 913
-320.312 328.125 1947
-156.25 312.5 1041
-78.125 367.188 1543
195.312 398.438 1250
148.438 343.75 1250
-23.4375 15.625 1057
-125 -125 1105
234.375 171.875 1047
171.875 -265.625 1292
-54.6875 320.312 1057
-429.688 156.25 898
351.562 -328.125 1041
-23.4375 375 1523
-101.562 328.125 1050
-367.188 320.312 1993
93.75 375 1214
15.625 375 1523
-179.688 382.812 1250
15.625 -195.312 1153
-70.3125 359.375 1550
164.062 359.375 1227
171.875 -343.75 1202
31.25 320.312 1624
0 375 1516
-375 156.25 901
226.562 23.4375 1004
367.188 39.0625 973
234.375 179.688 1054
406.25 -343.75 1123
-109.375 -93.75 1126
-218.75 375 1060
-468.75 -195.312 2365
203.125 343.75 1202
257.812 -125 938
-7.8125 148.438 989
375 359.375 1452
46.875 367.188 1250
-7.8125 -203.125 1169
-78.125 -78.125 1077
-125 390.625 1219
187.5 -390.625 1185
210.938 109.375 1013
234.375 156.25 1041
257.812 296.875 1259
-210.938 140.625 915
-257.812 312.5 1019
-156.25 -156.25 1483
-62.5 414.062 1458
218.75 343.75 1173
62.5 -7.8125 956
-31.25 398.438 1489
171.875 39.0625 989
-367.188 398.438 1794
78.125 -125 959
101.562 335.938 1283
-164.062 421.875 1173
429.688 -359.375 1126
-78.125 -62.5 1073
62.5 -148.438 959
-62.5 -70.3125 1073
312.5 218.75 1748
234.375 437.5 1292
328.125 -304.688 1044
179.688 398.438 1338
406.25 335.938 1410
-132.812 367.188 1536
7.8125 -62.5 1038
203.125 -265.625 1283
93.75 -257.812 1354
39.0625 335.938 1601
23.4375 226.562 995
-289.062 218.75 967
0 -15.625 1097
250 -203.125 1094
7.8125 328.125 1609
-70.3125 390.625 1496
-39.0625 359.375 1557
117.188 -39.0625 948
15.625 -148.438 951
195.312 -78.125 998
62.5 335.938 1579
476.562 -31.25 1022
164.062 398.438 1381
-31.25 15.625 1060
367.188 -296.875 1057
234.375 31.25 998
-31.25 -31.25 1077
70.3125 0 956
-70.3125 54.6875 1001
351.562 -320.312 1044
-148.438 132.812 923
-468.75 -328.125 2744
179.688 -296.875 1255
414.062 -7.8125 1025
-70.3125 7.8125 1073
195.312 273.438 1094
367.188 0 1019
-39.0625 335.938 1601
-125 367.188 1543
304.688 -132.812 943
54.6875 31.25 967
476.562 -320.312 1415
281.25 390.625 1273
-54.6875 359.375 1496
250 -343.75 1047
335.938 46.875 970
179.688 -304.688 1236
-23.4375 382.812 1523
406.25 273.438 1433
-312.5 351.562 1034
179.688 -62.5 978
195.312 -23.4375 967
234.375 164.062 1044
-296.875 195.312 956
-156.25 -7.8125 1112
78.125 132.812 995
312.5 203.125 1813
-273.438 273.438 995
156.25 -195.312 1145
234.375 187.5 1057
-187.5 375 1245
31.25 15.625 987
39.0625 -195.312 1126
-117.188 398.438 1214
351.562 7.8125 1013
-54.6875 382.812 1516
-265.625 296.875 1010
445.312 226.562 1529
-70.3125 367.188 1509
85.9375 335.938 1278
453.125 -15.625 1031
242.188 -343.75 1060
148.438 375 1227
15.625 390.625 1496
-164.062 359.375 1250
46.875 335.938 1579
46.875 343.75 1255
39.0625 390.625 1489
132.812 125 1001
39.0625 304.688 1077
382.812 0 1019
304.688 -234.375 1070
0 7.8125 1063
179.688 -23.4375 967
132.812 367.188 1219
85.9375 -195.312 1080
156.25 -398.438 1202
-125 375 1214
-281.25 242.188 981
117.188 375 1219
23.4375 54.6875 989
234.375 -296.875 1241
460.938 242.188 1516
234.375 -250 1094
-164.062 390.625 1214
101.562 375 1214
-78.125 7.8125 1077
-281.25 234.375 975
39.0625 -109.375 1001
7.8125 148.438 989
-78.125 406.25 1470
203.125 7.8125 1031
-7.8125 7.8125 1067
-62.5 7.8125 1073
-242.188 367.188 1057
54.6875 367.188 1250
-437.5 320.312 1993
492.188 -257.812 1070
101.562 429.688 1410
46.875 382.812 1489
226.562 429.688 1245
-179.688 429.688 1173
101.562 382.812 1214
54.6875 359.375 1250
0 109.375 935
-39.0625 398.438 1489
117.188 -375 1255
375 -7.8125 1007
164.062 117.188 1004
101.562 359.375 1255
23.4375 -148.438 954
296.875 -343.75 1019
218.75 429.688 1236
109.375 -140.625 975
164.062 -187.5 1126
171.875 46.875 978
171.875 -179.688 1108
148.438 -304.688 1264
78.125 296.875 1077
-93.75 0 1090
-15.625 -148.438 970
132.812 54.6875 973
187.5 46.875 975
-117.188 -78.125 1130
-492.188 -343.75 2198
164.062 -93.75 978
265.625 -203.125 1087
484.375 -320.312 1421
179.688 15.625 1022
0 -203.125 1165
15.625 46.875 1001
328.125 -226.562 1080
281.25 398.438 1273
-7.8125 0 1077
-117.188 421.875 1458
335.938 -210.938 1084
-187.5 421.875 1177
-31.25 -203.125 1185
-78.125 54.6875 1004
210.938 -132.812 1004
-117.188 164.062 978
179.688 -312.5 1223
78.125 359.375 1236
-15.625 335.938 1601
-351.562 320.312 1993
218.75 335.938 1173
203.125 15.625 1019
203.125 -140.625 1022
257.812 -132.812 940
-117.188 -54.6875 1101
0 -7.8125 1084
-23.4375 359.375 1557
-101.562 -31.25 1105
335.938 179.688 1823
7.8125 -78.125 1025
78.125 46.875 954
0 23.4375 1038
-273.438 257.812 989
203.125 -101.562 1057
492.188 -312.5 1343
257.812 -265.625 1080
62.5 359.375 1245
-164.062 398.438 1214
218.75 -125 992
62.5 367.188 1255
-109.375 414.062 1464
-125 -164.062 1080
234.375 414.062 1268
-179.688 375 1250
218.75 203.125 1060
-109.375 390.625 1483
132.812 -117.188 962
226.562 328.125 1169
171.875 7.8125 970
437.5 312.5 1421
-125 414.062 1458
46.875 390.625 1489
-31.25 7.8125 1070
406.25 -7.8125 1025
-23.4375 -62.5 1070
-23.4375 351.562 1564
460.938 -164.062 962
-7.8125 312.5 1070
31.25 -195.312 1138
62.5 -164.062 967
179.688 23.4375 1013
367.188 257.812 1557
46.875 -93.75 989
54.6875 -93.75 989
-7.8125 390.625 1523
281.25 -304.688 1031
406.25 187.5 1794
101.562 328.125 1283
398.438 -156.25 956
-179.688 312.5 1034
429.688 -328.125 1126
421.875 -7.8125 1025
-109.375 -15.625 1123
-62.5 390.625 1503
421.875 281.25 1427
-101.562 414.062 1464
39.0625 -7.8125 962
-39.0625 289.062 1054
-242.188 320.312 1028
140.625 -85.9375 967
62.5 382.812 1214
429.688 -7.8125 1022
0 15.625 1047
-296.875 382.812 1060
93.75 132.812 998
218.75 187.5 1054
-117.188 343.75 1579
-93.75 -31.25 1101
140.625 375 1214
54.6875 140.625 992
179.688 273.438 1087
359.375 -382.812 1028
-218.75 421.875 1094
304.688 218.75 1748
429.688 171.875 1813
148.438 -414.062 1214
101.562 -46.875 951
-140.625 390.625 1219
281.25 117.188 1766
132.812 -140.625 975
-187.5 398.438 1197
7.8125 367.188 1516
406.25 0 1019
-46.875 -7.8125 1097
210.938 0 1044
-156.25 421.875 1458
468.75 -31.25 1019
148.438 -203.125 1177
-54.6875 375 1516
218.75 23.4375 1007
-132.812 -140.625 1101
-23.4375 375 1523
15.625 367.188 1523
-125 390.625 1219
195.312 -7.8125 1057
0 -148.438 956
257.812 23.4375 1004
39.0625 125 943
468.75 281.25 1410
226.562 70.3125 959
343.75 -140.625 948
140.625 367.188 1219
257.812 171.875 1054
7.8125 234.375 992
-70.3125 382.812 1503
23.4375 23.4375 992
54.6875 -7.8125 956
468.75 210.938 1696
78.125 382.812 1210
289.062 367.188 1464
-500 -359.375 2271
156.25 -7.8125 962
46.875 203.125 1022
171.875 335.938 1264
46.875 140.625 989
62.5 0 956
187.5 -7.8125 978
-39.0625 0 1077
117.188 367.188 1219
179.688 367.188 1223
382.812 265.625 1483
-31.25 -148.438 984
23.4375 351.562 1572
-31.25 312.5 1067
-117.188 -23.4375 1134
289.062 218.75 1748
132.812 -359.375 1232
-156.25 -156.25 1483
109.375 335.938 1268
-132.812 171.875 978
93.75 -164.062 978
-125 -156.25 1080
242.188 421.875 1273
54.6875 -70.3125 975
-15.625 -62.5 1063
179.688 -31.25 967
85.9375 -265.625 1398
-218.75 179.688 967
-85.9375 -31.25 1090
-226.562 375 1060
-437.5 -148.438 2933
7.8125 -203.125 1157
296.875 23.4375 1001
312.5 437.5 1359
335.938 171.875 1823
210.938 -453.125 1202
492.188 250 1470
226.562 289.062 1141
320.312 218.75 1739
-46.875 -70.3125 1080
398.438 250 1503
-39.0625 375 1523
31.25 -78.125 992
-23.4375 398.438 1489
-70.3125 406.25 1470
484.375 7.8125 992
-7.8125 398.438 1483
265.625 -125 938
0 -15.625 1097
304.688 406.25 1404
-54.6875 -203.125 1177
218.75 359.375 1189
304.688 -203.125 1073
-15.625 328.125 1609
-101.562 226.562 1007
-343.75 257.812 981
187.5 375 1236
93.75 15.625 964
117.188 328.125 1292
203.125 289.062 1177
140.625 -156.25 998
-39.0625 226.562 1019
31.25 54.6875 989
93.75 -7.8125 956
-62.5 -7.8125 1097
39.0625 210.938 1025
289.062 -265.625 1050
78.125 335.938 1283
-367.188 164.062 901
140.625 -210.938 1189
-265.625 289.062 1007
343.75 -351.562 1028
390.625 359.375 1433
-117.188 -109.375 1105
-156.25 375 1245
445.312 -23.4375 1016
-46.875 -39.0625 1073
218.75 117.188 1016
-312.5 375 1853
-93.75 -54.6875 1084
289.062 54.6875 970
203.125 -382.812 1185
234.375 -39.0625 989
-265.625 148.438 910
-93.75 -85.9375 1126
367.188 -242.188 1084
335.938 39.0625 973
203.125 -375 1185
0 320.312 1070
218.75 -304.688 1232
-140.625 -148.438 1097
39.0625 62.5 975
203.125 398.438 1227
460.938 250 1509
-31.25 -62.5 1077
367.188 -250 1084
-70.3125 414.062 1458
195.312 -148.438 1050
23.4375 328.125 1609
-156.25 -62.5 1227
273.438 140.625 1785
359.375 156.25 1823
328.125 179.688 1823
7.8125 -85.9375 1019
-39.0625 -31.25 1080
250 -210.938 1112
-85.9375 -23.4375 1090
7.8125 23.4375 1038
101.562 -54.6875 951
-109.375 -23.4375 1134
-109.375 398.438 1503
-171.875 429.688 1173
179.688 -23.4375 967
-15.625 406.25 1470
445.312 -328.125 1123
343.75 0 1010
-453.125 171.875 2415
210.938 -15.625 1067
-62.5 375 1543
31.25 265.625 1050
132.812 -218.75 1185
-85.9375 -85.9375 1077
31.25 351.562 1255
-476.562 -281.25 2812
-101.562 390.625 1503
492.188 46.875 998
-257.812 296.875 1010
148.438 367.188 1223
-484.375 -375 2680
203.125 -140.625 1022
437.5 -328.125 1123
296.875 -375 1013
-421.875 320.312 1993
-179.688 421.875 1173
-54.6875 15.625 1060
257.812 70.3125 962
-85.9375 -140.625 1054
218.75 414.062 1227
-132.812 -132.812 1404
15.625 -31.25 1038
210.938 265.625 1094
23.4375 343.75 1586
296.875 210.938 1748
453.125 234.375 1523
-289.062 210.938 964
-500 -328.125 2040
62.5 -195.312 1108
-382.812 320.312 1993
-421.875 156.25 896
-31.25 328.125 1609
289.062 210.938 1748
-171.875 390.625 1210
-281.25 250 984
31.25 398.438 1477
-140.625 367.188 1245
375 -148.438 948
-70.3125 -70.3125 1073
304.688 15.625 1007
-7.8125 -140.625 964
117.188 351.562 1250
-23.4375 234.375 992
343.75 -320.312 1041
-468.75 -250 2744
375 -304.688 1060
-46.875 320.312 1063
62.5 -140.625 959
-39.0625 -140.625 1004
156.25 367.188 1219
218.75 351.562 1185
101.562 375 1214
390.625 296.875 1464
343.75 -382.812 1022
-78.125 -7.8125 1097
179.688 -62.5 978
-62.5 367.188 1543
492.188 15.625 992
226.562 -281.25 1292
-414.062 320.312 1993
296.875 -273.438 1047
-460.938 -281.25 2812
195.312 -54.6875 995
210.938 -117.188 1019
109.375 382.812 1214
-78.125 -46.875 1073
335.938 7.8125 1016
-164.062 156.25 925
-203.125 125 923
70.3125 343.75 1245
210.938 85.9375 962
-54.6875 320.312 1057
-429.688 132.812 925
46.875 -140.625 956
-93.75 328.125 1050
226.562 343.75 1177
304.688 -382.812 1019
140.625 -343.75 1223
242.188 445.312 1292
-164.062 429.688 1439
-62.5 242.188 987
-250 140.625 913
0 0 1073
78.125 328.125 1288
39.0625 304.688 1077
273.438 195.312 1823
250 437.5 1292
367.188 -304.688 1057
70.3125 -23.4375 962
-85.9375 148.438 930
-351.562 148.438 901
-210.938 179.688 973
234.375 101.562 964
31.25 7.8125 981
140.625 -296.875 1273
210.938 -132.812 1004
164.062 375 1227
-93.75 0 1090
70.3125 320.312 1616
70.3125 390.625 1214
203.125 335.938 1202
156.25 78.125 946
-46.875 375 1516
-500 -375 2680
351.562 46.875 973
62.5 0 956
125 -398.438 1241
148.438 132.812 1004
312.5 -234.375 1070
-414.062 -62.5 3092
-273.438 265.625 995
414.062 0 1016
234.375 132.812 1028
273.438 289.062 1624
-15.625 382.812 1523
257.812 62.5 962
421.875 234.375 1536
390.625 -289.062 1063
195.312 109.375 1007
179.688 117.188 1007
140.625 -398.438 1219
437.5 289.062 1404
15.625 46.875 1001
242.188 -351.562 1057
406.25 250 1523
125 15.625 959
-187.5 390.625 1197
117.188 -117.188 956
203.125 -54.6875 995
54.6875 210.938 1013
-468.75 -218.75 2485
-132.812 -156.25 1087
351.562 85.9375 1034
-351.562 -54.6875 1255
156.25 257.812 1077
242.188 -375 1041
-46.875 406.25 1470
85.9375 -7.8125 956
7.8125 101.562 935
-171.875 359.375 1283
203.125 351.562 1202
31.25 328.125 1624
210.938 242.188 1084
-15.625 -132.812 992
-93.75 -62.5 1080
-15.625 -23.4375 1077
234.375 93.75 964
179.688 265.625 1087
-15.625 -203.125 1185
484.375 242.188 1477
-218.75 437.5 1101
218.75 140.625 1028
132.812 -304.688 1283
218.75 343.75 1173
148.438 296.875 1322
-117.188 -62.5 1130
203.125 -23.4375 1080
-62.5 343.75 1543
-62.5 343.75 1543
281.25 289.062 1624
242.188 359.375 1185
125 -109.375 1047
-343.75 242.188 964
-273.438 273.438 995
257.812 437.5 1297
-453.125 70.3125 2381
54.6875 -109.375 967
-289.062 226.562 973
0 148.438 989
296.875 -109.375 948
156.25 -195.312 1145
179.688 382.812 1292
-460.938 375 1853
62.5 226.562 1001
210.938 -429.688 1197
203.125 312.5 1181
281.25 218.75 1739
312.5 -382.812 1019
-265.625 304.688 1010
-484.375 -429.688 2618
320.312 -390.625 1034
0 312.5 1070
39.0625 390.625 1489
-132.812 125 925
78.125 359.375 1236
78.125 312.5 1632
39.0625 -109.375 1001
78.125 320.312 1288
-328.125 320.312 1970
-101.562 -7.8125 1101
70.3125 367.188 1236
0 -132.812 992
226.562 -54.6875 1007
226.562 429.688 1245
85.9375 -132.812 964
-195.312 390.625 1214
-31.25 375 1529
304.688 281.25 1639
-125 398.438 1214
54.6875 -15.625 959
203.125 -39.0625 995
218.75 70.3125 959
0 7.8125 1063
414.062 -343.75 1123
132.812 304.688 1328
343.75 203.125 1748
375 54.6875 978
218.75 -117.188 992
-46.875 -31.25 1073
148.438 -132.812 981
93.75 -257.812 1354
-171.875 382.812 1250
367.188 -226.562 1094
265.625 23.4375 1001
-492.188 -156.25 2143
328.125 -203.125 1070
-54.6875 343.75 1496
-312.5 -132.812 1452
242.188 351.562 1185
-140.625 -148.438 1097
218.75 335.938 1173
39.0625 0 964
-445.312 0 2381
187.5 23.4375 1013
-210.938 406.25 1080
210.938 226.562 1070
101.562 -31.25 951
101.562 -7.8125 954
62.5 343.75 1250
-125 -117.188 1108
-70.3125 382.812 1503
-70.3125 359.375 1550
289.062 -250 1057
-117.188 367.188 1564
-156.25 -156.25 1483
-54.6875 414.062 1458
250 -203.125 1094
171.875 -23.4375 967
39.0625 343.75 1255
335.938 328.125 1523
210.938 -265.625 1288
78.125 23.4375 959
46.875 -125 978
-101.562 328.125 1050
15.625 -78.125 1025
-156.25 414.062 1470
328.125 -242.188 1073
-101.562 164.062 978
132.812 343.75 1250
-109.375 164.062 978
-242.188 375 1060
156.25 375 1219
101.562 -242.188 1333
15.625 23.4375 992
218.75 421.875 1236
218.75 31.25 995
-70.3125 390.625 1496
-31.25 -140.625 992
257.812 296.875 1259
234.375 -414.062 1189
70.3125 15.625 956
78.125 296.875 1077
156.25 -382.812 1202
218.75 320.312 1161
78.125 31.25 959
328.125 203.125 1748
15.625 -70.3125 1038
15.625 390.625 1496
7.8125 375 1516
195.312 -148.438 1050
31.25 210.938 1025
101.562 335.938 1283
78.125 390.625 1214
351.562 -210.938 1080
-164.062 359.375 1250
-273.438 281.25 998
-156.25 171.875 975
109.375 85.9375 943
382.812 39.0625 975
-62.5 15.625 1057
-156.25 398.438 1214
289.062 226.562 1739
289.062 203.125 1823
210.938 23.4375 1010
0 398.438 1483
265.625 -195.312 1067
140.625 -117.188 978
187.5 -156.25 1063
39.0625 -132.812 992
273.438 15.625 995
484.375 429.688 1333
-218.75 367.188 1057
101.562 351.562 1255
-15.625 335.938 1601
54.6875 390.625 1489
-109.375 46.875 1016
-15.625 -7.8125 1090
-281.25 242.188 981
265.625 195.312 1823
31.25 62.5 978
312.5 62.5 973
429.688 0 1016
210.938 234.375 1077
429.688 234.375 1536
171.875 304.688 1297
-117.188 414.062 1458
-39.0625 -70.3125 1080
132.812 -31.25 951
140.625 367.188 1219
31.25 23.4375 989
-62.5 359.375 1550
187.5 359.375 1223
-140.625 414.062 1464
343.75 195.312 2143
476.562 250 1489
226.562 -382.812 1185
0 23.4375 1038
140.625 39.0625 995
39.0625 23.4375 984
195.312 23.4375 1013
257.812 -195.312 1063
-117.188 351.562 1572
171.875 -265.625 1292
359.375 351.562 1470
78.125 273.438 1067
-101.562 0 1090
62.5 -78.125 970
203.125 -7.8125 1057
-31.25 335.938 1609
-31.25 39.0625 1019
414.062 281.25 1433
-132.812 -132.812 1404
46.875 -7.8125 959
-359.375 320.312 1993
-23.4375 398.438 1489
125 -312.5 1268
-125 390.625 1219
39.0625 39.0625 987
109.375 -296.875 1427
70.3125 -125 959
23.4375 351.562 1572
-93.75 7.8125 1077
140.625 343.75 1250
406.25 328.125 1410
23.4375 281.25 1057
-171.875 375 1245
179.688 -31.25 967
-101.562 250 1019
117.188 375 1219
46.875 -70.3125 981
179.688 -414.062 1193
140.625 -273.438 1297
296.875 15.625 1007
304.688 -312.5 1031
-257.812 312.5 1019
-101.562 226.562 1007
-335.938 289.062 1001
117.188 39.0625 992
7.8125 -62.5 1038
-70.3125 406.25 1470
-23.4375 -23.4375 1077
39.0625 140.625 989
23.4375 140.625 989
-54.6875 -15.625 1080
234.375 351.562 1185
-125 414.062 1458
54.6875 -7.8125 956
203.125 -140.625 1022
484.375 257.812 1470
164.062 -351.562 1206
234.375 289.062 1141
265.625 234.375 1731
-70.3125 -203.125 1169
328.125 -210.938 1084
62.5 359.375 1245
-23.4375 382.812 1523
-382.812 164.062 896
62.5 382.812 1214
85.9375 382.812 1214
-109.375 375 1483
62.5 210.938 1010
187.5 117.188 1010
382.812 78.125 1047
-39.0625 382.812 1516
203.125 15.625 1019
335.938 -328.125 1034
101.562 375 1214
-117.188 -101.562 1126
-195.312 398.438 1214
-218.75 382.812 1067
31.25 351.562 1255
250 320.312 1255
203.125 -343.75 1197
-46.875 382.812 1516
234.375 359.375 1185
148.438 375 1227
-117.188 -23.4375 1134
343.75 -312.5 1044
218.75 312.5 1157
-250 351.562 1044
250 359.375 1232
-226.562 359.375 1044
85.9375 -70.3125 954
-296.875 187.5 954
226.562 -39.0625 1007
-46.875 351.562 1496
328.125 -328.125 1031
125 367.188 1223
-62.5 390.625 1503
31.25 320.312 1624
-445.312 23.4375 2398
304.688 54.6875 970
-101.562 414.062 1464
218.75 328.125 1169
187.5 273.438 1087
109.375 335.938 1268
-46.875 0 1080
-273.438 187.5 962
-156.25 156.25 928
-93.75 125 925
78.125 -7.8125 959
-179.688 421.875 1173
101.562 -125 956
-62.5 367.188 1543
-148.438 421.875 1458
210.938 218.75 1070
-31.25 359.375 1557
46.875 -23.4375 964
-78.125 406.25 1470
54.6875 343.75 1579
226.562 359.375 1185
414.062 187.5 1785
117.188 -117.188 956
-226.562 367.188 1054
-46.875 156.25 984
234.375 -335.938 1063
304.688 -195.312 1057
125 -39.0625 948
179.688 46.875 975
-39.0625 -31.25 1080
156.25 367.188 1219
148.438 -203.125 1177
234.375 -289.062 1087
187.5 -156.25 1063
-421.875 -93.75 3010
367.188 -234.375 1087
-265.625 281.25 998
-312.5 359.375 1044
-85.9375 117.188 925
390.625 0 1016
70.3125 15.625 956
54.6875 382.812 1496
109.375 -15.625 951
234.375 117.188 1019
-132.812 375 1214
359.375 -148.438 951
328.125 187.5 1813
-23.4375 -156.25 978
-210.938 164.062 920
-101.562 382.812 1483
-93.75 0 1090
203.125 320.312 1185
250 62.5 962
203.125 304.688 1173
-148.438 414.062 1464
54.6875 -85.9375 981
-93.75 -39.0625 1094
148.438 -414.062 1214
210.938 -78.125 1038
54.6875 -7.8125 956
-296.875 203.125 962
0 -39.0625 1054
-421.875 -101.562 3010
187.5 -335.938 1202
-7.8125 406.25 1470
226.562 23.4375 1004
234.375 226.562 1077
328.125 -265.625 1060
-54.6875 156.25 984
93.75 39.0625 954
273.438 -218.75 1073
39.0625 328.125 1609
54.6875 429.688 1421
101.562 -62.5 951
210.938 210.938 1063
328.125 -359.375 1019
23.4375 -195.312 1145
312.5 15.625 1007
-242.188 132.812 915
-179.688 132.812 920
93.75 351.562 1250
179.688 -257.812 1264
195.312 -148.438 1050
-117.188 398.438 1214
-15.625 -78.125 1028
203.125 328.125 1185
156.25 343.75 1250
195.312 -101.562 1001
7.8125 39.0625 1013
-109.375 -39.0625 1105
132.812 -218.75 1185
-54.6875 -46.875 1070
109.375 125 995
39.0625 -156.25 954
335.938 210.938 1748
70.3125 375 1214
-289.062 210.938 964
54.6875 -31.25 970
39.0625 -23.4375 964
-367.188 156.25 898
312.5 -31.25 984
-85.9375 125 925
398.438 -7.8125 1025
453.125 23.4375 984
117.188 -7.8125 948
-156.25 359.375 1245
-101.562 304.688 1047
15.625 351.562 1572
-468.75 -70.3125 2286
93.75 -7.8125 956
335.938 -351.562 1025
476.562 -23.4375 1034
-210.938 101.562 951
-31.25 351.562 1572
0 -203.125 1165
148.438 78.125 946
367.188 125 1794
171.875 -171.875 1112
-54.6875 -70.3125 1077
39.0625 359.375 1250
375 187.5 1804
195.312 0 1044
140.625 125 1001
148.438 281.25 1080
179.688 -164.062 1090
-125 -117.188 1108
-281.25 257.812 987
70.3125 -148.438 962
-23.4375 -171.875 1189
0 375 1516
-39.0625 312.5 1067
-281.25 187.5 959
0 31.25 1028
445.312 195.312 1748
187.5 -132.812 1094
54.6875 101.562 938
39.0625 437.5 1415
101.562 359.375 1255
-62.5 382.812 1509
23.4375 398.438 1477
-93.75 414.062 1464
421.875 -156.25 956
-210.938 320.312 1038
218.75 406.25 1219
-101.562 -85.9375 1126
171.875 117.188 1004
70.3125 359.375 1236
304.688 -296.875 1041
359.375 62.5 981
296.875 -242.188 1063
437.5 -156.25 959
-257.812 148.438 913
-23.4375 375 1523
367.188 -218.75 1094
70.3125 -15.625 959
-265.625 304.688 1010
148.438 -382.812 1210
-85.9375 62.5 992
-289.062 226.562 973
39.0625 -15.625 962
218.75 7.8125 1028
-125 -46.875 1189
148.438 -15.625 956
328.125 210.938 1748
-218.75 414.062 1084
85.9375 -117.188 954
-101.562 406.25 1477
-78.125 359.375 1550
-265.625 296.875 1010
218.75 429.688 1236
-39.0625 -62.5 1084
-70.3125 -70.3125 1073
23.4375 343.75 1586
78.125 351.562 1245
335.938 289.062 1509
70.3125 335.938 1283
-226.562 101.562 954
15.625 101.562 935
-226.562 382.812 1063
171.875 -62.5 973
31.25 23.4375 989
39.0625 -93.75 995
140.625 -210.938 1189
39.0625 304.688 1077
0 23.4375 1038
-242.188 117.188 933
-281.25 234.375 975
296.875 54.6875 970
171.875 -54.6875 970
210.938 -7.8125 1060
218.75 320.312 1161
-156.25 367.188 1245
85.9375 117.188 946
179.688 -39.0625 970
-203.125 140.625 915
414.062 -335.938 1123
328.125 -304.688 1044
-7.8125 109.375 935
187.5 -304.688 1232
-273.438 273.438 995
46.875 304.688 1077
-93.75 -195.312 1153
109.375 -46.875 948
85.9375 335.938 1278
78.125 -203.125 1077
-93.75 390.625 1503
78.125 -46.875 962
85.9375 132.812 998
39.0625 -117.188 992
-289.062 218.75 967
250 335.938 1245
-70.3125 437.5 1421
-164.062 406.25 1214
78.125 -117.188 956
-273.438 281.25 998
359.375 -382.812 1028
-54.6875 382.812 1516
-85.9375 -15.625 1094
-132.812 390.625 1214
203.125 -335.938 1202
468.75 226.562 1503
0 -101.562 1010
7.8125 -195.312 1161
296.875 226.562 1739
140.625 281.25 1087
62.5 7.8125 956
-460.938 -250 2744
289.062 -343.75 1019
-468.75 -250 2744
156.25 -101.562 989
-39.0625 351.562 1496
31.25 -31.25 970
195.312 250 1084
46.875 390.625 1489
-109.375 -93.75 1126
257.812 320.312 1255
62.5 0 956
367.188 -242.188 1084
312.5 -140.625 948
109.375 382.812 1214
203.125 367.188 1206
187.5 429.688 1278
445.312 234.375 1523
468.75 250 1496
343.75 62.5 978
85.9375 -7.8125 956
148.438 -289.062 1288
171.875 -46.875 970
218.75 15.625 1016
39.0625 7.8125 970
164.062 7.8125 970
-31.25 -210.938 1189
-54.6875 343.75 1496
390.625 265.625 1458
-289.062 234.375 975
15.625 23.4375 992
78.125 320.312 1288
210.938 203.125 1060
15.625 15.625 992
-93.75 250 1019
39.0625 398.438 1483
390.625 250 1483
-15.625 382.812 1523
179.688 -15.625 973
-226.562 421.875 1087
-453.125 -242.188 2723
46.875 -15.625 959
-101.562 421.875 1452
109.375 328.125 1283
-179.688 382.812 1250
195.312 -15.625 978
179.688 -31.25 967
54.6875 367.188 1250
179.688 -62.5 978
218.75 296.875 1145
343.75 7.8125 1013
234.375 -343.75 1067
62.5 -70.3125 970
-117.188 -31.25 1149
-85.9375 7.8125 1077
-39.0625 -148.438 989
-109.375 -7.8125 1105
195.312 7.8125 1034
-109.375 -31.25 1145
109.375 0 956
-109.375 398.438 1503
140.625 351.562 1250
31.25 398.438 1477
109.375 375 1214
-78.125 7.8125 1077
-109.375 -109.375 1105
31.25 343.75 1579
281.25 -320.312 1028
-101.562 0 1090
-117.188 -23.4375 1134
101.562 0 959
-54.6875 -31.25 1070
-179.688 375 1250
-140.625 -148.438 1097
54.6875 -7.8125 956
-296.875 398.438 1060
-125 351.562 1572
-148.438 375 1232
-70.3125 -140.625 1028
187.5 -156.25 1063
-257.812 -140.625 1464
-15.625 -140.625 973
-218.75 375 1060
23.4375 31.25 1013
62.5 70.3125 962
171.875 -171.875 1112
-62.5 -62.5 1070
-101.562 -39.0625 1105
109.375 351.562 1250
218.75 304.688 1153
70.3125 -54.6875 967
226.562 -54.6875 1007
210.938 187.5 1050
226.562 -109.375 975
-476.562 -273.438 2812
218.75 312.5 1157
226.562 -367.188 1185
140.625 85.9375 946
0 31.25 1028
242.188 -351.562 1057
0 312.5 1070
-7.8125 -15.625 1101
-210.938 429.688 1101
-93.75 328.125 1050
140.625 -15.625 954
421.875 -265.625 1173
-85.9375 328.125 1054
156.25 -187.5 1157
-23.4375 -23.4375 1077
54.6875 203.125 1022
179.688 -164.062 1090
62.5 7.8125 956
0 -195.312 1165
7.8125 39.0625 1013
117.188 125 998
210.938 179.688 1044
132.812 125 1001
132.812 -39.0625 951
226.562 31.25 995
101.562 -156.25 981
-218.75 398.438 1080
406.25 -15.625 1016
171.875 -23.4375 967
-85.9375 -23.4375 1090
195.312 -31.25 970
-195.312 421.875 1097
179.688 328.125 1273
-54.6875 367.188 1543
164.062 -179.688 1130
-15.625 398.438 1483
-62.5 -54.6875 1070
359.375 -375 1028
210.938 31.25 998
484.375 -312.5 1343
210.938 -125 1010
15.625 46.875 1001
117.188 382.812 1214
203.125 15.625 1019
15.625 -93.75 1016
242.188 23.4375 1004
-109.375 250 1016
140.625 367.188 1219
210.938 195.312 1054
250 -46.875 967
39.0625 62.5 975
-125 -46.875 1189
-273.438 265.625 995
-62.5 414.062 1458
109.375 -328.125 3149
203.125 281.25 1161
-320.312 335.938 1031
171.875 -31.25 967
289.062 -250 1057
39.0625 351.562 1255
-93.75 250 1019
-101.562 46.875 1019
-101.562 -23.4375 1126
125 -78.125 959
203.125 289.062 1177
