ply
format ascii 1.0
comment Created by Open3D
element vertex 2385
property double x
property double y
property double z
end_header
140.625 -343.75 754
70.3125 -140.625 690
296.875 164.062 616
-85.9375 -250 688
289.062 179.688 612
109.375 -453.125 792
296.875 -187.5 742
-70.3125 -164.062 672
-101.562 -15.625 796
-335.938 -281.25 1028
-390.625 -46.875 889
187.5 -257.812 783
-382.812 195.312 1601
-343.75 -335.938 1333
296.875 -195.312 741
242.188 289.062 630
-7.8125 -218.75 666
-7.8125 296.875 637
273.438 -85.9375 723
281.25 140.625 697
-476.562 31.25 975
-179.688 -296.875 998
-250 179.688 841
-304.688 -406.25 3149
195.312 -203.125 739
382.812 -140.625 851
-15.625 -468.75 2333
304.688 265.625 611
203.125 -148.438 759
140.625 -335.938 754
296.875 242.188 623
-195.312 -78.125 843
-203.125 -132.812 1013
-281.25 -109.375 885
0 304.688 636
304.688 -265.625 954
-421.875 93.75 933
437.5 -218.75 908
195.312 -359.375 752
-93.75 -242.188 686
-117.188 -390.625 1354
-148.438 -156.25 722
-406.25 -148.438 885
-421.875 -132.812 869
-179.688 -226.562 1169
-226.562 -156.25 875
-375 -78.125 858
210.938 -93.75 678
-164.062 -171.875 1028
-179.688 -218.75 1161
0 -125 661
-250 265.625 829
93.75 -125 849
-500 -234.375 1223
-437.5 367.188 1680
242.188 -187.5 723
351.562 -156.25 708
-312.5 -31.25 815
15.625 -187.5 646
171.875 437.5 575
187.5 -125 687
-289.062 187.5 871
-132.812 203.125 687
-164.062 -109.375 862
296.875 -171.875 747
-257.812 -460.938 3333
312.5 203.125 606
242.188 -195.312 723
93.75 375 603
-46.875 -351.562 1297
117.188 -304.688 767
226.562 460.938 563
46.875 -171.875 652
-117.188 -187.5 688
-7.8125 -7.8125 750
273.438 -382.812 778
-382.812 -46.875 891
54.6875 -7.8125 747
164.062 -93.75 694
-226.562 -54.6875 831
187.5 320.312 590
203.125 453.125 568
-289.062 -70.3125 898
195.312 453.125 566
-406.25 226.562 1853
109.375 -445.312 783
-289.062 140.625 821
-164.062 -101.562 856
273.438 -78.125 661
93.75 7.8125 771
-148.438 -140.625 739
-398.438 -46.875 889
-242.188 -125 933
351.562 210.938 662
304.688 156.25 620
-109.375 -132.812 720
328.125 -125 738
-7.8125 304.688 635
242.188 250 612
-390.625 -62.5 860
289.062 -70.3125 661
304.688 -242.188 933
-375 -210.938 959
-304.688 62.5 766
85.9375 -250 821
132.812 -437.5 750
218.75 -187.5 723
-179.688 187.5 700
367.188 -46.875 790
-398.438 -179.688 920
171.875 304.688 596
-132.812 -398.438 1392
335.938 226.562 634
328.125 218.75 607
101.562 -62.5 809
93.75 -414.062 773
218.75 242.188 615
-148.438 -132.812 739
265.625 -250 714
-31.25 -156.25 658
-101.562 -93.75 747
-171.875 187.5 697
101.562 -7.8125 778
93.75 -367.188 764
187.5 296.875 596
187.5 296.875 596
101.562 -39.0625 796
-101.562 320.312 794
375 250 636
320.312 -62.5 663
-39.0625 281.25 646
-85.9375 -140.625 700
101.562 -23.4375 787
195.312 445.312 571
-414.062 101.562 925
-109.375 -414.062 3092
265.625 226.562 618
296.875 -109.375 733
-171.875 -257.812 1197
101.562 -31.25 792
101.562 -273.438 783
-273.438 -117.188 858
218.75 281.25 616
-250 109.375 738
-242.188 218.75 851
-140.625 -125 747
-187.5 156.25 710
289.062 -132.812 769
101.562 -54.6875 805
328.125 171.875 614
242.188 187.5 642
-328.125 31.25 787
-375 195.312 1616
-234.375 117.188 733
-250 273.438 829
-46.875 -359.375 1307
101.562 -70.3125 815
85.9375 -375 771
101.562 0 773
375 -148.438 706
-328.125 195.312 875
85.9375 -359.375 769
-101.562 -234.375 682
70.3125 -117.188 701
359.375 -398.438 2639
203.125 -117.188 733
15.625 -203.125 655
-54.6875 -250 687
468.75 429.688 563
78.125 -140.625 690
218.75 -109.375 728
70.3125 -398.438 781
453.125 453.125 554
-78.125 250 661
234.375 -296.875 767
250 234.375 614
39.0625 -39.0625 710
54.6875 -359.375 790
343.75 -62.5 668
226.562 468.75 562
234.375 242.188 613
-7.8125 -453.125 2349
-62.5 375 766
-265.625 -453.125 3300
-406.25 -156.25 894
-273.438 -85.9375 908
320.312 -140.625 742
-343.75 -460.938 3064
101.562 -93.75 827
-273.438 250 843
-390.625 -93.75 867
-164.062 -179.688 1126
-171.875 -250 1193
54.6875 343.75 616
-429.688 335.938 1713
-148.438 -125 747
140.625 -382.812 754
-257.812 -265.625 1041
54.6875 453.125 727
-390.625 -460.938 3208
62.5 -289.062 803
-54.6875 -218.75 667
242.188 -281.25 778
-179.688 -289.062 998
101.562 -382.812 762
296.875 -93.75 727
23.4375 320.312 628
117.188 -257.812 789
70.3125 -351.562 778
78.125 -117.188 706
-351.562 -250 998
296.875 -421.875 2701
101.562 -78.125 819
101.562 -125 847
234.375 -187.5 722
-78.125 -7.8125 789
93.75 -179.688 894
210.938 -195.312 725
101.562 -46.875 802
-117.188 -187.5 688
62.5 -304.688 794
-289.062 -7.8125 805
93.75 -148.438 867
-70.3125 250 661
-242.188 -85.9375 845
-54.6875 -406.25 3037
-335.938 179.688 878
39.0625 335.938 622
-242.188 320.312 1489
23.4375 -320.312 837
-437.5 109.375 1452
-328.125 23.4375 789
-23.4375 -46.875 728
7.8125 -179.688 644
234.375 328.125 614
164.062 421.875 582
117.188 390.625 596
-148.438 -156.25 722
148.438 414.062 585
101.562 -117.188 845
335.938 -7.8125 769
85.9375 367.188 606
78.125 -375 774
203.125 281.25 615
-289.062 85.9375 755
54.6875 -351.562 790
210.938 320.312 618
-195.312 148.438 714
-281.25 -304.688 1031
328.125 -187.5 730
101.562 -328.125 766
-429.688 343.75 1713
-296.875 226.562 854
367.188 -390.625 2598
-148.438 -148.438 738
-328.125 187.5 875
101.562 -109.375 839
78.125 31.25 761
156.25 -351.562 752
398.438 257.812 635
-117.188 -195.312 682
101.562 -132.812 856
-265.625 257.812 839
-54.6875 -210.938 663
-234.375 -132.812 935
-203.125 375 1439
-132.812 -132.812 736
328.125 296.875 623
-257.812 265.625 835
-398.438 23.4375 887
132.812 414.062 585
-406.25 -296.875 1283
328.125 281.25 631
-296.875 70.3125 762
210.938 -164.062 727
-39.0625 -117.188 691
179.688 -351.562 752
-398.438 -31.25 878
171.875 343.75 612
289.062 -78.125 661
140.625 -414.062 755
320.312 -70.3125 663
-179.688 164.062 706
-234.375 132.812 725
226.562 -85.9375 666
179.688 -414.062 754
492.188 -195.312 882
210.938 -101.562 678
-15.625 -39.0625 730
101.562 -367.188 761
-414.062 -125 864
-117.188 218.75 678
101.562 382.812 600
70.3125 375 606
265.625 -101.562 733
46.875 343.75 616
109.375 -351.562 761
273.438 -101.562 730
-382.812 -312.5 1297
-164.062 -101.562 856
343.75 281.25 629
226.562 -414.062 762
-203.125 -117.188 864
-62.5 -101.562 714
-23.4375 289.062 642
-359.375 101.562 925
281.25 -70.3125 661
-304.688 -359.375 1349
101.562 -164.062 878
429.688 -312.5 2598
320.312 -414.062 2701
-414.062 -164.062 896
101.562 -140.625 862
281.25 304.688 623
-156.25 187.5 694
117.188 398.438 591
39.0625 -359.375 809
-476.562 -250 1241
296.875 -78.125 666
312.5 281.25 602
-265.625 -70.3125 835
203.125 -140.625 764
-320.312 -351.562 1343
101.562 -15.625 781
289.062 234.375 623
70.3125 -273.438 807
335.938 -179.688 722
304.688 -226.562 920
46.875 7.8125 746
-320.312 -195.312 1034
62.5 351.562 612
15.625 -156.25 641
-203.125 -70.3125 837
382.812 265.625 634
187.5 -328.125 754
85.9375 375 603
101.562 -101.562 835
-281.25 -375 1376
250 296.875 627
-421.875 304.688 1748
-257.812 -390.625 1392
-367.188 -218.75 973
-15.625 -70.3125 708
281.25 289.062 610
-226.562 -406.25 1415
296.875 -164.062 750
-171.875 171.875 700
-343.75 117.188 915
-437.5 375 1671
-218.75 -140.625 956
15.625 437.5 736
281.25 -85.9375 722
101.562 -187.5 896
250 -140.625 767
62.5 -70.3125 719
226.562 -179.688 723
492.188 398.438 574
-406.25 -171.875 906
273.438 -93.75 727
101.562 -421.875 769
226.562 281.25 616
179.688 335.938 614
210.938 359.375 603
281.25 -257.812 821
273.438 -109.375 736
304.688 -242.188 933
109.375 -453.125 792
70.3125 39.0625 755
273.438 -70.3125 661
109.375 414.062 591
-328.125 -281.25 1034
390.625 -343.75 2659
101.562 -179.688 891
265.625 -85.9375 725
-179.688 -281.25 998
-484.375 23.4375 984
296.875 -179.688 744
-242.188 132.812 728
-296.875 -109.375 860
296.875 -171.875 747
218.75 -171.875 725
242.188 -218.75 720
210.938 -179.688 725
234.375 250 612
101.562 -359.375 761
156.25 -218.75 821
187.5 -210.938 738
375 179.688 672
289.062 187.5 611
320.312 210.938 607
-62.5 -367.188 1322
429.688 -367.188 2541
-195.312 257.812 829
-406.25 -39.0625 882
343.75 -23.4375 778
-359.375 242.188 1586
85.9375 -117.188 706
140.625 -23.4375 785
-195.312 -179.688 1060
-242.188 117.188 733
-140.625 -117.188 750
-101.562 -101.562 741
-359.375 -218.75 987
-414.062 7.8125 898
62.5 46.875 752
132.812 398.438 592
-156.25 -156.25 722
289.062 -62.5 661
-171.875 -414.062 1410
312.5 195.312 607
226.562 -335.938 755
218.75 -281.25 716
203.125 468.75 561
-359.375 -468.75 3064
226.562 195.312 644
-312.5 210.938 864
-414.062 273.438 1785
-93.75 -62.5 764
-203.125 148.438 714
273.438 -312.5 781
-203.125 312.5 805
335.938 15.625 755
-406.25 54.6875 954
-46.875 273.438 652
78.125 359.375 609
-164.062 351.562 787
-257.812 257.812 835
-242.188 109.375 738
46.875 -140.625 666
-132.812 -125 744
-460.938 257.812 1813
171.875 429.688 579
-203.125 -109.375 864
-500 -242.188 1227
132.812 -54.6875 747
93.75 -406.25 773
70.3125 359.375 610
-312.5 54.6875 773
-406.25 117.188 920
234.375 -359.375 757
367.188 210.938 658
-453.125 -109.375 1087
367.188 250 624
-39.0625 273.438 652
-117.188 210.938 680
-117.188 -195.312 682
101.562 -125 847
-468.75 -70.3125 1054
101.562 -148.438 867
-148.438 -132.812 739
54.6875 -140.625 668
-289.062 -109.375 860
-445.312 85.9375 951
-343.75 -335.938 1333
46.875 -46.875 714
85.9375 23.4375 762
-289.062 234.375 851
281.25 250 622
-359.375 -328.125 1317
-250 101.562 742
70.3125 -132.812 694
-382.812 -195.312 943
304.688 -234.375 928
101.562 -312.5 769
-148.438 -117.188 750
-460.938 367.188 1688
-39.0625 -179.688 654
-265.625 -23.4375 813
-164.062 -289.062 1241
250 312.5 620
-101.562 -234.375 682
273.438 -296.875 787
-289.062 -31.25 819
-351.562 -265.625 1004
-7.8125 -31.25 731
218.75 -242.188 716
296.875 46.875 742
109.375 -437.5 773
-375 218.75 1624
-62.5 257.812 658
-148.438 312.5 800
164.062 -351.562 752
218.75 -93.75 667
328.125 -70.3125 664
-179.688 -218.75 1161
125 -39.0625 794
-179.688 -203.125 1050
-359.375 164.062 894
320.312 -320.312 2659
226.562 257.812 613
-85.9375 -23.4375 794
-367.188 -328.125 1317
132.812 -23.4375 785
367.188 179.688 672
289.062 -289.062 805
320.312 265.625 637
-421.875 171.875 1543
156.25 -398.438 754
-343.75 179.688 885
-62.5 265.625 654
-390.625 31.25 889
70.3125 -125 698
203.125 -171.875 744
273.438 -242.188 717
-453.125 -265.625 1250
367.188 273.438 631
109.375 -445.312 783
-429.688 171.875 1926
-46.875 265.625 655
-304.688 218.75 860
-250 109.375 738
289.062 -117.188 739
-421.875 39.0625 964
320.312 -148.438 738
-257.812 -117.188 933
-164.062 -273.438 1219
273.438 -31.25 693
-375 85.9375 933
234.375 335.938 612
-195.312 156.25 710
-414.062 -7.8125 887
31.25 -187.5 647
296.875 -210.938 744
218.75 460.938 565
15.625 -195.312 652
179.688 -304.688 759
367.188 -164.062 713
-398.438 7.8125 882
-382.812 132.812 908
273.438 -226.562 720
-148.438 -156.25 722
-257.812 101.562 742
-351.562 -453.125 3064
-257.812 -62.5 835
54.6875 -343.75 792
-132.812 -210.938 682
62.5 -375 783
468.75 -203.125 896
-148.438 -148.438 738
62.5 -335.938 787
-164.062 -187.5 704
390.625 -62.5 800
54.6875 -320.312 794
179.688 -328.125 754
-335.938 -343.75 1343
-351.562 -234.375 1001
46.875 23.4375 755
-320.312 -109.375 860
-390.625 -304.688 1292
-320.312 46.875 776
-226.562 -187.5 901
-265.625 -109.375 938
359.375 210.938 661
-398.438 23.4375 887
-281.25 78.125 757
210.938 -148.438 728
304.688 242.188 623
78.125 -140.625 690
101.562 -132.812 856
-289.062 70.3125 761
171.875 312.5 594
218.75 273.438 618
-195.312 -78.125 843
-296.875 0 800
234.375 226.562 615
-15.625 -148.438 659
101.562 -164.062 878
39.0625 -218.75 662
-93.75 -54.6875 774
164.062 -359.375 752
257.812 -265.625 698
-382.812 -101.562 869
-210.938 140.625 720
-289.062 -304.688 1031
-414.062 15.625 901
-203.125 -125 1016
445.312 -359.375 2522
-328.125 39.0625 783
70.3125 -296.875 790
-343.75 -265.625 1013
-117.188 -148.438 716
-375 -195.312 962
304.688 -226.562 920
-335.938 226.562 1594
-320.312 -265.625 1038
0 -125 661
-117.188 -203.125 679
-421.875 312.5 1748
359.375 265.625 624
171.875 421.875 581
-281.25 164.062 885
0 304.688 636
54.6875 -351.562 790
-210.938 -117.188 1022
179.688 437.5 575
-109.375 218.75 676
93.75 -195.312 903
101.562 -429.688 771
-54.6875 281.25 650
242.188 -250 706
-468.75 -257.812 1245
-359.375 -234.375 989
-351.562 164.062 887
-93.75 -70.3125 759
54.6875 -335.938 792
390.625 -101.562 827
93.75 -109.375 839
367.188 234.375 634
-195.312 -85.9375 847
289.062 -93.75 725
-101.562 -109.375 733
-265.625 -382.812 1387
-148.438 187.5 694
23.4375 328.125 625
390.625 -125 841
-335.938 -281.25 1028
-234.375 328.125 1489
-226.562 140.625 720
289.062 -125 742
-492.188 7.8125 995
-421.875 -31.25 889
-343.75 218.75 1601
-414.062 7.8125 898
234.375 -210.938 720
-101.562 226.562 674
-421.875 273.438 1794
-93.75 -23.4375 798
-273.438 -398.438 1392
-39.0625 -54.6875 734
-312.5 -210.938 1047
117.188 -445.312 754
-281.25 -226.562 1057
-218.75 -39.0625 819
289.062 -148.438 761
-101.562 -117.188 728
125 -437.5 754
85.9375 -414.062 776
-351.562 171.875 887
203.125 -117.188 733
281.25 218.75 623
265.625 -304.688 778
351.562 257.812 624
195.312 437.5 573
210.938 460.938 565
-460.938 -117.188 1094
-273.438 -109.375 885
296.875 -156.25 754
234.375 -195.312 723
-320.312 195.312 869
-398.438 -171.875 915
-109.375 -226.562 678
-343.75 257.812 1579
-343.75 -109.375 860
195.312 -351.562 752
242.188 273.438 614
140.625 406.25 589
-156.25 -125 873
125 406.25 588
445.312 273.438 627
-406.25 -171.875 906
-445.312 414.062 1624
-351.562 -437.5 3010
-320.312 390.625 1663
-414.062 -7.8125 887
273.438 195.312 614
164.062 281.25 611
-117.188 -187.5 688
250 -257.812 701
156.25 -242.188 794
398.438 265.625 631
-257.812 203.125 860
-304.688 -359.375 1349
-226.562 -148.438 871
-468.75 296.875 1766
31.25 421.875 742
-171.875 -250 1193
-203.125 -70.3125 837
-265.625 210.938 858
289.062 195.312 610
-265.625 -39.0625 823
-203.125 164.062 711
296.875 296.875 602
54.6875 -328.125 792
351.562 -62.5 670
460.938 -351.562 2522
218.75 257.812 614
-312.5 -429.688 3178
195.312 210.938 668
265.625 -265.625 697
-7.8125 304.688 635
-78.125 242.188 666
-320.312 -320.312 1034
101.562 390.625 596
273.438 -117.188 738
-23.4375 304.688 640
-320.312 203.125 869
250 -414.062 773
78.125 -406.25 778
109.375 -335.938 762
93.75 15.625 766
-218.75 140.625 720
226.562 -46.875 663
289.062 250 621
273.438 -218.75 725
226.562 -421.875 767
-93.75 -78.125 752
328.125 -70.3125 664
-257.812 93.75 746
-367.188 -210.938 973
-171.875 -93.75 851
234.375 -164.062 723
218.75 351.562 606
-210.938 -85.9375 849
31.25 -179.688 644
-31.25 117.188 722
218.75 468.75 561
-273.438 -15.625 809
-265.625 203.125 860
-250 -117.188 935
132.812 -367.188 754
359.375 -78.125 672
-335.938 289.062 1785
320.312 304.688 621
468.75 437.5 563
-312.5 203.125 864
234.375 -85.9375 663
203.125 -125 773
-367.188 -15.625 871
218.75 453.125 565
-140.625 -85.9375 774
296.875 -148.438 761
296.875 -203.125 741
-296.875 -414.062 3178
-78.125 250 661
-15.625 289.062 642
-265.625 242.188 841
-367.188 -320.312 1302
-7.8125 -101.562 683
257.812 -367.188 767
-437.5 382.812 1663
-265.625 296.875 1523
-367.188 -85.9375 860
203.125 -203.125 739
-429.688 312.5 1748
-195.312 148.438 714
-140.625 218.75 687
-390.625 15.625 882
46.875 -351.562 800
-390.625 -203.125 935
-296.875 -367.188 1365
234.375 234.375 614
-85.9375 -15.625 794
304.688 -218.75 915
234.375 -429.688 773
-406.25 187.5 1572
296.875 -187.5 742
-101.562 -203.125 671
-156.25 281.25 817
-226.562 125 728
210.938 304.688 595
242.188 210.938 624
210.938 210.938 630
390.625 -132.812 847
281.25 226.562 623
-304.688 -398.438 3120
218.75 -148.438 728
-242.188 -39.0625 823
-117.188 -203.125 679
125 -46.875 798
203.125 -132.812 769
179.688 -296.875 762
-414.062 281.25 1785
468.75 242.188 638
-46.875 -125 688
296.875 -257.812 946
-132.812 375 773
-234.375 -62.5 837
54.6875 351.562 613
-187.5 390.625 1433
70.3125 46.875 752
109.375 382.812 598
304.688 -210.938 741
250 304.688 624
296.875 281.25 606
-335.938 -109.375 858
-148.438 -117.188 750
7.8125 312.5 632
-398.438 -179.688 920
-304.688 -414.062 3120
-328.125 195.312 875
-390.625 -179.688 935
-390.625 -46.875 889
-359.375 -39.0625 880
-132.812 203.125 687
-367.188 -218.75 973
328.125 171.875 614
-304.688 7.8125 796
148.438 437.5 578
476.562 421.875 565
375 -156.25 862
101.562 -179.688 891
-93.75 171.875 698
-117.188 218.75 678
-117.188 -195.312 682
335.938 -125 730
-351.562 -62.5 854
-351.562 257.812 1579
-359.375 -46.875 880
-7.8125 -78.125 700
-148.438 -109.375 860
-195.312 -117.188 867
-179.688 398.438 1421
273.438 -101.562 730
328.125 -328.125 2680
156.25 296.875 611
148.438 429.688 578
281.25 195.312 612
164.062 429.688 577
460.938 445.312 558
226.562 320.312 618
296.875 -195.312 741
210.938 296.875 613
117.188 320.312 622
-445.312 132.812 1489
-187.5 -421.875 1410
328.125 218.75 607
-398.438 46.875 891
15.625 320.312 628
281.25 148.438 625
70.3125 -390.625 778
78.125 -101.562 713
-234.375 -46.875 827
289.062 -250 938
195.312 453.125 566
179.688 -289.062 762
273.438 -210.938 739
85.9375 -93.75 719
-281.25 203.125 860
-390.625 203.125 1616
78.125 -203.125 659
-203.125 -203.125 943
-101.562 148.438 710
7.8125 -15.625 730
-23.4375 -156.25 655
242.188 -226.562 717
-296.875 265.625 1550
203.125 296.875 594
-304.688 -421.875 3208
273.438 -234.375 719
218.75 265.625 615
203.125 312.5 593
-210.938 -414.062 1421
398.438 273.438 628
93.75 -421.875 776
445.312 437.5 560
23.4375 -195.312 650
406.25 -335.938 2659
-382.812 -195.312 943
-62.5 -164.062 671
-296.875 226.562 854
-359.375 156.25 894
-414.062 -15.625 885
273.438 -226.562 720
-359.375 -101.562 867
0 -460.938 2365
-70.3125 250 661
304.688 -78.125 666
296.875 -265.625 951
78.125 -125 706
-210.938 -62.5 835
382.812 -343.75 2680
312.5 195.312 607
164.062 -343.75 754
296.875 -289.062 809
226.562 195.312 644
-46.875 -218.75 667
23.4375 31.25 755
312.5 273.438 608
281.25 210.938 612
78.125 -93.75 719
-70.3125 -15.625 787
54.6875 23.4375 762
-242.188 -125 933
-429.688 31.25 973
-85.9375 -31.25 785
-273.438 289.062 1523
-85.9375 242.188 666
148.438 -15.625 781
-265.625 -218.75 1050
-296.875 62.5 766
23.4375 -7.8125 728
-62.5 -125 697
-7.8125 296.875 637
234.375 343.75 609
-312.5 148.438 894
-273.438 -39.0625 823
250 -335.938 764
-351.562 -31.25 875
304.688 -250 938
375 -78.125 811
-289.062 93.75 754
117.188 -445.312 754
-156.25 187.5 694
164.062 -257.812 781
296.875 -171.875 747
210.938 -109.375 731
273.438 -195.312 742
-351.562 -226.562 1004
-23.4375 -78.125 708
-132.812 -398.438 1392
-203.125 -109.375 864
-406.25 203.125 1601
218.75 -164.062 727
-179.688 -195.312 1054
273.438 -218.75 725
320.312 -62.5 663
148.438 -437.5 747
296.875 -62.5 662
93.75 375 603
132.812 -437.5 750
304.688 -257.812 946
-101.562 -117.188 728
226.562 289.062 619
335.938 23.4375 750
-257.812 -468.75 3365
-265.625 -117.188 860
210.938 -140.625 728
281.25 -273.438 805
-148.438 187.5 694
367.188 -39.0625 785
148.438 304.688 629
171.875 -289.062 766
70.3125 -117.188 701
304.688 -242.188 933
62.5 -367.188 783
242.188 -257.812 706
-140.625 195.312 688
234.375 242.188 613
-320.312 -437.5 3149
85.9375 367.188 606
-23.4375 -39.0625 736
-148.438 203.125 687
-445.312 -429.688 3092
-343.75 -250 1013
-31.25 460.938 730
382.812 187.5 667
-210.938 -93.75 851
-7.8125 -140.625 657
257.812 281.25 616
0 -164.062 643
-398.438 179.688 1557
-343.75 -335.938 1333
-78.125 -250 688
273.438 -398.438 796
234.375 -179.688 723
-414.062 -7.8125 887
-203.125 -101.562 858
-359.375 -62.5 856
78.125 367.188 606
-406.25 -156.25 894
46.875 343.75 616
367.188 -70.3125 672
179.688 -320.312 755
226.562 -156.25 725
257.812 210.938 623
320.312 210.938 607
109.375 390.625 595
296.875 -70.3125 663
265.625 -132.812 778
320.312 39.0625 746
312.5 265.625 611
-140.625 -140.625 738
-320.312 -250 1047
-320.312 39.0625 780
132.812 -46.875 741
-179.688 -171.875 1025
460.938 -46.875 787
-187.5 156.25 710
-234.375 117.188 733
-148.438 -109.375 860
109.375 -210.938 915
-382.812 -101.562 869
-179.688 -62.5 831
-62.5 -367.188 1322
23.4375 320.312 628
273.438 -132.812 776
-320.312 -101.562 867
-226.562 -140.625 956
-109.375 -156.25 704
23.4375 -187.5 646
-312.5 15.625 792
-304.688 -375 1370
-398.438 -164.062 901
273.438 -164.062 759
-78.125 -195.312 664
148.438 15.625 762
-7.8125 -398.438 2467
296.875 -78.125 666
218.75 -93.75 667
-218.75 296.875 813
-445.312 -93.75 1073
-375 -203.125 962
-335.938 -273.438 1031
250 -289.062 778
-179.688 -226.562 1169
234.375 328.125 614
257.812 -210.938 731
31.25 328.125 624
375 187.5 668
304.688 -78.125 666
320.312 203.125 607
-156.25 -109.375 862
70.3125 -382.812 778
-414.062 7.8125 898
-54.6875 -187.5 657
-296.875 -78.125 864
-187.5 -140.625 1013
328.125 250 631
-85.9375 -242.188 686
-125 210.938 682
140.625 -62.5 752
132.812 -445.312 747
320.312 242.188 629
-117.188 -390.625 1354
296.875 -140.625 764
304.688 -203.125 741
-406.25 250 1823
-203.125 140.625 717
-281.25 -109.375 885
304.688 -226.562 920
-101.562 -125 720
-93.75 -78.125 752
187.5 328.125 589
281.25 265.625 620
203.125 -93.75 675
-484.375 -242.188 1227
78.125 -265.625 805
-273.438 -15.625 809
218.75 -304.688 762
-382.812 -242.188 978
304.688 164.062 616
-453.125 -429.688 3064
-351.562 46.875 796
-414.062 234.375 1833
-265.625 93.75 747
335.938 257.812 629
414.062 -375 2579
-179.688 -85.9375 845
-93.75 -70.3125 759
-398.438 -70.3125 867
78.125 -328.125 776
-15.625 -85.9375 698
281.25 -226.562 920
-390.625 -62.5 860
-304.688 70.3125 766
-328.125 -289.062 1034
93.75 -140.625 862
-156.25 179.688 697
-460.938 70.3125 970
23.4375 -195.312 650
296.875 -132.812 764
-390.625 -54.6875 894
15.625 -203.125 655
328.125 -335.938 2680
-460.938 46.875 964
54.6875 343.75 616
7.8125 23.4375 761
78.125 -132.812 698
210.938 -78.125 671
-148.438 -164.062 719
-390.625 -304.688 1292
-367.188 156.25 898
-250 -78.125 841
-242.188 -78.125 845
273.438 234.375 619
62.5 -296.875 798
218.75 296.875 614
-289.062 -390.625 1381
-117.188 -210.938 678
-195.312 320.312 803
125 -359.375 755
328.125 -304.688 2639
328.125 -343.75 2723
398.438 171.875 674
187.5 445.312 570
-23.4375 -171.875 649
-414.062 -15.625 885
109.375 -390.625 761
234.375 203.125 629
101.562 7.8125 769
-203.125 -117.188 864
132.812 -406.25 755
-109.375 -171.875 693
171.875 -414.062 754
390.625 -93.75 819
-484.375 -304.688 2859
-117.188 210.938 680
-335.938 -156.25 878
187.5 -343.75 752
312.5 -265.625 954
164.062 -335.938 754
101.562 -117.188 845
273.438 -179.688 747
-164.062 -265.625 1210
-289.062 -367.188 1365
203.125 218.75 628
-375 -15.625 873
-242.188 -39.0625 823
-281.25 -78.125 903
-367.188 -203.125 978
234.375 -171.875 725
-375 78.125 940
468.75 -203.125 896
-179.688 -148.438 1019
-78.125 -375 1322
-281.25 101.562 750
-273.438 -78.125 906
-85.9375 234.375 670
-31.25 281.25 646
-250 117.188 734
226.562 281.25 616
-398.438 15.625 885
125 328.125 620
460.938 453.125 554
-257.812 -54.6875 833
-250 101.562 742
-335.938 117.188 915
242.188 -179.688 725
203.125 -164.062 749
-398.438 -23.4375 878
-328.125 -171.875 1013
-171.875 -78.125 841
-85.9375 -39.0625 780
-437.5 -437.5 3092
-93.75 -85.9375 746
85.9375 -296.875 781
328.125 -312.5 2659
304.688 -195.312 738
328.125 210.938 609
296.875 -156.25 754
78.125 382.812 603
117.188 390.625 596
234.375 250 612
-398.438 218.75 1663
7.8125 -210.938 659
304.688 -187.5 736
-101.562 -382.812 1343
-218.75 -187.5 913
109.375 -453.125 792
-210.938 -62.5 835
-31.25 -93.75 700
-304.688 -359.375 1349
-351.562 54.6875 805
-109.375 -164.062 697
-265.625 -382.812 1387
-367.188 226.562 1594
85.9375 -289.062 785
343.75 281.25 629
-234.375 -85.9375 849
-164.062 -414.062 1410
-328.125 62.5 776
54.6875 -140.625 668
-234.375 -140.625 869
-265.625 -414.062 3149
-453.125 54.6875 959
320.312 -62.5 663
-375 179.688 1609
242.188 -171.875 723
296.875 -62.5 662
203.125 -335.938 754
-250 312.5 1503
-39.0625 273.438 652
-382.812 -109.375 864
-328.125 -109.375 858
62.5 -304.688 794
-351.562 -453.125 3064
70.3125 46.875 752
210.938 -148.438 728
-335.938 187.5 878
234.375 -304.688 767
-304.688 54.6875 773
70.3125 -390.625 778
226.562 -39.0625 664
-31.25 -46.875 736
-367.188 -320.312 1302
375 -390.625 2598
-289.062 289.062 1529
-62.5 -15.625 781
289.062 -257.812 946
390.625 -382.812 2598
-210.938 -156.25 967
320.312 289.062 628
-414.062 0 901
-328.125 -445.312 3092
101.562 -367.188 761
85.9375 -70.3125 815
210.938 328.125 616
273.438 -148.438 767
-46.875 265.625 655
-125 -148.438 722
93.75 -117.188 845
328.125 23.4375 750
93.75 -421.875 776
7.8125 328.125 627
265.625 -85.9375 725
-281.25 -7.8125 803
171.875 437.5 575
-148.438 -109.375 860
-15.625 296.875 640
-23.4375 -7.8125 761
265.625 187.5 618
62.5 -367.188 783
-312.5 -7.8125 805
-328.125 -70.3125 858
62.5 -85.9375 716
359.375 -171.875 713
-85.9375 -242.188 686
117.188 -226.562 821
-382.812 -70.3125 858
-156.25 -101.562 856
101.562 -414.062 767
195.312 296.875 594
375 218.75 655
-226.562 -406.25 1415
265.625 218.75 621
23.4375 -187.5 646
273.438 -125 778
234.375 -187.5 722
-250 -218.75 1047
70.3125 351.562 612
-406.25 171.875 1543
226.562 351.562 606
-109.375 218.75 676
-179.688 -203.125 1050
15.625 312.5 631
-468.75 39.0625 973
-437.5 93.75 946
-195.312 164.062 708
-62.5 -148.438 684
-296.875 -15.625 809
-406.25 125 923
-414.062 -132.812 867
93.75 -101.562 835
-210.938 -148.438 964
39.0625 0 731
-187.5 -78.125 843
-343.75 -257.812 1013
320.312 -375 2767
304.688 -101.562 731
-46.875 -375 2908
375 195.312 664
-453.125 62.5 959
351.562 -101.562 676
-273.438 -54.6875 833
-125 -125 734
31.25 343.75 619
-179.688 -195.312 1054
296.875 234.375 623
-171.875 171.875 700
-453.125 226.562 1853
101.562 -390.625 762
-273.438 -406.25 3120
179.688 343.75 611
-7.8125 -164.062 644
242.188 328.125 614
304.688 -203.125 741
-125 382.812 767
304.688 -109.375 736
250 -359.375 762
62.5 -210.938 662
-250 -31.25 817
-78.125 242.188 666
-273.438 101.562 747
265.625 -125 774
-226.562 -164.062 880
93.75 -296.875 776
-328.125 234.375 1579
-398.438 -15.625 875
195.312 -117.188 680
109.375 -250 802
250 -101.562 711
-140.625 -117.188 750
85.9375 -398.438 774
-398.438 -117.188 864
304.688 -234.375 928
-382.812 31.25 887
304.688 -218.75 915
125 -445.312 750
-46.875 -78.125 723
46.875 335.938 620
273.438 -171.875 754
-210.938 -171.875 978
234.375 320.312 618
-351.562 226.562 1601
156.25 -406.25 754
-351.562 -460.938 3064
195.312 445.312 571
296.875 -179.688 744
-164.062 171.875 700
-351.562 -242.188 1004
-312.5 -203.125 1038
-500 -234.375 1223
359.375 -85.9375 672
62.5 -359.375 785
-312.5 15.625 792
187.5 437.5 575
-445.312 406.25 1639
54.6875 46.875 752
109.375 -453.125 792
-7.8125 -390.625 2485
-109.375 -179.688 686
-179.688 -85.9375 845
-156.25 -132.812 875
-351.562 250 1579
-265.625 -31.25 817
-31.25 -242.188 682
296.875 -148.438 761
234.375 -281.25 714
-85.9375 117.188 723
85.9375 -109.375 841
-54.6875 257.812 659
-156.25 -148.438 738
-109.375 -171.875 693
296.875 218.75 610
-70.3125 265.625 655
242.188 -93.75 711
265.625 -390.625 774
210.938 453.125 567
250 -70.3125 661
39.0625 -218.75 662
234.375 289.062 616
242.188 -210.938 720
265.625 -289.062 783
101.562 -148.438 867
62.5 351.562 612
148.438 445.312 579
-265.625 187.5 869
-54.6875 -62.5 736
132.812 -304.688 762
-468.75 -7.8125 1001
-148.438 187.5 694
398.438 179.688 671
117.188 -242.188 803
281.25 -39.0625 666
-164.062 -257.812 1197
-46.875 -218.75 667
-62.5 -62.5 742
-210.938 132.812 723
-414.062 -296.875 1283
304.688 -195.312 738
-414.062 -289.062 1273
-257.812 -78.125 835
125 398.438 593
-320.312 23.4375 790
375 273.438 630
-312.5 -296.875 1034
-46.875 273.438 652
-437.5 -460.938 3064
328.125 -62.5 664
-484.375 -296.875 2835
-421.875 320.312 1731
-382.812 -468.75 3064
-390.625 -187.5 935
-500 15.625 992
-257.812 93.75 746
195.312 468.75 565
-328.125 -343.75 1343
-500 0 998
273.438 -156.25 762
-203.125 156.25 711
289.062 281.25 607
78.125 -78.125 727
-148.438 -164.062 719
-117.188 328.125 789
242.188 -164.062 723
210.938 -109.375 731
-437.5 -273.438 1259
-23.4375 289.062 642
-7.8125 15.625 767
85.9375 -140.625 862
-156.25 -281.25 1227
-218.75 -54.6875 831
328.125 -351.562 2744
273.438 -218.75 725
250 -195.312 741
-93.75 -93.75 741
234.375 -289.062 771
78.125 39.0625 755
304.688 -210.938 741
-101.562 -132.812 716
273.438 -226.562 720
-367.188 203.125 1616
218.75 359.375 603
70.3125 382.812 606
-7.8125 -414.062 2450
-398.438 15.625 885
-320.312 31.25 781
-296.875 -218.75 1050
359.375 -93.75 674
54.6875 -210.938 659
-367.188 -78.125 858
-156.25 -125 873
-406.25 -296.875 1283
164.062 421.875 582
335.938 226.562 634
242.188 265.625 613
-281.25 -382.812 1381
-429.688 101.562 938
-156.25 -101.562 856
-218.75 125 728
-218.75 125 731
-117.188 234.375 678
78.125 -382.812 781
-421.875 148.438 1503
343.75 250 629
-226.562 -54.6875 833
-421.875 -7.8125 925
-429.688 351.562 1705
273.438 -195.312 738
-414.062 226.562 1863
226.562 328.125 616
-70.3125 109.375 730
-414.062 -148.438 885
78.125 359.375 611
-265.625 257.812 841
-273.438 304.688 1516
-343.75 304.688 1757
-320.312 39.0625 783
-359.375 -85.9375 864
406.25 265.625 631
-132.812 203.125 687
179.688 335.938 595
296.875 304.688 624
-414.062 0 920
296.875 -70.3125 661
109.375 382.812 599
484.375 -195.312 891
85.9375 31.25 761
-164.062 -101.562 858
296.875 -132.812 769
375 210.938 659
-250 -390.625 1392
-351.562 210.938 1609
-226.562 -140.625 864
109.375 -7.8125 781
242.188 226.562 618
-226.562 -101.562 943
171.875 257.812 611
-382.812 203.125 1616
296.875 -164.062 752
140.625 406.25 589
-101.562 -125 725
-195.312 -93.75 856
70.3125 -289.062 805
234.375 -85.9375 666
320.312 250 619
-195.312 148.438 716
273.438 -187.5 739
-390.625 -85.9375 867
-398.438 7.8125 891
-335.938 -273.438 1013
-164.062 187.5 698
-351.562 -328.125 1322
-414.062 289.062 1776
296.875 -85.9375 725
-93.75 -203.125 674
-406.25 195.312 1601
-140.625 257.812 769
101.562 375 603
-460.938 -257.812 1250
320.312 -273.438 962
-85.9375 -242.188 688
171.875 445.312 575
-406.25 257.812 1813
-312.5 -109.375 856
234.375 -273.438 711
62.5 -140.625 666
-234.375 109.375 738
210.938 -140.625 755
-226.562 117.188 734
-406.25 -164.062 896
93.75 -375 771
62.5 -382.812 796
257.812 -93.75 710
-296.875 -375 1365
23.4375 -203.125 655
31.25 367.188 646
304.688 281.25 608
390.625 -54.6875 796
70.3125 -382.812 785
-328.125 -179.688 1022
-359.375 -156.25 882
-164.062 367.188 1288
-289.062 -93.75 869
382.812 -54.6875 798
304.688 -187.5 738
15.625 -453.125 2381
156.25 -328.125 754
-250 -70.3125 831
-312.5 -289.062 1031
-429.688 359.375 1696
70.3125 -78.125 700
-164.062 -179.688 1063
62.5 -78.125 693
125 -445.312 757
-117.188 -203.125 682
273.438 -210.938 727
-414.062 117.188 938
78.125 -117.188 688
195.312 -335.938 750
-156.25 179.688 698
-250 -31.25 819
328.125 -70.3125 663
304.688 -179.688 741
-296.875 54.6875 773
-218.75 -109.375 946
-265.625 -62.5 896
242.188 -78.125 664
-109.375 -179.688 691
218.75 -101.562 674
-242.188 -93.75 964
-390.625 -171.875 913
109.375 -78.125 821
-187.5 -101.562 856
-93.75 -101.562 739
-390.625 -15.625 875
-320.312 -70.3125 856
-39.0625 -210.938 666
-54.6875 -250 691
-375 -54.6875 862
54.6875 -31.25 707
140.625 -15.625 781
382.812 281.25 628
117.188 -437.5 778
109.375 -70.3125 817
85.9375 -78.125 708
218.75 460.938 565
-273.438 85.9375 754
15.625 -445.312 2415
-273.438 -304.688 1031
-390.625 -31.25 880
-109.375 -187.5 688
-312.5 -93.75 867
296.875 -140.625 766
-281.25 -70.3125 862
-343.75 -257.812 1001
-187.5 -78.125 845
-203.125 -93.75 854
-242.188 -117.188 860
-367.188 -210.938 959
-257.812 -31.25 819
78.125 -273.438 805
-15.625 -390.625 2503
-273.438 -101.562 882
109.375 -31.25 792
-398.438 0 887
0 304.688 637
-406.25 -109.375 864
-312.5 62.5 774
15.625 -476.562 2317
93.75 -320.312 774
-15.625 -15.625 752
-445.312 70.3125 959
-171.875 -234.375 1181
0 -218.75 667
-273.438 -23.4375 817
101.562 -367.188 767
31.25 -39.0625 707
-382.812 -93.75 869
7.8125 312.5 634
78.125 -375 780
343.75 289.062 627
-226.562 -78.125 847
0 -7.8125 747
-289.062 0 802
140.625 -437.5 752
320.312 23.4375 754
-164.062 -171.875 1022
125 -218.75 829
343.75 15.625 757
164.062 414.062 586
328.125 -62.5 662
-85.9375 250 666
-500 23.4375 995
312.5 -242.188 938
125 -54.6875 805
39.0625 -320.312 833
187.5 -328.125 752
109.375 -140.625 864
78.125 367.188 607
-406.25 -31.25 885
-398.438 140.625 1516
-406.25 250 1823
15.625 -156.25 642
218.75 203.125 649
-328.125 -273.438 1025
296.875 -125 771
-312.5 250 1564
-312.5 -54.6875 856
109.375 -46.875 802
-398.438 -148.438 889
-140.625 -140.625 736
218.75 -156.25 752
304.688 -70.3125 661
-265.625 85.9375 754
-171.875 -54.6875 827
-39.0625 289.062 647
-320.312 -54.6875 856
-390.625 -39.0625 882
93.75 23.4375 764
164.062 289.062 608
-85.9375 -46.875 774
109.375 -234.375 819
-93.75 -234.375 684
242.188 -296.875 762
-7.8125 296.875 638
304.688 218.75 609
359.375 -62.5 666
101.562 -351.562 766
-156.25 296.875 809
15.625 -187.5 648
-7.8125 -421.875 2432
382.812 164.062 678
367.188 210.938 659
-117.188 296.875 809
-312.5 210.938 871
304.688 -78.125 661
23.4375 320.312 629
-117.188 210.938 682
-312.5 -351.562 1349
390.625 250 631
281.25 210.938 627
-226.562 -132.812 862
132.812 -312.5 761
382.812 -148.438 701
-156.25 -101.562 858
7.8125 -125 659
-132.812 -54.6875 825
109.375 -132.812 860
46.875 343.75 618
250 -187.5 722
-304.688 -15.625 813
250 -218.75 716
-375 -312.5 1302
39.0625 328.125 624
226.562 257.812 614
328.125 -156.25 736
109.375 -62.5 811
109.375 -101.562 835
93.75 -367.188 769
-312.5 -39.0625 885
312.5 -101.562 731
78.125 -398.438 783
-257.812 -23.4375 815
39.0625 -210.938 661
15.625 320.312 630
-265.625 -406.25 3149
-390.625 -195.312 930
-289.062 -367.188 1370
-375 -171.875 940
-296.875 -62.5 860
0 -132.812 659
109.375 -179.688 894
210.938 -117.188 767
312.5 242.188 621
-429.688 -117.188 1094
164.062 -406.25 752
367.188 257.812 622
-242.188 109.375 739
93.75 -343.75 769
-148.438 -140.625 878
78.125 -125 687
234.375 468.75 561
-390.625 31.25 891
-484.375 -406.25 3010
-359.375 -226.562 973
85.9375 -257.812 813
-195.312 -421.875 1439
382.812 171.875 676
281.25 -70.3125 658
-328.125 -187.5 1025
109.375 -15.625 783
218.75 -195.312 723
-109.375 328.125 790
-132.812 320.312 796
132.812 398.438 593
210.938 -203.125 738
-250 -195.312 1028
-109.375 -187.5 688
-406.25 -148.438 887
-85.9375 140.625 716
171.875 367.188 603
70.3125 -70.3125 707
7.8125 -210.938 662
132.812 -109.375 841
23.4375 367.188 655
109.375 -109.375 841
203.125 -203.125 738
31.25 -320.312 835
109.375 -117.188 849
-156.25 -281.25 1227
-93.75 234.375 672
250 -179.688 722
398.438 -109.375 831
226.562 265.625 614
-234.375 343.75 1470
343.75 265.625 630
-210.938 -414.062 1427
195.312 -429.688 742
109.375 -156.25 875
343.75 7.8125 762
-351.562 -445.312 3064
-453.125 -39.0625 1028
187.5 335.938 594
-62.5 250 663
-171.875 -156.25 1016
281.25 -312.5 776
476.562 414.062 566
-125 218.75 682
109.375 -93.75 827
320.312 296.875 598
273.438 -234.375 717
-117.188 226.562 678
-414.062 -140.625 878
109.375 -187.5 898
-85.9375 234.375 671
-234.375 -398.438 1404
109.375 -39.0625 798
476.562 -203.125 891
-39.0625 -429.688 3120
-195.312 -70.3125 841
156.25 312.5 625
218.75 -132.812 764
-93.75 226.562 675
492.188 406.25 568
7.8125 375 714
-171.875 406.25 1415
-140.625 -125 873
164.062 -398.438 750
15.625 -54.6875 706
-359.375 -210.938 970
101.562 382.812 599
242.188 -85.9375 664
-468.75 -414.062 3010
382.812 179.688 672
-23.4375 -453.125 2365
-351.562 273.438 1794
-109.375 179.688 697
-156.25 -273.438 1219
273.438 203.125 629
304.688 289.062 606
226.562 296.875 609
273.438 -367.188 767
-320.312 23.4375 792
-179.688 -54.6875 827
-304.688 -367.188 1359
351.562 414.062 577
-93.75 -382.812 1343
234.375 257.812 612
-85.9375 -54.6875 771
-304.688 -359.375 1359
-109.375 -195.312 682
-62.5 -367.188 1322
-335.938 46.875 789
-39.0625 -218.75 670
54.6875 -367.188 800
-398.438 -179.688 908
-125 -140.625 733
109.375 -164.062 880
-367.188 187.5 1616
218.75 -164.062 746
-343.75 -242.188 1001
289.062 218.75 623
23.4375 -195.312 652
226.562 -171.875 723
-218.75 -171.875 894
414.062 -304.688 2598
-171.875 164.062 707
-23.4375 281.25 647
117.188 -453.125 789
250 -203.125 717
-406.25 -250 1227
-109.375 351.562 781
195.312 -359.375 749
117.188 -218.75 821
54.6875 39.0625 757
-257.812 117.188 741
-78.125 -250 691
343.75 304.688 620
39.0625 31.25 750
367.188 -140.625 701
273.438 -304.688 773
328.125 -70.3125 663
117.188 -210.938 918
-179.688 164.062 708
70.3125 359.375 611
164.062 -421.875 749
304.688 -164.062 749
39.0625 335.938 621
7.8125 304.688 636
-164.062 -93.75 851
62.5 -359.375 790
-179.688 -46.875 823
304.688 -70.3125 661
70.3125 -109.375 687
-476.562 -421.875 3010
-203.125 148.438 719
117.188 -445.312 783
-390.625 62.5 951
-367.188 195.312 1616
-31.25 -156.25 662
-218.75 -148.438 873
-359.375 -93.75 867
101.562 -242.188 815
-156.25 351.562 785
109.375 -132.812 860
-234.375 -85.9375 970
-101.562 -226.562 680
109.375 -125 851
85.9375 -101.562 691
-406.25 -453.125 3149
-289.062 273.438 1543
-390.625 -46.875 887
-265.625 -70.3125 901
179.688 -421.875 749
335.938 304.688 620
195.312 460.938 566
210.938 -125 764
296.875 -117.188 741
70.3125 -382.812 785
109.375 -148.438 871
70.3125 -85.9375 698
218.75 -101.562 674
312.5 156.25 620
226.562 -281.25 714
-203.125 140.625 722
-351.562 -46.875 856
-46.875 265.625 655
140.625 -281.25 767
-421.875 328.125 1731
-15.625 421.875 746
250 -164.062 723
-117.188 390.625 771
-85.9375 187.5 691
-312.5 -85.9375 862
-109.375 421.875 1343
85.9375 367.188 607
-406.25 -125 867
-93.75 -93.75 744
125 -375 755
109.375 -171.875 887
-484.375 -242.188 1232
-304.688 109.375 839
0 -468.75 2349
62.5 -312.5 800
-312.5 46.875 780
54.6875 421.875 693
-226.562 -46.875 831
93.75 367.188 608
296.875 -296.875 790
-398.438 7.8125 891
234.375 187.5 642
-406.25 -23.4375 885
187.5 445.312 572
-46.875 -250 691
312.5 -242.188 938
-234.375 -117.188 935
195.312 -328.125 752
203.125 -304.688 755
312.5 -234.375 928
210.938 312.5 590
281.25 -234.375 716
0 320.312 634
109.375 -140.625 864
-250 195.312 867
-218.75 140.625 722
226.562 -164.062 723
-46.875 -210.938 666
-281.25 -7.8125 807
281.25 -109.375 736
62.5 -351.562 792
242.188 -125 725
-203.125 -164.062 975
312.5 -226.562 923
-140.625 -140.625 736
351.562 281.25 629
382.812 -250 933
-164.062 343.75 792
132.812 390.625 595
-453.125 -460.938 2984
-375 210.938 1616
46.875 -148.438 640
-132.812 -117.188 747
62.5 23.4375 759
-101.562 218.75 679
226.562 281.25 614
-398.438 62.5 951
-328.125 54.6875 783
-421.875 -39.0625 935
-281.25 78.125 761
-187.5 335.938 796
-382.812 -179.688 930
-421.875 -453.125 3120
-304.688 -460.938 3120
250 -218.75 716
39.0625 39.0625 755
218.75 265.625 621
-500 -406.25 2859
125 398.438 593
226.562 250 616
-328.125 -343.75 1343
-351.562 -328.125 1322
-39.0625 398.438 755
484.375 421.875 563
242.188 187.5 642
304.688 296.875 602
39.0625 460.938 727
-406.25 257.812 1813
156.25 414.062 586
-164.062 171.875 703
289.062 -109.375 736
382.812 -78.125 670
-335.938 -257.812 1007
343.75 -109.375 739
54.6875 343.75 618
242.188 -273.438 710
250 273.438 611
257.812 -250 700
-398.438 218.75 1863
179.688 273.438 610
-398.438 164.062 1529
15.625 -468.75 2349
226.562 -257.812 713
-257.812 -23.4375 815
453.125 460.938 550
-7.8125 -62.5 711
257.812 -85.9375 711
39.0625 437.5 734
-101.562 -132.812 719
-406.25 242.188 1833
-359.375 54.6875 887
-226.562 -23.4375 813
-93.75 -101.562 739
-226.562 125 731
242.188 -281.25 710
109.375 -156.25 875
210.938 218.75 664
-367.188 218.75 1601
-296.875 7.8125 798
-335.938 226.562 1594
320.312 242.188 620
78.125 -132.812 684
242.188 -359.375 754
-304.688 -54.6875 860
156.25 -101.562 704
-164.062 -250 1197
70.3125 -359.375 785
109.375 -179.688 894
-421.875 156.25 1523
7.8125 -132.812 657
375 -70.3125 670
-101.562 -148.438 708
-320.312 -70.3125 856
-39.0625 -117.188 694
-273.438 -109.375 858
93.75 -250 813
226.562 -328.125 752
171.875 -351.562 749
-109.375 -187.5 688
70.3125 -375 783
-445.312 359.375 1696
-15.625 289.062 646
281.25 -242.188 710
273.438 226.562 616
320.312 -54.6875 659
-195.312 -70.3125 841
234.375 -312.5 755
-171.875 -218.75 1165
468.75 -250 2485
-382.812 -54.6875 898
226.562 -93.75 668
-492.188 -234.375 1227
-312.5 -351.562 1349
0 -101.562 682
-164.062 -93.75 851
390.625 -85.9375 672
-375 -46.875 862
78.125 -70.3125 711
429.688 -226.562 915
78.125 -109.375 691
101.562 15.625 767
-257.812 -101.562 935
281.25 -93.75 728
-31.25 281.25 647
-289.062 62.5 767
351.562 312.5 616
39.0625 -320.312 833
-23.4375 -156.25 658
390.625 265.625 634
296.875 -62.5 659
70.3125 -289.062 805
-414.062 0 920
304.688 46.875 744
304.688 -179.688 741
-398.438 -117.188 864
-164.062 -414.062 1410
-203.125 -101.562 858
-15.625 -171.875 649
210.938 445.312 570
359.375 257.812 624
-304.688 -101.562 862
242.188 343.75 609
390.625 -140.625 700
187.5 -289.062 761
335.938 -70.3125 662
156.25 304.688 629
-398.438 226.562 1853
320.312 -414.062 2701
312.5 -218.75 915
-179.688 156.25 710
109.375 -390.625 766
-140.625 -132.812 742
242.188 265.625 611
218.75 -179.688 738
-375 -23.4375 873
-85.9375 -62.5 764
210.938 -132.812 759
15.625 312.5 632
-203.125 -70.3125 841
-78.125 359.375 774
-109.375 -210.938 676
-289.062 70.3125 762
-281.25 -414.062 3178
281.25 -218.75 719
7.8125 -289.062 1227
101.562 -171.875 887
328.125 320.312 614
-390.625 351.562 1696
164.062 437.5 577
281.25 -101.562 733
179.688 437.5 576
109.375 -367.188 762
437.5 -218.75 908
-296.875 -414.062 3149
-179.688 343.75 794
-398.438 -164.062 901
-382.812 -46.875 891
-203.125 312.5 813
62.5 -343.75 794
-234.375 117.188 734
375 210.938 659
-93.75 -171.875 687
218.75 -203.125 720
-367.188 -320.312 1307
234.375 -148.438 723
398.438 -117.188 837
-414.062 179.688 1550
-414.062 234.375 1843
257.812 312.5 621
359.375 -62.5 666
-437.5 398.438 1647
-429.688 -437.5 3064
93.75 -281.25 787
-85.9375 -70.3125 757
304.688 -171.875 744
289.062 226.562 620
-320.312 31.25 787
0 -31.25 728
-414.062 296.875 1757
109.375 -429.688 778
-406.25 265.625 1794
-398.438 -171.875 906
-218.75 -54.6875 833
210.938 -117.188 767
-250 -62.5 831
85.9375 -320.312 781
-156.25 179.688 698
-39.0625 -179.688 657
-437.5 70.3125 954
218.75 296.875 609
-234.375 -70.3125 843
-257.812 -70.3125 908
-78.125 265.625 662
132.812 -398.438 755
-140.625 -125 873
226.562 289.062 611
187.5 -304.688 755
101.562 -406.25 771
-390.625 -304.688 1297
-117.188 210.938 682
0 -70.3125 703
140.625 -398.438 754
265.625 -46.875 661
250 320.312 618
-31.25 -218.75 670
328.125 39.0625 746
23.4375 -187.5 648
242.188 -78.125 664
-210.938 -273.438 1025
-273.438 78.125 759
-93.75 -109.375 731
-429.688 78.125 948
-117.188 273.438 734
171.875 -421.875 749
304.688 -156.25 752
187.5 -328.125 752
-226.562 117.188 734
-132.812 210.938 683
250 -250 707
-421.875 -281.25 1268
203.125 -414.062 754
375 -125 688
-70.3125 -250 693
-382.812 -187.5 930
468.75 445.312 558
351.562 -23.4375 778
78.125 -117.188 688
281.25 -296.875 780
78.125 359.375 611
-437.5 -273.438 1264
335.938 328.125 611
-492.188 -398.438 2859
-242.188 -39.0625 825
304.688 -187.5 738
-406.25 23.4375 901
367.188 -125 691
62.5 -335.938 794
148.438 -210.938 827
-242.188 -218.75 1047
187.5 -62.5 684
382.812 171.875 676
125 -382.812 757
289.062 -265.625 803
-398.438 -39.0625 885
296.875 -125 771
281.25 -117.188 771
46.875 335.938 621
-140.625 -109.375 862
226.562 -125 728
31.25 320.312 628
234.375 -85.9375 666
-101.562 226.562 675
-328.125 -164.062 1013
-62.5 -156.25 678
-375 -312.5 1302
39.0625 -218.75 666
-195.312 -117.188 1016
109.375 7.8125 771
203.125 -328.125 752
-226.562 281.25 823
179.688 -164.062 730
117.188 -453.125 789
460.938 -273.438 2522
-109.375 -203.125 676
304.688 -257.812 948
-171.875 -85.9375 849
-78.125 -195.312 667
242.188 -390.625 757
156.25 421.875 583
390.625 289.062 622
-335.938 -335.938 1333
328.125 210.938 603
-179.688 -296.875 1013
-429.688 367.188 1688
-54.6875 -7.8125 785
78.125 -273.438 805
312.5 46.875 744
156.25 -382.812 750
70.3125 -375 783
-406.25 101.562 930
-7.8125 -148.438 655
250 -375 755
109.375 -164.062 880
-226.562 -46.875 831
351.562 -7.8125 769
265.625 257.812 610
398.438 179.688 671
328.125 31.25 750
-125 203.125 687
-406.25 -23.4375 885
-39.0625 -218.75 670
-421.875 85.9375 938
-93.75 226.562 675
-250 -125 860
-171.875 -210.938 1050
-78.125 -23.4375 789
273.438 281.25 615
-320.312 70.3125 783
-210.938 132.812 725
-226.562 -54.6875 833
265.625 312.5 621
-140.625 -148.438 728
312.5 -78.125 661
-445.312 -265.625 1255
-125 -125 741
-343.75 -335.938 1333
382.812 187.5 668
-367.188 -78.125 858
101.562 -195.312 903
343.75 -7.8125 771
-234.375 -39.0625 823
-156.25 -265.625 1210
-78.125 -242.188 688
-273.438 -375 1376
-390.625 140.625 913
-164.062 195.312 698
-148.438 -132.812 878
-226.562 164.062 767
-140.625 195.312 693
93.75 -414.062 781
312.5 -226.562 923
-195.312 320.312 807
265.625 226.562 615
-109.375 -132.812 725
-265.625 -15.625 811
31.25 -70.3125 684
-414.062 -289.062 1278
-54.6875 257.812 659
-390.625 15.625 885
132.812 406.25 589
23.4375 335.938 623
-437.5 406.25 1639
-328.125 -281.25 1025
234.375 -187.5 722
-359.375 234.375 1616
-335.938 195.312 889
70.3125 -39.0625 728
359.375 210.938 607
-335.938 -265.625 1013
62.5 -351.562 792
-109.375 -195.312 682
31.25 -195.312 650
218.75 7.8125 738
132.812 -335.938 757
-132.812 406.25 1410
250 -234.375 714
-304.688 15.625 796
312.5 -218.75 915
195.312 -164.062 730
-54.6875 -187.5 661
0 -78.125 698
234.375 289.062 612
101.562 -140.625 864
304.688 -164.062 749
-390.625 -132.812 867
492.188 -203.125 887
-140.625 -156.25 719
281.25 -125 774
-171.875 335.938 794
-226.562 -85.9375 847
-398.438 -140.625 880
-312.5 -85.9375 862
117.188 -437.5 778
234.375 195.312 642
367.188 -70.3125 668
23.4375 453.125 730
46.875 -195.312 650
-257.812 93.75 750
281.25 -218.75 719
179.688 453.125 571
85.9375 -85.9375 701
164.062 -296.875 761
93.75 -265.625 798
-7.8125 -445.312 2381
250 -335.938 757
296.875 -78.125 661
78.125 46.875 752
-429.688 93.75 943
203.125 -343.75 750
210.938 453.125 568
-390.625 -117.188 864
281.25 289.062 616
101.562 -109.375 843
-179.688 -93.75 854
70.3125 351.562 613
78.125 -296.875 790
-375 -101.562 871
31.25 -7.8125 727
-445.312 382.812 1671
-406.25 187.5 1557
-421.875 -445.312 3120
296.875 -93.75 727
210.938 -125 764
-164.062 -257.812 987
85.9375 -406.25 781
-242.188 281.25 831
164.062 421.875 583
-210.938 156.25 722
-203.125 343.75 1477
234.375 351.562 606
-31.25 -85.9375 713
320.312 156.25 615
179.688 281.25 609
304.688 -46.875 659
-171.875 164.062 707
328.125 -62.5 662
140.625 -46.875 798
304.688 -62.5 659
-171.875 351.562 794
-23.4375 281.25 647
312.5 250 620
62.5 -328.125 794
312.5 -210.938 742
304.688 -70.3125 661
70.3125 -296.875 798
-234.375 -398.438 1404
414.062 -234.375 923
0 304.688 637
257.812 -195.312 722
-460.938 78.125 1376
-203.125 -62.5 837
-257.812 85.9375 754
-359.375 -218.75 967
187.5 437.5 576
-343.75 -250 998
343.75 226.562 629
-390.625 187.5 1579
101.562 -421.875 776
335.938 -328.125 2701
-445.312 62.5 962
-15.625 -93.75 696
-148.438 210.938 693
-210.938 -140.625 959
70.3125 -312.5 792
101.562 390.625 598
-367.188 -195.312 959
-187.5 -226.562 954
-195.312 -125 1013
78.125 -390.625 783
62.5 -320.312 796
-171.875 -85.9375 849
23.4375 -93.75 674
304.688 -78.125 661
117.188 -445.312 783
101.562 375 603
257.812 -281.25 773
304.688 -148.438 754
93.75 -62.5 725
-187.5 156.25 710
-70.3125 250 663
296.875 195.312 611
250 -242.188 710
335.938 -70.3125 662
335.938 -46.875 663
125 -343.75 759
335.938 -54.6875 662
-390.625 -179.688 918
343.75 23.4375 752
-171.875 -203.125 1050
281.25 -210.938 727
320.312 265.625 613
195.312 0 757
117.188 -375 761
31.25 -187.5 647
140.625 -210.938 833
257.812 -109.375 710
-164.062 -93.75 851
-54.6875 -164.062 670
-226.562 289.062 821
-234.375 109.375 738
-109.375 -203.125 676
85.9375 359.375 610
117.188 -335.938 762
-375 359.375 1688
226.562 -93.75 668
375 171.875 675
-23.4375 -46.875 733
-250 -109.375 935
125 390.625 597
210.938 -171.875 738
-101.562 -164.062 698
-304.688 -210.938 1047
-62.5 289.062 674
-203.125 -117.188 1019
132.812 398.438 593
39.0625 328.125 624
-156.25 375 1312
476.562 437.5 561
328.125 242.188 622
85.9375 39.0625 755
109.375 -328.125 767
-7.8125 -429.688 2415
-421.875 335.938 1713
15.625 328.125 628
-140.625 -132.812 742
