ply
format ascii 1.0
comment Created by Open3D
element vertex 2379
property double x
property double y
property double z
end_header
234.375 132.812 708
195.312 -148.438 825
-171.875 -132.812 691
164.062 234.375 700
-273.438 -414.062 2958
-140.625 -140.625 694
101.562 -93.75 747
320.312 109.375 704
-156.25 -195.312 1004
-367.188 93.75 860
-156.25 -62.5 717
-210.938 406.25 800
39.0625 398.438 792
-140.625 -265.625 837
250 351.562 650
-62.5 -304.688 815
203.125 335.938 655
-156.25 -62.5 717
46.875 -218.75 807
203.125 171.875 706
-125 -62.5 714
-78.125 -414.062 803
-320.312 234.375 731
-203.125 -156.25 710
31.25 -203.125 809
-242.188 -78.125 717
-343.75 54.6875 825
265.625 70.3125 713
132.812 328.125 663
187.5 -125 750
453.125 375 623
-39.0625 23.4375 762
359.375 359.375 635
109.375 -265.625 803
-242.188 -109.375 697
179.688 -179.688 827
39.0625 -179.688 805
234.375 343.75 652
-203.125 -210.938 1250
-460.938 -242.188 1328
-187.5 -125 693
0 -351.562 833
-156.25 -375 862
-257.812 -62.5 903
0 -171.875 967
125 -203.125 835
367.188 -234.375 1010
78.125 -203.125 802
-195.312 -156.25 710
156.25 -359.375 2835
296.875 -242.188 1016
226.562 343.75 652
140.625 335.938 666
-171.875 359.375 813
-250 -23.4375 875
-70.3125 304.688 704
-414.062 125 823
-500 -414.062 2170
-226.562 -101.562 701
-140.625 -156.25 704
-437.5 -328.125 2317
-335.938 226.562 733
351.562 7.8125 815
78.125 -210.938 802
242.188 -250 1028
-156.25 -382.812 873
-226.562 -156.25 711
281.25 179.688 700
164.062 -187.5 833
31.25 -195.312 809
-7.8125 304.688 684
187.5 -257.812 1038
265.625 164.062 694
0 -375 839
-273.438 257.812 739
-78.125 -93.75 691
78.125 -226.562 802
460.938 242.188 676
-234.375 23.4375 841
335.938 351.562 637
39.0625 -265.625 794
-148.438 -62.5 716
343.75 78.125 774
140.625 343.75 674
-132.812 -132.812 690
-164.062 -195.312 1004
-210.938 421.875 1189
15.625 -250 851
-31.25 312.5 697
132.812 -203.125 837
-101.562 78.125 796
179.688 195.312 722
-289.062 421.875 1019
-54.6875 -85.9375 693
-70.3125 -117.188 682
78.125 -101.562 752
-93.75 289.062 697
218.75 343.75 654
429.688 421.875 671
226.562 140.625 706
-242.188 -101.562 704
70.3125 320.312 672
-70.3125 -85.9375 694
-171.875 -156.25 706
-414.062 -93.75 933
-320.312 375 823
-414.062 -367.188 2241
-171.875 -93.75 698
-351.562 218.75 734
-164.062 -265.625 851
-85.9375 39.0625 778
304.688 179.688 700
-328.125 375 825
-195.312 -125 693
171.875 132.812 754
171.875 250 694
-468.75 265.625 869
-234.375 -78.125 716
-351.562 85.9375 805
-210.938 -125 696
-203.125 -242.188 2789
156.25 328.125 662
-203.125 -125 694
-398.438 -281.25 2398
-234.375 -156.25 710
-203.125 265.625 711
-218.75 -156.25 711
-312.5 421.875 1022
39.0625 -242.188 805
-375 218.75 741
93.75 -109.375 749
70.3125 -93.75 757
-195.312 46.875 803
15.625 -296.875 833
140.625 328.125 662
460.938 -312.5 2618
328.125 351.562 638
460.938 375 622
-101.562 -171.875 716
398.438 367.188 630
-468.75 328.125 851
460.938 31.25 794
-320.312 -226.562 1283
437.5 398.438 642
-148.438 -78.125 707
-257.812 250 722
234.375 210.938 686
-242.188 0 856
-70.3125 -70.3125 704
-265.625 -218.75 1268
-289.062 -437.5 2859
-93.75 -85.9375 697
-500 101.562 803
328.125 171.875 691
-54.6875 54.6875 787
-445.312 -359.375 2226
-296.875 -453.125 2812
453.125 -85.9375 873
-367.188 7.8125 833
-187.5 -156.25 708
-421.875 -85.9375 995
-265.625 -78.125 908
46.875 -234.375 800
-414.062 -109.375 946
-117.188 78.125 800
273.438 164.062 697
0 -359.375 835
460.938 218.75 690
7.8125 -312.5 829
-390.625 -257.812 2467
187.5 148.438 746
31.25 -187.5 805
210.938 195.312 697
-328.125 31.25 839
54.6875 -195.312 811
460.938 70.3125 769
257.812 109.375 707
23.4375 -359.375 845
-429.688 -398.438 2170
265.625 343.75 647
312.5 351.562 641
132.812 -140.625 825
7.8125 320.312 693
-93.75 296.875 704
-132.812 429.688 790
-179.688 398.438 792
85.9375 320.312 670
320.312 359.375 641
187.5 -164.062 827
-414.062 85.9375 813
-179.688 -117.188 691
-390.625 343.75 829
359.375 429.688 704
171.875 328.125 658
460.938 234.375 680
195.312 -351.562 2812
195.312 -250 1028
-312.5 234.375 728
164.062 -125 813
460.938 273.438 662
-382.812 109.375 841
210.938 140.625 746
210.938 78.125 781
15.625 -234.375 860
-421.875 195.312 815
-328.125 -226.562 1283
23.4375 -226.562 875
-156.25 -265.625 843
-210.938 -257.812 2812
-390.625 351.562 833
46.875 -242.188 800
210.938 109.375 723
195.312 265.625 684
78.125 -234.375 796
-70.3125 -62.5 710
-414.062 93.75 811
203.125 -351.562 2812
-156.25 -140.625 696
125 328.125 666
-210.938 -70.3125 719
312.5 -335.938 2723
351.562 359.375 636
242.188 351.562 652
31.25 -343.75 847
-437.5 296.875 849
-460.938 398.438 1458
93.75 328.125 672
-148.438 -140.625 694
85.9375 328.125 676
15.625 -367.188 843
320.312 -242.188 1016
281.25 421.875 719
-281.25 250 733
164.062 140.625 749
-367.188 226.562 747
335.938 187.5 714
101.562 -265.625 803
218.75 226.562 676
-46.875 -31.25 730
218.75 210.938 693
156.25 -257.812 1038
-203.125 -101.562 698
148.438 -195.312 837
-382.812 210.938 742
-179.688 -218.75 1031
-195.312 -101.562 697
312.5 359.375 641
-148.438 -296.875 835
148.438 -257.812 1041
171.875 257.812 690
-31.25 -398.438 821
-484.375 -343.75 3178
-453.125 234.375 823
343.75 359.375 636
-171.875 -7.8125 757
156.25 -156.25 851
78.125 -195.312 802
164.062 335.938 661
437.5 359.375 625
-351.562 406.25 1034
171.875 -109.375 744
-117.188 281.25 697
-421.875 109.375 803
453.125 -171.875 940
15.625 -140.625 794
-281.25 -398.438 2984
39.0625 -140.625 776
39.0625 -7.8125 841
-85.9375 -179.688 716
-257.812 -46.875 891
62.5 -179.688 809
367.188 -226.562 1001
46.875 -250 794
39.0625 -234.375 807
-125 78.125 802
70.3125 406.25 785
203.125 265.625 683
-156.25 367.188 807
335.938 382.812 657
-54.6875 -78.125 698
-78.125 -54.6875 714
78.125 -187.5 803
460.938 62.5 773
-304.688 250 742
-93.75 46.875 787
-195.312 -117.188 693
-390.625 -234.375 1307
7.8125 -343.75 833
453.125 367.188 623
265.625 -242.188 1016
78.125 320.312 671
31.25 -265.625 798
-78.125 296.875 701
320.312 -234.375 1010
-453.125 -382.812 2226
-101.562 -23.4375 736
31.25 -179.688 805
62.5 -242.188 796
-312.5 242.188 739
-203.125 -117.188 694
289.062 101.562 698
210.938 265.625 683
-265.625 -70.3125 908
421.875 359.375 628
-39.0625 304.688 693
-148.438 -156.25 704
-85.9375 382.812 800
-164.062 -156.25 706
-273.438 -101.562 1141
-78.125 -101.562 686
265.625 359.375 652
-468.75 93.75 805
-125 281.25 698
-140.625 281.25 707
203.125 93.75 774
460.938 187.5 704
-203.125 -62.5 722
-93.75 -250 829
-62.5 23.4375 766
187.5 234.375 700
-171.875 273.438 707
109.375 -93.75 747
-421.875 265.625 867
-335.938 39.0625 1022
70.3125 -140.625 821
273.438 179.688 698
85.9375 -125 755
62.5 320.312 672
242.188 250 664
78.125 -218.75 802
109.375 -101.562 747
0 320.312 698
406.25 437.5 697
-250 265.625 736
46.875 -15.625 843
-54.6875 -304.688 815
-78.125 -93.75 691
-62.5 -312.5 813
-203.125 351.562 817
39.0625 328.125 690
-226.562 54.6875 821
312.5 -242.188 1019
15.625 -250 851
-132.812 -156.25 704
-164.062 23.4375 778
273.438 195.312 698
304.688 156.25 706
39.0625 7.8125 829
-203.125 398.438 796
-156.25 -187.5 1001
-250 -23.4375 875
-203.125 23.4375 787
-234.375 -101.562 703
-414.062 -85.9375 928
187.5 343.75 661
132.812 7.8125 827
101.562 15.625 823
-148.438 -39.0625 733
203.125 -250 1028
-390.625 -23.4375 851
-117.188 289.062 707
46.875 -234.375 800
-78.125 70.3125 802
-7.8125 -375 837
179.688 125 723
-218.75 265.625 719
-171.875 93.75 794
39.0625 320.312 679
-132.812 -234.375 851
460.938 125 736
453.125 382.812 625
-367.188 234.375 755
-78.125 -31.25 730
453.125 -54.6875 849
-343.75 234.375 742
-54.6875 -70.3125 703
39.0625 -320.312 851
-234.375 -31.25 747
304.688 359.375 642
-460.938 93.75 805
390.625 367.188 631
460.938 179.688 708
-85.9375 -226.562 841
460.938 93.75 754
-390.625 210.938 746
-289.062 -390.625 2984
78.125 390.625 757
429.688 359.375 627
250 359.375 657
460.938 101.562 750
210.938 -257.812 1041
406.25 375 630
23.4375 312.5 680
195.312 -117.188 750
46.875 328.125 687
-125 -70.3125 710
-460.938 101.562 802
7.8125 -242.188 851
375 -226.562 1004
265.625 117.188 710
-500 -39.0625 896
414.062 -218.75 989
460.938 117.188 741
-226.562 257.812 716
-453.125 78.125 811
93.75 15.625 823
460.938 171.875 714
460.938 78.125 764
-289.062 -445.312 2835
-156.25 -156.25 704
-375 -15.625 847
-140.625 -15.625 749
-187.5 78.125 803
-23.4375 304.688 688
-406.25 -15.625 849
-492.188 93.75 807
-335.938 242.188 749
-234.375 343.75 821
-39.0625 312.5 700
31.25 398.438 789
-156.25 -23.4375 742
23.4375 -203.125 889
453.125 -39.0625 839
78.125 -203.125 802
-414.062 179.688 817
453.125 -195.312 967
132.812 -109.375 742
265.625 132.812 706
-187.5 -117.188 691
39.0625 -148.438 781
-109.375 -195.312 878
460.938 85.9375 759
-171.875 367.188 807
250 109.375 722
-296.875 414.062 1010
273.438 117.188 706
453.125 -164.062 935
-62.5 7.8125 752
-304.688 406.25 992
-265.625 335.938 827
-210.938 -156.25 710
-429.688 78.125 817
-46.875 70.3125 796
-265.625 -70.3125 908
46.875 -140.625 774
460.938 -109.375 889
46.875 -101.562 767
-195.312 -148.438 704
85.9375 -132.812 809
-351.562 226.562 738
390.625 453.125 747
-164.062 -250 860
-156.25 -289.062 841
-148.438 78.125 802
-234.375 31.25 837
187.5 351.562 667
195.312 148.438 746
15.625 312.5 682
39.0625 -265.625 794
0 312.5 687
-234.375 257.812 719
257.812 343.75 647
109.375 -78.125 750
-468.75 140.625 858
234.375 171.875 696
179.688 -265.625 1047
85.9375 335.938 683
-445.312 -54.6875 995
195.312 421.875 771
-289.062 242.188 725
-7.8125 390.625 796
210.938 273.438 680
242.188 140.625 700
-179.688 421.875 794
-273.438 -93.75 1134
460.938 132.812 733
70.3125 -164.062 807
250 203.125 688
15.625 -156.25 800
-46.875 -390.625 813
-140.625 -39.0625 733
-320.312 7.8125 1050
-218.75 -85.9375 710
-484.375 218.75 817
-171.875 -156.25 706
-382.812 -257.812 2450
-500 164.062 813
359.375 -234.375 1010
-15.625 304.688 686
109.375 328.125 667
-54.6875 296.875 690
-203.125 -85.9375 707
-171.875 -117.188 691
-429.688 70.3125 819
453.125 -187.5 962
-46.875 -15.625 739
-468.75 85.9375 811
-148.438 -140.625 694
132.812 -93.75 742
-351.562 296.875 849
164.062 421.875 774
-140.625 -156.25 704
-93.75 -54.6875 714
-406.25 171.875 755
-78.125 -7.8125 742
-140.625 -156.25 704
-257.812 -85.9375 918
-78.125 -304.688 815
-62.5 -414.062 809
-78.125 -296.875 817
31.25 -281.25 847
281.25 351.562 644
70.3125 -93.75 757
320.312 367.188 644
179.688 148.438 746
101.562 -195.312 829
70.3125 -148.438 847
-164.062 429.688 800
-359.375 406.25 1031
-148.438 289.062 720
23.4375 -171.875 803
-367.188 7.8125 833
-414.062 203.125 747
-421.875 -375 2212
-382.812 398.438 1044
398.438 359.375 630
46.875 -132.812 767
-398.438 0 843
117.188 328.125 666
-414.062 -78.125 925
-257.812 -218.75 1264
-257.812 250 722
234.375 187.5 698
-476.562 273.438 862
-429.688 -460.938 2103
195.312 234.375 698
39.0625 -109.375 776
-445.312 375 1067
-281.25 242.188 722
195.312 -250 1028
195.312 -250 1028
23.4375 -210.938 889
-85.9375 -218.75 847
0 -250 843
93.75 -125 807
-187.5 273.438 716
-70.3125 -78.125 700
289.062 78.125 701
-429.688 -140.625 978
-101.562 289.062 700
-62.5 -117.188 680
-343.75 281.25 809
460.938 195.312 700
46.875 -226.562 802
-273.438 -70.3125 903
414.062 -320.312 2639
-414.062 -101.562 946
-218.75 257.812 714
-70.3125 -179.688 714
-179.688 -39.0625 736
179.688 343.75 662
-125 -39.0625 730
-242.188 -39.0625 742
-421.875 -70.3125 1001
312.5 -234.375 1013
54.6875 320.312 675
-453.125 -140.625 978
265.625 70.3125 713
-296.875 -445.312 2835
-406.25 46.875 815
-203.125 -210.938 1250
-265.625 250 723
335.938 359.375 637
476.562 46.875 781
-179.688 -281.25 862
-46.875 -250 827
257.812 171.875 694
-187.5 -140.625 700
-164.062 -39.0625 733
-101.562 -257.812 827
445.312 367.188 624
445.312 -148.438 925
-78.125 54.6875 790
93.75 -335.938 2933
234.375 351.562 654
-125 -15.625 747
148.438 -257.812 1041
195.312 335.938 657
-164.062 273.438 704
156.25 335.938 663
-210.938 62.5 817
226.562 210.938 688
15.625 -132.812 794
-226.562 -156.25 711
257.812 117.188 716
-359.375 78.125 992
187.5 171.875 730
-367.188 359.375 829
-460.938 242.188 829
-156.25 273.438 703
195.312 117.188 723
70.3125 -132.812 755
390.625 375 632
187.5 -156.25 831
125 -265.625 1047
-257.812 -46.875 891
101.562 328.125 670
-429.688 -54.6875 998
23.4375 304.688 678
-132.812 78.125 802
-140.625 31.25 783
-203.125 -117.188 694
-62.5 0 749
-156.25 -39.0625 733
132.812 343.75 676
-445.312 328.125 843
-453.125 328.125 843
203.125 156.25 738
-234.375 -156.25 710
7.8125 -250 847
31.25 -195.312 809
-171.875 -62.5 717
70.3125 320.312 672
-226.562 -93.75 704
437.5 367.188 624
179.688 250 694
-445.312 335.938 847
-335.938 312.5 841
-93.75 289.062 697
273.438 351.562 646
-226.562 62.5 817
406.25 359.375 629
-257.812 335.938 825
-93.75 -289.062 819
156.25 -179.688 843
179.688 335.938 657
-156.25 281.25 711
390.625 359.375 631
-429.688 85.9375 809
-460.938 -242.188 1328
-437.5 -320.312 2333
-289.062 -398.438 2958
148.438 -359.375 2835
-421.875 218.75 823
-54.6875 -70.3125 703
-187.5 414.062 796
-421.875 -367.188 2226
-289.062 -460.938 2812
328.125 429.688 716
78.125 -171.875 805
-265.625 -70.3125 908
-132.812 -125 687
-273.438 -93.75 1134
15.625 -164.062 803
304.688 367.188 652
132.812 -109.375 742
-156.25 -78.125 707
132.812 -101.562 742
179.688 -257.812 1041
-46.875 -7.8125 744
-453.125 367.188 1050
46.875 -148.438 783
-148.438 -156.25 704
39.0625 -234.375 807
23.4375 312.5 680
-109.375 -390.625 819
46.875 -218.75 807
-203.125 -156.25 710
-367.188 15.625 829
-203.125 -62.5 722
-296.875 242.188 730
-179.688 -101.562 696
7.8125 -234.375 858
46.875 -226.562 802
-54.6875 62.5 792
-156.25 -226.562 873
414.062 375 628
-250 -15.625 869
-39.0625 -375 825
-406.25 164.062 817
46.875 -101.562 767
195.312 226.562 676
-429.688 210.938 819
-304.688 -375 3178
-164.062 -156.25 706
218.75 148.438 707
203.125 179.688 700
-218.75 273.438 733
-453.125 -242.188 1322
-140.625 78.125 802
250 85.9375 711
-343.75 46.875 1016
171.875 148.438 746
15.625 -242.188 854
78.125 328.125 679
-320.312 234.375 731
-148.438 -312.5 835
-257.812 -39.0625 885
-234.375 39.0625 829
320.312 351.562 638
218.75 125 723
210.938 203.125 676
-460.938 367.188 1060
429.688 406.25 652
54.6875 15.625 827
273.438 125 710
31.25 -7.8125 843
-281.25 -390.625 2984
-265.625 -62.5 903
-101.562 -62.5 710
62.5 -257.812 792
-351.562 304.688 845
140.625 -93.75 742
210.938 343.75 655
-140.625 281.25 707
-85.9375 -46.875 720
-421.875 195.312 815
-265.625 -367.188 3037
-117.188 -367.188 827
367.188 367.188 635
-164.062 -195.312 1004
218.75 281.25 675
78.125 -179.688 803
-367.188 0 835
23.4375 -351.562 843
195.312 195.312 694
101.562 320.312 667
-296.875 -437.5 2835
-203.125 421.875 803
39.0625 -164.062 803
-179.688 273.438 711
-343.75 226.562 734
-62.5 -125 680
-203.125 -132.812 697
242.188 359.375 659
226.562 359.375 664
-375 101.562 851
328.125 359.375 638
156.25 218.75 708
-132.812 -359.375 835
-218.75 -156.25 711
453.125 -31.25 833
46.875 -156.25 790
460.938 203.125 696
-304.688 -367.188 3178
-171.875 -328.125 858
-281.25 257.812 738
171.875 -46.875 798
-156.25 -375 862
156.25 226.562 706
421.875 421.875 674
203.125 210.938 676
15.625 -226.562 869
328.125 359.375 638
-406.25 -7.8125 843
-187.5 -156.25 708
453.125 -156.25 928
39.0625 -171.875 803
132.812 -93.75 742
218.75 234.375 675
-156.25 -156.25 704
-156.25 78.125 802
-203.125 265.625 711
250 343.75 648
46.875 15.625 827
54.6875 -125 762
-46.875 296.875 688
23.4375 -203.125 889
125 15.625 821
-140.625 -70.3125 711
-382.812 -23.4375 854
15.625 -93.75 847
265.625 179.688 696
460.938 46.875 783
46.875 -234.375 800
-85.9375 296.875 701
179.688 156.25 739
-179.688 -140.625 698
-140.625 101.562 789
-156.25 -46.875 728
-109.375 -179.688 711
-117.188 -39.0625 728
-414.062 -70.3125 998
-195.312 -132.812 696
-429.688 -390.625 2198
-421.875 289.062 851
179.688 187.5 723
460.938 148.438 723
-7.8125 312.5 688
-179.688 359.375 813
171.875 203.125 714
54.6875 390.625 762
-132.812 -125 687
-70.3125 85.9375 792
453.125 343.75 631
54.6875 39.0625 811
-62.5 -375 813
125 343.75 680
-195.312 62.5 813
23.4375 -148.438 796
-289.062 328.125 831
-242.188 7.8125 851
-257.812 257.812 728
-226.562 265.625 723
148.438 -265.625 1050
-328.125 23.4375 1031
-156.25 -140.625 696
-273.438 -93.75 1134
273.438 171.875 698
70.3125 -140.625 821
-39.0625 31.25 766
-351.562 62.5 1004
-398.438 203.125 746
234.375 250 664
-70.3125 -265.625 823
-414.062 281.25 858
62.5 406.25 785
-375 109.375 845
-85.9375 46.875 781
-117.188 -328.125 821
23.4375 -62.5 829
-7.8125 -54.6875 875
125 -54.6875 749
-171.875 -203.125 1010
156.25 242.188 698
445.312 -140.625 918
-187.5 -125 693
-218.75 343.75 821
85.9375 -93.75 754
-46.875 0 749
265.625 78.125 707
62.5 390.625 761
-312.5 250 747
-203.125 23.4375 787
54.6875 414.062 783
-414.062 -85.9375 928
453.125 -117.188 898
-70.3125 -273.438 819
460.938 109.375 746
-429.688 46.875 813
-414.062 -453.125 2129
-273.438 421.875 1016
-367.188 93.75 860
257.812 -250 1028
265.625 437.5 761
-421.875 203.125 819
-390.625 226.562 752
23.4375 -132.812 794
343.75 359.375 636
-171.875 -85.9375 704
70.3125 -117.188 754
164.062 140.625 749
101.562 -265.625 803
-171.875 375 802
-218.75 70.3125 809
367.188 -226.562 1001
39.0625 390.625 796
453.125 335.938 632
31.25 -179.688 805
-226.562 -78.125 716
-242.188 -382.812 3064
453.125 -140.625 918
0 -226.562 858
-421.875 0 839
-296.875 429.688 1022
203.125 257.812 687
-54.6875 -62.5 707
226.562 273.438 679
85.9375 -117.188 749
-398.438 70.3125 823
-429.688 250 819
-281.25 -62.5 903
-437.5 335.938 845
-281.25 -406.25 2958
-164.062 -85.9375 704
78.125 -195.312 803
-484.375 320.312 847
-265.625 -62.5 903
-117.188 375 805
453.125 375 623
-54.6875 -390.625 813
-164.062 -203.125 894
85.9375 406.25 787
117.188 -203.125 835
-62.5 296.875 687
-414.062 179.688 754
-70.3125 -93.75 686
-156.25 -7.8125 749
-429.688 125 841
-46.875 312.5 693
101.562 -78.125 749
-85.9375 -109.375 682
70.3125 -203.125 802
78.125 -187.5 803
-429.688 375 1041
125 -78.125 744
-414.062 31.25 819
54.6875 -203.125 800
429.688 367.188 627
187.5 -140.625 767
-289.062 -406.25 2933
-15.625 -273.438 831
0 -164.062 805
70.3125 -250 790
-156.25 54.6875 798
-54.6875 -78.125 698
-46.875 62.5 787
187.5 -343.75 2835
476.562 -31.25 835
-101.562 39.0625 774
-273.438 -85.9375 1126
148.438 335.938 661
234.375 335.938 652
-148.438 281.25 700
-414.062 218.75 742
453.125 -46.875 847
226.562 132.812 711
-101.562 70.3125 800
382.812 359.375 632
-31.25 -312.5 821
-179.688 -85.9375 701
382.812 351.562 635
-414.062 -78.125 925
-445.312 -445.312 2078
-312.5 -7.8125 867
-289.062 250 725
156.25 250 697
226.562 429.688 769
-140.625 -132.812 690
-171.875 273.438 703
-7.8125 -156.25 956
109.375 -101.562 744
-351.562 312.5 841
-234.375 -93.75 700
304.688 203.125 711
-187.5 7.8125 766
101.562 7.8125 829
-7.8125 -367.188 835
179.688 -117.188 750
0 -203.125 885
-398.438 218.75 741
-320.312 -460.938 2835
-476.562 414.062 1439
31.25 -171.875 803
-171.875 -273.438 847
257.812 117.188 703
289.062 101.562 698
-421.875 -132.812 978
-226.562 62.5 819
-390.625 132.812 780
328.125 351.562 638
-445.312 -390.625 2170
-78.125 -109.375 682
265.625 351.562 646
-179.688 -156.25 708
-31.25 -296.875 821
-62.5 453.125 776
-46.875 54.6875 783
39.0625 -226.562 802
-421.875 -273.438 2365
-281.25 328.125 833
-148.438 -93.75 691
-210.938 265.625 708
62.5 -171.875 805
-70.3125 -85.9375 691
179.688 351.562 662
-257.812 -39.0625 885
-210.938 -125 694
-406.25 31.25 821
-343.75 367.188 819
-85.9375 -62.5 707
31.25 -250 802
-7.8125 304.688 680
-281.25 335.938 827
-101.562 -39.0625 723
187.5 195.312 697
242.188 109.375 711
-125 289.062 698
-54.6875 -54.6875 708
46.875 -218.75 800
46.875 -218.75 800
-85.9375 70.3125 800
15.625 -218.75 882
-46.875 46.875 776
-421.875 343.75 833
46.875 -101.562 761
-242.188 15.625 847
132.812 -101.562 742
117.188 -148.438 867
210.938 218.75 679
46.875 -210.938 800
23.4375 -351.562 847
-234.375 257.812 713
62.5 -210.938 800
320.312 156.25 734
359.375 367.188 634
-382.812 117.188 849
179.688 164.062 738
257.812 351.562 646
203.125 343.75 653
226.562 351.562 650
-406.25 0 841
218.75 226.562 674
-187.5 0 761
-367.188 15.625 975
-23.4375 304.688 682
0 -367.188 839
23.4375 -179.688 803
62.5 320.312 671
187.5 250 694
23.4375 -117.188 776
164.062 -187.5 827
-78.125 -265.625 819
-429.688 -117.188 984
-62.5 -70.3125 700
-375 -7.8125 843
187.5 335.938 657
-429.688 -296.875 2381
-187.5 -328.125 871
54.6875 -242.188 794
-406.25 210.938 742
-257.812 -304.688 2984
445.312 375 623
39.0625 -156.25 802
46.875 -109.375 761
23.4375 -195.312 809
-289.062 -46.875 887
453.125 328.125 640
-445.312 -351.562 2241
-398.438 148.438 771
125 328.125 663
-70.3125 -289.062 817
-265.625 -62.5 903
-132.812 -62.5 710
54.6875 -234.375 794
39.0625 -273.438 796
460.938 0 813
-429.688 -109.375 984
-437.5 -453.125 2090
-31.25 -328.125 821
-367.188 54.6875 1010
-250 -7.8125 867
46.875 -125 762
460.938 54.6875 780
460.938 -289.062 2639
-421.875 85.9375 813
39.0625 -304.688 856
46.875 -117.188 762
203.125 109.375 722
39.0625 -312.5 858
-195.312 273.438 706
-250 -70.3125 713
93.75 328.125 667
-257.812 414.062 809
-70.3125 -132.812 686
-195.312 7.8125 767
265.625 187.5 698
312.5 351.562 641
-242.188 -7.8125 759
242.188 85.9375 714
15.625 312.5 678
414.062 367.188 628
-62.5 -132.812 686
-109.375 93.75 790
23.4375 -70.3125 829
46.875 -203.125 802
-242.188 -140.625 706
351.562 437.5 710
-179.688 273.438 704
-195.312 15.625 774
78.125 421.875 776
31.25 320.312 675
289.062 359.375 642
218.75 250 668
-78.125 -117.188 682
-414.062 39.0625 817
281.25 70.3125 704
7.8125 -171.875 803
226.562 195.312 697
-453.125 117.188 800
39.0625 39.0625 817
148.438 250 697
187.5 -132.812 764
-257.812 -109.375 696
-421.875 125 839
140.625 -101.562 742
195.312 -101.562 754
-343.75 46.875 829
187.5 218.75 675
-320.312 7.8125 849
-140.625 -398.438 847
70.3125 328.125 672
-46.875 304.688 687
-46.875 304.688 687
23.4375 -156.25 802
-70.3125 -125 682
-273.438 -85.9375 1126
-187.5 -7.8125 752
70.3125 -367.188 2883
39.0625 -46.875 803
31.25 -54.6875 817
250 179.688 694
-70.3125 -101.562 682
296.875 179.688 700
-46.875 -304.688 817
343.75 -296.875 2767
-414.062 -93.75 933
265.625 171.875 698
-398.438 -39.0625 878
-453.125 62.5 803
-156.25 -78.125 703
-70.3125 296.875 688
7.8125 -250 849
453.125 320.312 643
453.125 320.312 643
117.188 414.062 780
-140.625 -132.812 690
218.75 414.062 722
210.938 265.625 686
7.8125 390.625 798
-62.5 -109.375 680
-187.5 -257.812 878
281.25 187.5 720
281.25 156.25 710
-171.875 -39.0625 728
31.25 -359.375 860
-406.25 164.062 762
-195.312 375 805
382.812 375 631
-398.438 -289.062 2398
-132.812 281.25 697
78.125 -164.062 803
-148.438 -46.875 722
-375 226.562 739
-54.6875 -46.875 714
289.062 101.562 698
250 125 713
-382.812 117.188 849
-93.75 -312.5 815
-156.25 -367.188 854
-414.062 -70.3125 913
-78.125 -289.062 815
-234.375 7.8125 762
367.188 367.188 632
-125 46.875 785
78.125 -101.562 749
-179.688 281.25 713
-265.625 -390.625 3037
-62.5 -148.438 693
281.25 78.125 704
-171.875 -390.625 867
31.25 -250 802
453.125 -125 906
-398.438 273.438 867
54.6875 -117.188 759
62.5 -117.188 755
-179.688 -273.438 854
-7.8125 460.938 767
-54.6875 -281.25 817
460.938 -7.8125 819
78.125 -171.875 803
-367.188 85.9375 809
-257.812 -31.25 880
210.938 226.562 678
-23.4375 -320.312 823
-375 101.562 798
-7.8125 -242.188 843
78.125 -367.188 2908
39.0625 -109.375 767
31.25 -335.938 851
-476.562 320.312 843
-109.375 -335.938 817
-171.875 -15.625 746
148.438 -359.375 2835
-398.438 -15.625 849
132.812 -343.75 2908
46.875 7.8125 833
140.625 -359.375 2859
-85.9375 -296.875 815
234.375 117.188 722
195.312 226.562 676
46.875 -250 792
-335.938 31.25 835
7.8125 -218.75 875
7.8125 -85.9375 856
-265.625 -54.6875 898
445.312 -195.312 970
-187.5 70.3125 809
453.125 -132.812 910
218.75 -250 1034
203.125 -351.562 2812
429.688 -250 2639
242.188 343.75 647
-62.5 -343.75 815
-156.25 109.375 787
164.062 -257.812 1041
-234.375 39.0625 831
78.125 -156.25 803
-93.75 -304.688 815
-203.125 31.25 787
-453.125 -242.188 1328
-54.6875 -242.188 827
-390.625 -281.25 2415
-164.062 93.75 794
-343.75 234.375 733
-23.4375 -281.25 825
414.062 -320.312 2639
-156.25 351.562 817
-273.438 -117.188 696
382.812 429.688 684
289.062 187.5 704
85.9375 -367.188 2883
-164.062 23.4375 773
85.9375 -117.188 749
-421.875 226.562 821
39.0625 -226.562 802
46.875 -296.875 867
195.312 242.188 698
-85.9375 -164.062 706
148.438 -257.812 1041
-93.75 70.3125 800
242.188 85.9375 714
-257.812 -390.625 3037
-218.75 -390.625 3010
132.812 -109.375 742
23.4375 -265.625 800
460.938 -312.5 2618
46.875 -304.688 867
-406.25 -312.5 2349
312.5 -335.938 2723
-242.188 406.25 809
-445.312 -351.562 2241
-15.625 -312.5 825
-250 -390.625 3037
-265.625 -78.125 710
257.812 117.188 703
132.812 406.25 747
195.312 429.688 769
250 429.688 731
-109.375 -359.375 821
7.8125 -93.75 851
-210.938 -132.812 697
-273.438 -101.562 701
375 -328.125 2659
15.625 -226.562 811
210.938 -351.562 2812
0 -140.625 800
179.688 140.625 749
23.4375 398.438 790
-281.25 -62.5 906
-203.125 -210.938 1022
257.812 140.625 703
265.625 -242.188 1019
-164.062 -242.188 856
-281.25 -390.625 3010
-460.938 -242.188 1328
-93.75 -335.938 815
-437.5 -320.312 2226
-320.312 -375 3238
-226.562 -390.625 3010
-226.562 -390.625 3010
257.812 148.438 700
-429.688 -320.312 2226
218.75 -351.562 2767
257.812 -250 1028
46.875 -132.812 764
367.188 -226.562 1004
-109.375 -398.438 809
-210.938 -390.625 3010
328.125 -335.938 2659
273.438 -343.75 2744
-23.4375 -343.75 825
195.312 250 694
375 -320.312 2659
-328.125 15.625 849
-242.188 -390.625 3037
-242.188 -390.625 3037
-148.438 -85.9375 697
101.562 -265.625 1054
195.312 -351.562 2812
31.25 -15.625 849
156.25 -359.375 2835
78.125 -367.188 2908
-85.9375 -289.062 815
70.3125 -242.188 796
-171.875 -257.812 854
328.125 140.625 728
-203.125 -390.625 2984
54.6875 -257.812 792
179.688 -257.812 1041
-265.625 -390.625 3037
265.625 -343.75 2744
171.875 -257.812 1044
-148.438 -343.75 833
-242.188 -343.75 3120
85.9375 -367.188 2883
335.938 -335.938 2659
-218.75 -390.625 3010
-218.75 -390.625 3010
-320.312 -226.562 1283
-453.125 -242.188 1328
-351.562 62.5 817
148.438 -359.375 2835
312.5 -234.375 1016
7.8125 -375 854
195.312 -250 1031
-7.8125 -289.062 829
-281.25 -398.438 2933
-234.375 -390.625 3010
-7.8125 -257.812 839
320.312 -234.375 1016
-406.25 23.4375 823
15.625 -281.25 843
203.125 -250 1031
-437.5 109.375 803
445.312 -156.25 933
156.25 -257.812 1041
148.438 -257.812 1041
257.812 445.312 759
453.125 -296.875 2639
375 -226.562 1004
-257.812 -54.6875 898
-125 -398.438 823
445.312 -312.5 2639
-273.438 -109.375 696
179.688 171.875 734
476.562 -312.5 2579
109.375 -265.625 1050
226.562 -351.562 2744
78.125 -93.75 749
421.875 -320.312 2639
312.5 -242.188 1022
164.062 -359.375 2835
-109.375 -406.25 809
382.812 -328.125 2659
343.75 -328.125 2701
15.625 -375 860
-203.125 15.625 774
-210.938 -390.625 3010
-140.625 367.188 809
-242.188 15.625 847
15.625 -164.062 802
93.75 -367.188 2883
125 -265.625 1050
367.188 -328.125 2639
281.25 -343.75 2744
468.75 -312.5 2579
-46.875 -179.688 887
156.25 -101.562 746
-187.5 -296.875 864
-62.5 -117.188 680
-289.062 -445.312 2835
414.062 421.875 664
-164.062 -93.75 693
-78.125 -375 813
-15.625 -296.875 827
-179.688 -156.25 708
429.688 -320.312 2639
-406.25 -23.4375 858
-234.375 -23.4375 749
265.625 -242.188 1019
-304.688 -375 3037
-164.062 -156.25 707
218.75 -250 1034
-156.25 -375 860
-78.125 -23.4375 728
320.312 -335.938 2723
-429.688 -437.5 2116
273.438 -242.188 1022
-101.562 -289.062 819
-312.5 -226.562 1283
-453.125 -140.625 978
-453.125 -382.812 2156
-414.062 101.562 813
-281.25 -406.25 2933
375 367.188 632
-109.375 46.875 781
164.062 226.562 676
46.875 -242.188 792
15.625 -140.625 794
-148.438 -218.75 860
171.875 226.562 674
187.5 257.812 690
281.25 148.438 713
-429.688 -296.875 2381
-203.125 -132.812 697
-70.3125 -140.625 691
-62.5 -54.6875 708
-421.875 -367.188 2226
203.125 -250 1031
140.625 -93.75 742
-23.4375 -187.5 891
335.938 -234.375 1013
390.625 -328.125 2659
460.938 210.938 694
460.938 -109.375 891
-289.062 -414.062 2908
-273.438 -390.625 3010
-453.125 -445.312 2078
-15.625 -390.625 849
101.562 -367.188 2859
109.375 -367.188 2859
-437.5 -242.188 1328
-7.8125 -164.062 959
257.812 421.875 722
-93.75 -289.062 817
-390.625 132.812 780
-476.562 -382.812 3333
-226.562 -273.438 2835
70.3125 -273.438 789
234.375 101.562 711
-23.4375 -226.562 847
-171.875 -382.812 869
-414.062 70.3125 823
187.5 -257.812 1041
-62.5 -289.062 817
-351.562 39.0625 995
-140.625 -125 687
-62.5 -312.5 813
-468.75 70.3125 802
-296.875 -445.312 2835
-171.875 -156.25 707
-171.875 -156.25 707
242.188 -351.562 2744
234.375 -351.562 2767
164.062 -257.812 1041
-187.5 -156.25 710
-148.438 -156.25 706
-226.562 -390.625 3010
171.875 -359.375 2812
-398.438 218.75 741
-406.25 -382.812 2241
375 -226.562 1004
-343.75 234.375 733
156.25 -257.812 1041
328.125 -234.375 1013
289.062 -343.75 2723
320.312 -234.375 1016
-39.0625 -179.688 891
468.75 -109.375 891
-179.688 -109.375 690
296.875 -343.75 2723
0 -375 843
242.188 -250 1034
-359.375 406.25 1028
46.875 -101.562 761
-31.25 -351.562 825
335.938 -335.938 2659
-445.312 -54.6875 995
117.188 -367.188 2835
54.6875 -109.375 759
54.6875 -250 792
109.375 -265.625 1050
-31.25 -304.688 821
39.0625 -226.562 802
296.875 -242.188 1022
-148.438 281.25 700
156.25 -265.625 1050
-179.688 273.438 703
273.438 -242.188 1025
-156.25 -156.25 708
-289.062 250 720
281.25 -242.188 1028
250 -351.562 2744
-453.125 234.375 819
-476.562 -359.375 3238
-492.188 -140.625 975
-218.75 -390.625 3010
-132.812 -281.25 821
218.75 -250 1038
210.938 -250 1038
-210.938 265.625 706
117.188 -265.625 1054
-445.312 -359.375 2241
-234.375 257.812 711
-304.688 -226.562 1283
-375 54.6875 1010
-335.938 414.062 1019
-171.875 -375 869
257.812 78.125 710
-148.438 -117.188 686
54.6875 -375 2859
-429.688 234.375 821
-351.562 406.25 1013
-234.375 -156.25 717
-296.875 -437.5 2859
125 -367.188 2835
-445.312 -351.562 2271
-148.438 -367.188 837
31.25 -335.938 862
-492.188 -445.312 2090
-398.438 390.625 1022
-218.75 -156.25 716
-500 -445.312 2090
-85.9375 -265.625 817
304.688 -343.75 2701
-421.875 -445.312 2156
468.75 -85.9375 887
62.5 -273.438 1070
-390.625 -382.812 3238
-70.3125 -289.062 815
-460.938 367.188 1028
-460.938 367.188 1028
109.375 -367.188 2859
-328.125 -226.562 1283
421.875 -218.75 998
-171.875 -23.4375 733
-125 -265.625 823
85.9375 -117.188 802
382.812 367.188 630
-93.75 70.3125 792
242.188 429.688 728
-421.875 -273.438 2398
-156.25 -78.125 697
-460.938 -382.812 2156
-187.5 -304.688 849
-140.625 -156.25 707
-390.625 -23.4375 845
-242.188 -156.25 719
-164.062 70.3125 803
-195.312 -140.625 703
-398.438 -382.812 3238
62.5 -257.812 789
-117.188 -398.438 802
-382.812 398.438 1022
-179.688 -375 871
164.062 -257.812 1047
-117.188 -367.188 821
-484.375 -382.812 3269
-382.812 -234.375 1302
-320.312 -257.812 2835
-203.125 -390.625 2883
281.25 140.625 711
179.688 -359.375 2812
-23.4375 -359.375 831
-367.188 -382.812 3238
-187.5 -390.625 869
-468.75 -382.812 3269
335.938 -234.375 1016
187.5 -359.375 2812
414.062 -218.75 998
7.8125 -210.938 885
-242.188 -39.0625 733
-484.375 -445.312 2078
-421.875 -382.812 2226
132.812 -265.625 1057
437.5 -320.312 2579
-15.625 -312.5 827
-226.562 265.625 710
343.75 -335.938 2680
-242.188 -218.75 1268
398.438 -328.125 2639
320.312 187.5 719
-242.188 429.688 1126
-289.062 -437.5 2883
-289.062 -437.5 2883
-226.562 -156.25 716
203.125 -250 1038
-437.5 -328.125 2286
-265.625 -109.375 696
-398.438 -437.5 3064
-132.812 281.25 697
-492.188 -382.812 3120
-85.9375 375 807
-78.125 -85.9375 687
-453.125 367.188 1019
-132.812 46.875 780
-429.688 242.188 817
117.188 -265.625 1054
-421.875 46.875 815
-132.812 62.5 796
367.188 -226.562 1007
-320.312 -468.75 2812
328.125 132.812 731
62.5 -140.625 807
-304.688 -226.562 1283
-195.312 -156.25 714
226.562 203.125 696
-210.938 -156.25 716
-414.062 -382.812 2226
-476.562 414.062 1439
-375 -382.812 3238
-85.9375 -281.25 815
-359.375 -382.812 3238
-171.875 -39.0625 723
179.688 203.125 698
179.688 -125 757
-148.438 -132.812 693
-453.125 -382.812 2156
-320.312 -226.562 1278
-140.625 -398.438 845
46.875 -101.562 755
62.5 -93.75 752
-39.0625 -351.562 823
-257.812 257.812 714
-132.812 78.125 803
-421.875 187.5 752
-210.938 -70.3125 708
85.9375 -218.75 803
281.25 85.9375 704
-382.812 -382.812 3238
-218.75 70.3125 811
-179.688 -140.625 701
-234.375 -218.75 1264
-367.188 15.625 973
-250 -359.375 3092
0 -296.875 833
-296.875 -31.25 878
-187.5 -210.938 901
70.3125 328.125 668
-382.812 93.75 867
-62.5 -296.875 815
-7.8125 -234.375 851
164.062 -23.4375 817
-234.375 -46.875 727
-289.062 -453.125 2859
210.938 -250 1038
-164.062 -257.812 839
-148.438 -156.25 707
-195.312 273.438 704
-203.125 -156.25 714
-164.062 -304.688 831
-46.875 304.688 684
-70.3125 296.875 687
-156.25 281.25 700
328.125 -234.375 1016
117.188 -367.188 2835
-101.562 70.3125 794
-437.5 -460.938 2103
-289.062 -460.938 2835
484.375 -312.5 2522
156.25 -101.562 747
125 -367.188 2835
-351.562 -382.812 3208
-62.5 -265.625 819
195.312 218.75 678
62.5 -375 2859
23.4375 -351.562 858
-54.6875 -257.812 825
-375 398.438 1022
-234.375 -109.375 693
250 -351.562 2744
351.562 -335.938 2659
-328.125 234.375 727
-437.5 -62.5 998
203.125 226.562 682
-281.25 -414.062 2908
187.5 -93.75 757
-203.125 -117.188 691
70.3125 -125 807
15.625 -273.438 798
-140.625 78.125 805
187.5 187.5 704
-500 117.188 796
-140.625 -132.812 691
31.25 320.312 674
-195.312 -117.188 690
-335.938 -382.812 3208
281.25 -242.188 1028
-15.625 -343.75 831
31.25 -250 792
-171.875 273.438 703
-500 140.625 792
-85.9375 70.3125 792
-492.188 140.625 792
-375 226.562 733
-171.875 -382.812 860
125 -265.625 1054
-437.5 375 1034
226.562 351.562 649
234.375 -250 1038
-312.5 -226.562 1283
-125 289.062 694
179.688 -85.9375 754
132.812 -367.188 2835
46.875 -257.812 790
-289.062 -414.062 2908
-476.562 -445.312 2078
-117.188 78.125 803
-281.25 -359.375 3037
335.938 -234.375 1016
-406.25 210.938 742
414.062 429.688 668
54.6875 -375 2859
-203.125 -125 696
-453.125 250 819
210.938 257.812 668
-7.8125 312.5 678
-156.25 -328.125 827
445.312 -320.312 2618
-148.438 -39.0625 722
-109.375 -328.125 815
-125 -398.438 809
312.5 -343.75 2659
437.5 398.438 628
70.3125 -375 2835
-406.25 -312.5 2349
-179.688 -15.625 742
171.875 -109.375 747
195.312 -359.375 2789
257.812 -351.562 2744
-500 -39.0625 901
-125 -39.0625 719
304.688 -343.75 2701
-195.312 -125 693
-476.562 359.375 967
-125 -273.438 821
70.3125 -93.75 749
-265.625 250 717
-500 -132.812 975
242.188 -351.562 2744
-296.875 242.188 722
179.688 242.188 675
-414.062 -335.938 2301
-289.062 -406.25 2933
-187.5 -117.188 690
23.4375 -117.188 769
-85.9375 -289.062 813
7.8125 -257.812 798
140.625 -367.188 2835
-70.3125 -289.062 815
164.062 210.938 688
-132.812 -359.375 825
-78.125 70.3125 792
203.125 343.75 652
195.312 203.125 697
-93.75 289.062 691
39.0625 -226.562 796
-164.062 -328.125 833
-187.5 -156.25 711
-187.5 -140.625 703
-320.312 234.375 725
265.625 -351.562 2723
203.125 -359.375 2789
-312.5 -382.812 3037
164.062 -359.375 2812
15.625 -250 800
-132.812 -367.188 827
-468.75 -445.312 2065
85.9375 -359.375 2908
406.25 -328.125 2639
-218.75 -156.25 716
-117.188 -406.25 800
-414.062 203.125 746
-250 -390.625 3037
-289.062 242.188 719
-312.5 242.188 723
-234.375 257.812 711
-234.375 257.812 711
-226.562 -218.75 1264
-187.5 -125 693
-93.75 -382.812 809
-210.938 -156.25 716
296.875 -343.75 2723
-156.25 -62.5 708
-406.25 -382.812 2226
15.625 -367.188 860
-171.875 -320.312 837
195.312 -257.812 1044
242.188 85.9375 711
359.375 -335.938 2659
-234.375 -156.25 717
-414.062 382.812 1016
15.625 -226.562 807
46.875 -101.562 755
-281.25 -421.875 2908
-351.562 226.562 731
-421.875 78.125 823
-460.938 234.375 817
242.188 367.188 654
-187.5 0 754
218.75 234.375 668
-375 -15.625 847
-164.062 -195.312 889
148.438 335.938 659
-421.875 -132.812 970
-203.125 265.625 706
70.3125 -132.812 809
-210.938 -132.812 698
-484.375 414.062 1439
15.625 -218.75 807
-398.438 -39.0625 880
-54.6875 -242.188 827
-62.5 54.6875 778
-171.875 -117.188 688
289.062 101.562 701
-140.625 281.25 698
-140.625 -156.25 707
-179.688 -117.188 688
492.188 -312.5 2522
78.125 328.125 667
242.188 -250 1038
-210.938 421.875 798
-460.938 -445.312 2065
31.25 -62.5 827
62.5 -375 2859
-70.3125 46.875 767
-109.375 78.125 798
179.688 -257.812 1047
351.562 -304.688 2744
-226.562 -156.25 716
453.125 -320.312 2618
-164.062 -156.25 710
-257.812 250 714
15.625 312.5 676
187.5 -359.375 2812
-203.125 421.875 796
453.125 -156.25 935
132.812 -265.625 1057
312.5 351.562 642
-343.75 226.562 728
-195.312 -156.25 714
-187.5 273.438 703
-234.375 -218.75 1264
-31.25 382.812 774
70.3125 -140.625 807
164.062 125 728
-429.688 375 1013
125 398.438 730
-375 101.562 796
-218.75 421.875 802
320.312 -343.75 2680
148.438 -367.188 2835
-93.75 -367.188 815
-500 234.375 817
62.5 320.312 670
-156.25 -226.562 851
132.812 -367.188 2835
39.0625 -15.625 778
-484.375 242.188 819
-445.312 62.5 807
-171.875 -281.25 839
-382.812 -31.25 885
140.625 -109.375 746
31.25 -85.9375 767
195.312 234.375 678
-218.75 265.625 710
-156.25 -187.5 896
70.3125 -375 2835
-85.9375 -320.312 811
-226.562 257.812 710
289.062 359.375 641
23.4375 -195.312 815
-328.125 -187.5 1241
-140.625 31.25 773
257.812 148.438 704
-125 46.875 778
367.188 367.188 631
-171.875 -304.688 837
-335.938 390.625 956
-125 78.125 803
-195.312 -117.188 690
-164.062 23.4375 767
-156.25 -23.4375 731
125 335.938 662
-15.625 -265.625 835
23.4375 312.5 675
132.812 -93.75 741
187.5 164.062 739
-156.25 -39.0625 722
93.75 328.125 666
265.625 70.3125 707
-421.875 210.938 746
-164.062 -62.5 708
-39.0625 -187.5 880
-203.125 -156.25 714
78.125 -375 2859
-23.4375 304.688 680
296.875 -312.5 2789
-140.625 -31.25 725
-117.188 -398.438 802
-414.062 -70.3125 913
-242.188 -156.25 719
210.938 234.375 671
273.438 -351.562 2723
414.062 -328.125 2598
-164.062 -23.4375 731
-367.188 85.9375 802
-62.5 296.875 686
46.875 -203.125 800
304.688 -312.5 2767
-148.438 -140.625 698
148.438 -328.125 2908
-359.375 70.3125 811
-62.5 70.3125 789
-226.562 -218.75 1264
-46.875 -179.688 887
226.562 187.5 693
-203.125 70.3125 811
-250 -218.75 1264
15.625 -367.188 860
218.75 132.812 716
-156.25 -140.625 698
-390.625 390.625 1013
-101.562 289.062 691
-195.312 -140.625 703
-78.125 -289.062 813
-31.25 -148.438 956
-296.875 -453.125 2835
-406.25 -320.312 2349
-265.625 -398.438 3010
273.438 125 700
-46.875 -320.312 817
-179.688 -390.625 867
-210.938 70.3125 811
-445.312 -367.188 2226
-328.125 -382.812 3208
-445.312 -359.375 2241
257.812 351.562 646
234.375 -250 1038
-484.375 218.75 811
187.5 218.75 676
-179.688 -62.5 710
-414.062 -343.75 2286
132.812 -265.625 1057
-210.938 -125 696
-179.688 -85.9375 696
-78.125 296.875 687
-453.125 -148.438 981
359.375 367.188 631
265.625 351.562 644
70.3125 -93.75 749
156.25 -367.188 2812
171.875 343.75 657
-171.875 273.438 703
-203.125 -140.625 704
-156.25 -351.562 837
-421.875 -375 2226
265.625 78.125 707
-93.75 -375 811
-39.0625 304.688 683
-453.125 -140.625 975
-93.75 -250 825
234.375 351.562 648
-117.188 289.062 693
-406.25 -125 959
-328.125 414.062 1004
-132.812 281.25 697
203.125 -359.375 2789
-335.938 242.188 728
-281.25 -367.188 2984
125 -93.75 742
-54.6875 296.875 687
-257.812 -31.25 739
-289.062 -421.875 2908
-367.188 296.875 807
-367.188 7.8125 973
328.125 -343.75 2659
85.9375 -117.188 802
367.188 -335.938 2639
-250 -398.438 3010
7.8125 -257.812 798
-195.312 70.3125 811
-289.062 -398.438 2933
-296.875 -351.562 3064
-156.25 -195.312 887
328.125 -335.938 2659
257.812 -351.562 2744
78.125 -156.25 803
7.8125 -148.438 798
218.75 -359.375 2767
-265.625 -101.562 697
375 367.188 631
187.5 -257.812 1047
-250 257.812 713
-46.875 -390.625 819
-195.312 -242.188 878
-156.25 -203.125 869
203.125 164.062 703
-414.062 -351.562 2286
-445.312 140.625 833
-445.312 -148.438 981
-351.562 70.3125 819
-156.25 -125 690
-15.625 304.688 679
-281.25 250 716
-476.562 -281.25 2984
-210.938 -78.125 704
265.625 -351.562 2723
-257.812 -398.438 3010
62.5 -140.625 807
257.812 117.188 700
-421.875 -382.812 2226
312.5 -343.75 2659
-93.75 78.125 798
257.812 164.062 700
281.25 70.3125 706
-171.875 -85.9375 694
-242.188 -398.438 3010
-296.875 -460.938 2812
78.125 -93.75 747
-210.938 -156.25 716
-85.9375 -296.875 811
-281.25 -406.25 2933
-476.562 320.312 841
156.25 335.938 659
-312.5 234.375 723
-242.188 15.625 773
-156.25 -117.188 687
-164.062 -117.188 687
-242.188 -101.562 694
-289.062 -460.938 2835
-218.75 70.3125 811
-445.312 -140.625 978
-460.938 -140.625 975
-70.3125 -320.312 811
-273.438 -398.438 3010
421.875 -328.125 2618
109.375 -70.3125 747
-476.562 85.9375 802
-62.5 -273.438 819
242.188 -250 1038
-281.25 -421.875 2908
-281.25 -421.875 2908
179.688 343.75 655
250 -250 1034
242.188 109.375 706
-234.375 -398.438 2984
-125 281.25 694
132.812 335.938 661
-398.438 -242.188 1302
-453.125 62.5 805
-382.812 -31.25 885
-218.75 -140.625 704
-437.5 -148.438 984
0 312.5 678
-62.5 -250 825
117.188 -93.75 742
273.438 78.125 706
117.188 328.125 662
-31.25 -226.562 845
-148.438 289.062 701
148.438 -367.188 2835
109.375 328.125 664
210.938 -359.375 2767
-382.812 210.938 738
-437.5 -335.938 2271
-414.062 78.125 827
62.5 -257.812 789
23.4375 -203.125 813
-367.188 218.75 733
0 -273.438 839
-210.938 -398.438 2984
-375 218.75 733
-390.625 218.75 736
-492.188 78.125 796
46.875 -257.812 790
31.25 -343.75 867
226.562 265.625 667
187.5 -257.812 1047
-375 -7.8125 975
-132.812 -156.25 707
-414.062 -78.125 923
-390.625 -257.812 2450
-171.875 -390.625 860
460.938 -320.312 2598
156.25 429.688 773
-132.812 -398.438 815
242.188 85.9375 711
-468.75 -289.062 3010
78.125 -164.062 803
210.938 343.75 652
-187.5 -85.9375 697
-460.938 -148.438 975
85.9375 -132.812 803
-265.625 -398.438 3010
289.062 101.562 701
-445.312 218.75 817
-476.562 234.375 817
-62.5 -414.062 849
-414.062 210.938 746
281.25 -343.75 2723
85.9375 -375 2859
62.5 -367.188 2859
-187.5 70.3125 809
78.125 -375 2859
257.812 78.125 710
281.25 -351.562 2723
164.062 132.812 728
70.3125 -257.812 790
296.875 359.375 638
226.562 -359.375 2744
101.562 328.125 664
-468.75 -54.6875 992
250 109.375 703
273.438 351.562 644
-265.625 -62.5 720
39.0625 -109.375 761
195.312 148.438 717
-195.312 -85.9375 697
-164.062 273.438 701
-500 -140.625 975
-195.312 265.625 704
273.438 -351.562 2723
-179.688 281.25 704
375 -335.938 2639
195.312 -359.375 2789
429.688 -328.125 2618
-421.875 -140.625 970
93.75 -375 2859
-109.375 289.062 693
-445.312 -375 2212
-296.875 414.062 984
-468.75 -250 1333
257.812 -250 1034
187.5 -265.625 1050
210.938 70.3125 790
-289.062 -468.75 2835
-390.625 226.562 738
203.125 234.375 678
-476.562 109.375 802
-406.25 -242.188 1302
-234.375 39.0625 787
-445.312 335.938 835
-421.875 39.0625 819
-429.688 -62.5 998
-78.125 -7.8125 733
78.125 320.312 667
39.0625 320.312 672
-281.25 242.188 716
39.0625 -234.375 794
164.062 -187.5 819
257.812 140.625 708
-171.875 -117.188 688
-31.25 -296.875 823
-85.9375 78.125 798
343.75 359.375 635
-406.25 382.812 1004
156.25 -367.188 2812
-179.688 -390.625 867
-445.312 367.188 1007
257.812 -343.75 2767
-343.75 406.25 1001
-304.688 406.25 970
-257.812 -101.562 697
-375 -23.4375 987
-453.125 -390.625 2156
320.312 -343.75 2680
-468.75 359.375 967
78.125 -171.875 837
210.938 226.562 676
453.125 -171.875 948
-156.25 -78.125 697
-164.062 -304.688 831
54.6875 -101.562 755
15.625 -226.562 807
234.375 101.562 711
-335.938 234.375 728
-148.438 -78.125 697
390.625 -328.125 2639
-476.562 70.3125 803
-156.25 -296.875 827
218.75 -359.375 2767
-390.625 -31.25 885
85.9375 -93.75 746
78.125 -132.812 805
453.125 -164.062 943
-343.75 226.562 728
-406.25 0 839
-226.562 -398.438 2984
-273.438 -367.188 3010
-226.562 62.5 819
-117.188 54.6875 787
-304.688 242.188 722
328.125 351.562 641
-93.75 289.062 691
265.625 117.188 700
-148.438 -140.625 698
-335.938 226.562 728
46.875 328.125 672
164.062 335.938 657
164.062 -367.188 2812
-476.562 328.125 841
-421.875 -281.25 2398
-117.188 281.25 693
-257.812 250 714
132.812 -109.375 813
-117.188 -367.188 821
-164.062 -242.188 845
-78.125 -382.812 809
250 -250 1034
-179.688 70.3125 807
-328.125 -234.375 1302
-101.562 -406.25 800
-31.25 -257.812 831
476.562 328.125 811
-312.5 -382.812 3037
-62.5 -257.812 823
218.75 210.938 691
-367.188 0 975
-203.125 -125 696
-429.688 -312.5 2349
-468.75 414.062 1439
429.688 -320.312 2639
-210.938 62.5 805
-406.25 -7.8125 847
-343.75 -382.812 3208
-46.875 296.875 684
-414.062 -312.5 2349
-195.312 23.4375 773
-109.375 0 741
-140.625 -367.188 831
156.25 -328.125 2908
93.75 328.125 666
-78.125 78.125 796
-453.125 -140.625 975
156.25 -289.062 2859
210.938 -148.438 776
289.062 -351.562 2680
-296.875 -468.75 2812
382.812 -335.938 2639
164.062 140.625 728
-492.188 -375 3120
-101.562 -31.25 722
-179.688 -312.5 843
218.75 140.625 708
93.75 -335.938 2933
187.5 343.75 653
-320.312 234.375 725
140.625 -93.75 742
-70.3125 -273.438 819
-171.875 -125 691
-304.688 -23.4375 875
7.8125 398.438 792
-445.312 -453.125 2103
-62.5 -281.25 817
-171.875 -203.125 891
382.812 367.188 630
-148.438 -187.5 894
-281.25 -375 2984
-164.062 -320.312 833
445.312 -156.25 935
-250 -398.438 3010
-343.75 -62.5 1115
85.9375 328.125 667
109.375 -375 2835
-289.062 -453.125 2859
-210.938 265.625 706
7.8125 -367.188 854
-218.75 -398.438 2984
70.3125 -257.812 790
-62.5 -304.688 815
-156.25 -375 847
0 -375 854
-250 250 713
0 -226.562 864
-242.188 257.812 711
-304.688 -382.812 2984
78.125 -93.75 747
-281.25 -414.062 2908
296.875 -351.562 2701
398.438 -328.125 2639
-289.062 242.188 719
203.125 250 671
-218.75 54.6875 800
-320.312 414.062 1001
187.5 195.312 698
-234.375 -398.438 2984
234.375 -359.375 2744
-398.438 -242.188 1302
335.938 -343.75 2659
187.5 -257.812 1047
335.938 359.375 635
-476.562 -289.062 3010
304.688 359.375 638
476.562 -320.312 2560
-210.938 -398.438 2984
-93.75 -234.375 829
281.25 351.562 643
-468.75 85.9375 809
-445.312 -367.188 2226
-125 -265.625 823
-265.625 -54.6875 720
195.312 117.188 723
453.125 -46.875 851
-289.062 -414.062 2908
257.812 -250 1034
31.25 312.5 674
-7.8125 -242.188 845
-390.625 -242.188 1302
-359.375 226.562 733
-109.375 -23.4375 727
195.312 -257.812 1044
15.625 -242.188 803
-85.9375 -23.4375 723
-453.125 328.125 837
-171.875 70.3125 805
-203.125 -140.625 704
390.625 445.312 696
429.688 367.188 628
328.125 -343.75 2659
-54.6875 -218.75 839
-203.125 -398.438 2883
-304.688 -226.562 1283
-273.438 -398.438 3010
-93.75 -289.062 813
226.562 78.125 764
-414.062 -359.375 2271
148.438 -101.562 746
312.5 101.562 769
242.188 195.312 694
-85.9375 -375 813
-93.75 -289.062 813
-101.562 -289.062 815
-250 -7.8125 752
23.4375 -359.375 864
-437.5 226.562 819
437.5 -328.125 2579
-445.312 -328.125 2271
54.6875 -101.562 755
-437.5 335.938 835
-257.812 -39.0625 739
-468.75 -250 1333
226.562 -359.375 2744
-93.75 -320.312 813
39.0625 -109.375 761
125 -93.75 742
-164.062 -125 691
70.3125 -250 794
-398.438 210.938 739
39.0625 -320.312 867
-281.25 -437.5 2883
-289.062 -359.375 3037
320.312 367.188 637
-156.25 -125 690
46.875 320.312 672
-140.625 406.25 790
-70.3125 78.125 794
-7.8125 304.688 679
343.75 -343.75 2659
-429.688 -343.75 2271
117.188 -375 2835
281.25 -351.562 2723
-62.5 -46.875 710
-156.25 -390.625 849
-93.75 -31.25 722
-289.062 -351.562 3064
-453.125 -398.438 2156
-460.938 242.188 819
101.562 -93.75 742
-85.9375 289.062 690
93.75 -375 2859
-195.312 265.625 704
-125 281.25 694
39.0625 -234.375 794
187.5 -187.5 809
312.5 367.188 638
390.625 367.188 630
-195.312 15.625 767
-125 -375 823
-492.188 -46.875 908
273.438 78.125 706
-492.188 234.375 817
117.188 -93.75 742
-500 -54.6875 915
-148.438 -320.312 825
-328.125 -234.375 1302
-476.562 -273.438 2908
109.375 -93.75 744
-164.062 273.438 701
-390.625 210.938 738
-453.125 -406.25 2143
-375 -15.625 847
242.188 -359.375 2744
351.562 -304.688 2744
218.75 343.75 653
70.3125 -242.188 802
171.875 -367.188 2812
328.125 359.375 637
156.25 328.125 661
-414.062 101.562 815
-125 -156.25 707
-78.125 -23.4375 723
281.25 70.3125 706
23.4375 -203.125 813
-476.562 -421.875 2129
281.25 156.25 710
-7.8125 -148.438 948
-78.125 -156.25 704
