ply
format ascii 1.0
comment Created by Open3D
element vertex 2399
property double x
property double y
property double z
end_header
-320.312 -171.875 739
-304.688 -312.5 771
-335.938 -398.438 774
-164.062 -195.312 766
-304.688 -234.375 720
484.375 273.438 789
-421.875 437.5 764
-328.125 351.562 646
195.312 -132.812 821
-195.312 -117.188 754
187.5 195.312 668
-70.3125 93.75 664
195.312 7.8125 747
195.312 0 750
195.312 -226.562 878
-7.8125 132.812 658
-429.688 328.125 659
-281.25 -250 714
218.75 7.8125 747
-414.062 -250 742
-328.125 -125 728
-500 -250 764
-242.188 -62.5 688
-164.062 265.625 666
31.25 148.438 686
195.312 -296.875 928
-312.5 -210.938 723
210.938 -31.25 764
-484.375 -312.5 746
203.125 -54.6875 776
-78.125 296.875 648
-500 -234.375 771
-390.625 -281.25 741
195.312 -187.5 851
78.125 398.438 604
187.5 296.875 630
31.25 140.625 686
-367.188 -382.812 755
414.062 226.562 813
-429.688 -85.9375 627
-328.125 -117.188 717
-70.3125 132.812 659
-93.75 93.75 733
-273.438 -226.562 728
-23.4375 203.125 683
-164.062 156.25 711
-109.375 226.562 654
195.312 203.125 666
406.25 414.062 734
46.875 164.062 694
195.312 273.438 638
-140.625 164.062 706
-359.375 109.375 746
-148.438 226.562 680
-484.375 -179.688 794
203.125 -179.688 845
203.125 -62.5 781
187.5 304.688 627
375 -125 1013
203.125 -15.625 759
-460.938 -62.5 620
-414.062 -62.5 634
257.812 -31.25 959
195.312 -101.562 802
171.875 390.625 600
367.188 -62.5 973
0 203.125 657
-203.125 -78.125 684
195.312 -148.438 827
-304.688 -171.875 738
218.75 -171.875 839
171.875 382.812 601
-390.625 -335.938 739
-7.8125 382.812 612
421.875 62.5 896
195.312 39.0625 734
-476.562 -257.812 747
-23.4375 132.812 654
-281.25 -117.188 762
195.312 -265.625 908
195.312 -210.938 869
343.75 -70.3125 978
-492.188 -210.938 780
203.125 -70.3125 785
-39.0625 78.125 662
-250 -164.062 739
179.688 281.25 637
-445.312 -296.875 733
-140.625 -109.375 697
-93.75 429.688 706
-437.5 -101.562 635
7.8125 398.438 610
203.125 -101.562 802
203.125 -101.562 802
-117.188 296.875 650
-390.625 -23.4375 664
-39.0625 203.125 658
179.688 414.062 596
-351.562 62.5 714
-273.438 -148.438 739
-195.312 -218.75 759
-85.9375 250 641
179.688 406.25 596
-250 -140.625 741
-23.4375 218.75 676
187.5 382.812 600
195.312 23.4375 741
-257.812 -125 746
203.125 -85.9375 794
-367.188 -281.25 746
-101.562 164.062 666
15.625 398.438 609
-31.25 382.812 614
-289.062 367.188 643
-156.25 148.438 714
-117.188 148.438 678
-367.188 -187.5 785
-437.5 -273.438 738
195.312 -250 894
-7.8125 125 659
-117.188 203.125 664
-250 -101.562 746
179.688 289.062 634
179.688 320.312 622
-296.875 -117.188 733
-437.5 335.938 662
-132.812 265.625 635
-70.3125 179.688 654
203.125 -39.0625 769
-54.6875 203.125 652
-39.0625 179.688 661
31.25 390.625 609
195.312 -85.9375 794
-46.875 171.875 661
171.875 375 602
351.562 -39.0625 956
-320.312 -93.75 704
-273.438 -218.75 728
203.125 -117.188 809
195.312 -31.25 767
-265.625 -93.75 688
-54.6875 187.5 654
-39.0625 70.3125 722
-31.25 117.188 654
187.5 203.125 667
-328.125 -132.812 733
-281.25 -109.375 771
203.125 -93.75 798
328.125 343.75 767
-312.5 -140.625 736
-54.6875 234.375 659
-132.812 -164.062 717
187.5 179.688 675
-164.062 273.438 663
132.812 414.062 602
-445.312 -289.062 733
-304.688 -218.75 723
195.312 31.25 736
335.938 -109.375 1001
-343.75 -125 873
-78.125 132.812 662
-281.25 -242.188 716
-85.9375 101.562 664
140.625 414.062 603
257.812 -281.25 2415
-62.5 140.625 657
187.5 289.062 632
203.125 -109.375 805
-218.75 -117.188 738
-429.688 -85.9375 627
273.438 320.312 781
-320.312 -164.062 739
343.75 375 755
203.125 15.625 744
-421.875 -265.625 738
195.312 -7.8125 754
-289.062 -273.438 785
-148.438 257.812 636
171.875 445.312 652
-31.25 171.875 666
203.125 148.438 687
-312.5 351.562 643
-125 203.125 688
-46.875 265.625 661
-242.188 -148.438 739
-156.25 -148.438 767
-359.375 101.562 739
390.625 -78.125 856
-406.25 -46.875 643
-156.25 0 776
-382.812 -351.562 744
171.875 367.188 606
-85.9375 242.188 648
-179.688 -109.375 688
187.5 164.062 682
-164.062 367.188 627
171.875 414.062 597
492.188 7.8125 864
-328.125 -335.938 759
-273.438 -296.875 798
187.5 312.5 624
-265.625 -195.312 734
-484.375 -265.625 747
351.562 70.3125 898
-62.5 281.25 625
-265.625 -7.8125 734
-257.812 -101.562 750
-257.812 -179.688 736
-429.688 -62.5 620
-70.3125 171.875 657
-304.688 -250 717
-437.5 -39.0625 619
-398.438 -15.625 659
-320.312 -257.812 714
195.312 171.875 678
-375 335.938 652
179.688 304.688 628
-93.75 179.688 655
-257.812 359.375 637
-250 -109.375 744
-15.625 179.688 667
-414.062 -382.812 728
179.688 398.438 596
-312.5 -250 716
-414.062 -31.25 631
-335.938 -203.125 790
-257.812 -289.062 817
-31.25 78.125 662
-15.625 117.188 655
-304.688 -367.188 780
203.125 -78.125 789
203.125 31.25 736
-460.938 -70.3125 623
-492.188 -195.312 794
445.312 -15.625 869
203.125 -187.5 851
-296.875 -296.875 776
-343.75 -148.438 887
406.25 -54.6875 860
179.688 273.438 641
-148.438 148.438 714
195.312 257.812 644
-179.688 -203.125 764
171.875 406.25 596
-171.875 -117.188 691
203.125 39.0625 733
203.125 -171.875 841
-31.25 62.5 742
-85.9375 296.875 649
-39.0625 109.375 654
195.312 -281.25 918
-148.438 -195.312 746
-62.5 210.938 652
-304.688 -117.188 711
-492.188 -187.5 794
-234.375 -210.938 761
-70.3125 226.562 655
-234.375 -78.125 686
-117.188 -117.188 710
203.125 93.75 708
-257.812 93.75 746
203.125 -132.812 819
-156.25 -171.875 774
250 7.8125 938
-250 -156.25 741
-148.438 -156.25 719
-320.312 -117.188 717
-335.938 93.75 741
187.5 281.25 637
-414.062 -421.875 766
-281.25 -234.375 720
-117.188 242.188 642
15.625 125 693
203.125 -140.625 823
187.5 320.312 622
187.5 132.812 694
187.5 273.438 638
-125 273.438 636
-328.125 -101.562 710
203.125 -164.062 837
179.688 382.812 600
-281.25 -78.125 693
-273.438 -289.062 798
-226.562 -101.562 738
-93.75 273.438 627
-156.25 164.062 707
-343.75 -382.812 762
-289.062 -78.125 696
-414.062 -187.5 773
-335.938 -390.625 769
-203.125 -85.9375 684
-406.25 -164.062 798
-70.3125 390.625 616
-312.5 -85.9375 704
179.688 375 601
195.312 -15.625 761
-328.125 -148.438 736
132.812 406.25 600
0 398.438 610
-312.5 -226.562 720
-39.0625 93.75 661
-367.188 7.8125 697
203.125 -257.812 898
203.125 -195.312 856
-257.812 -171.875 736
-54.6875 226.562 657
-109.375 257.812 641
-351.562 54.6875 714
195.312 250 648
-289.062 -179.688 734
-148.438 226.562 680
-390.625 -390.625 739
375 -23.4375 948
-23.4375 117.188 654
-93.75 125 664
-500 -226.562 778
-54.6875 -312.5 967
-23.4375 101.562 659
-62.5 -312.5 967
23.4375 164.062 696
-46.875 164.062 664
-195.312 375 631
203.125 7.8125 747
-296.875 -203.125 725
179.688 390.625 598
187.5 171.875 678
-85.9375 132.812 679
195.312 -39.0625 769
-382.812 -7.8125 676
484.375 -390.625 667
-218.75 -93.75 683
203.125 -125 813
-242.188 -140.625 744
203.125 -273.438 910
-343.75 -140.625 885
-281.25 -85.9375 693
-93.75 234.375 654
-273.438 0 734
-281.25 -242.188 716
-140.625 273.438 636
-140.625 -31.25 761
-335.938 -242.188 766
179.688 296.875 631
-273.438 -210.938 730
-343.75 -234.375 766
-273.438 -218.75 728
-484.375 -375 725
187.5 140.625 691
-312.5 -218.75 725
-421.875 -70.3125 628
-429.688 -164.062 798
187.5 125 697
-46.875 78.125 663
-367.188 -414.062 773
203.125 -203.125 862
-101.562 78.125 739
203.125 -218.75 871
210.938 46.875 728
-484.375 -203.125 783
-289.062 -257.812 716
-109.375 289.062 654
203.125 -250 894
109.375 398.438 600
-304.688 351.562 642
-132.812 226.562 655
-281.25 -320.312 790
-164.062 -132.812 759
-132.812 203.125 690
-23.4375 85.9375 663
-132.812 -156.25 713
203.125 -210.938 867
-375 7.8125 682
-281.25 -304.688 789
367.188 -46.875 962
359.375 -70.3125 975
-468.75 -304.688 739
421.875 7.8125 903
-273.438 -156.25 739
-23.4375 70.3125 736
-15.625 140.625 657
-62.5 406.25 620
-125 234.375 650
-265.625 -132.812 741
179.688 406.25 596
171.875 359.375 609
367.188 -148.438 1028
179.688 367.188 606
335.938 -453.125 2541
-328.125 -156.25 738
-179.688 -195.312 769
179.688 -460.938 2618
-132.812 210.938 686
296.875 -421.875 2598
-250 -109.375 744
23.4375 390.625 609
-375 -273.438 746
210.938 -234.375 885
-351.562 -406.25 774
187.5 117.188 700
203.125 23.4375 741
203.125 0 749
203.125 -234.375 882
-218.75 -101.562 734
187.5 156.25 683
203.125 -156.25 831
203.125 -242.188 889
-54.6875 250 666
-414.062 -421.875 766
437.5 23.4375 915
-140.625 242.188 642
-218.75 -109.375 736
-54.6875 218.75 654
250 -460.938 2579
-414.062 -54.6875 634
-453.125 -164.062 805
328.125 -453.125 2541
203.125 -226.562 878
125 406.25 601
-273.438 -125 774
-375 -304.688 741
195.312 85.9375 713
-335.938 -132.812 875
343.75 -453.125 2541
-359.375 31.25 704
-273.438 -148.438 739
-46.875 93.75 661
203.125 -281.25 918
195.312 62.5 723
-320.312 -195.312 811
-117.188 210.938 661
-406.25 -273.438 739
-421.875 -140.625 896
-156.25 -156.25 787
-257.812 -15.625 711
-226.562 -62.5 684
-281.25 -289.062 792
-445.312 -109.375 638
-85.9375 265.625 627
-398.438 -31.25 650
-335.938 -398.438 774
171.875 445.312 652
195.312 101.562 706
-132.812 187.5 696
-359.375 93.75 734
-445.312 23.4375 667
375 -132.812 1019
-210.938 -171.875 789
-382.812 -414.062 741
-437.5 -93.75 629
-156.25 -179.688 769
179.688 375 601
-414.062 390.625 787
195.312 -125 815
-328.125 -273.438 761
-257.812 -101.562 750
390.625 -132.812 1013
203.125 15.625 744
-203.125 -93.75 686
-156.25 375 625
-429.688 -85.9375 627
-148.438 -125 696
-78.125 281.25 625
179.688 257.812 646
179.688 242.188 652
-156.25 -140.625 766
-460.938 -70.3125 623
-429.688 -296.875 733
-7.8125 117.188 659
-421.875 -281.25 736
-375 117.188 744
460.938 125 860
62.5 445.312 680
367.188 -54.6875 970
-242.188 -78.125 686
171.875 343.75 615
-445.312 -351.562 733
-375 -335.938 742
-296.875 -359.375 783
-132.812 -148.438 708
-62.5 242.188 650
-7.8125 210.938 659
-125 242.188 641
-187.5 -210.938 761
-281.25 -218.75 727
164.062 460.938 730
-437.5 -54.6875 616
-304.688 -226.562 722
203.125 7.8125 747
-289.062 -320.312 783
-445.312 328.125 661
171.875 351.562 612
7.8125 414.062 644
-156.25 -187.5 757
-85.9375 101.562 664
-289.062 -343.75 790
-109.375 164.062 666
195.312 234.375 654
-468.75 -46.875 619
195.312 -460.938 2598
-421.875 -304.688 733
195.312 54.6875 727
203.125 -265.625 906
460.938 343.75 759
375 -148.438 1025
-257.812 -117.188 746
-156.25 -148.438 710
-140.625 210.938 686
23.4375 156.25 684
-265.625 -132.812 744
-70.3125 210.938 654
-7.8125 187.5 657
-320.312 -242.188 716
-460.938 -78.125 625
-281.25 -226.562 723
-171.875 265.625 666
-328.125 -179.688 817
-101.562 132.812 684
-125 250 641
179.688 359.375 608
179.688 343.75 614
-78.125 195.312 650
-320.312 -156.25 734
-351.562 -367.188 759
421.875 187.5 831
-195.312 367.188 629
-23.4375 132.812 657
-289.062 -335.938 790
218.75 15.625 742
203.125 -179.688 845
-39.0625 70.3125 741
367.188 -70.3125 975
187.5 343.75 613
-62.5 218.75 655
-164.062 -132.812 698
-281.25 -234.375 720
-445.312 -46.875 616
-335.938 -164.062 894
-335.938 -375 769
-328.125 -257.812 719
-226.562 -54.6875 683
-125 187.5 664
195.312 -54.6875 776
-101.562 382.812 620
-148.438 164.062 706
203.125 -460.938 2579
179.688 234.375 654
179.688 265.625 643
-117.188 218.75 658
-109.375 187.5 655
-46.875 210.938 659
-398.438 -257.812 746
39.0625 125 694
343.75 -85.9375 984
-7.8125 226.562 672
-257.812 -312.5 827
-445.312 -39.0625 619
179.688 335.938 616
-46.875 117.188 652
-46.875 117.188 652
-335.938 398.438 739
-39.0625 93.75 661
-296.875 -328.125 783
203.125 78.125 716
-31.25 132.812 654
187.5 187.5 671
195.312 -242.188 889
-125 289.062 653
-148.438 289.062 655
-85.9375 210.938 650
-437.5 -93.75 630
-156.25 -164.062 776
-414.062 -54.6875 649
195.312 70.3125 719
-140.625 218.75 682
453.125 39.0625 908
312.5 148.438 860
-250 -156.25 781
203.125 -7.8125 752
-195.312 -109.375 752
-429.688 -304.688 733
-242.188 -93.75 741
320.312 -85.9375 987
-273.438 -210.938 731
-320.312 -62.5 829
367.188 -78.125 981
-132.812 148.438 679
-312.5 -164.062 738
31.25 414.062 627
-429.688 -7.8125 644
367.188 -125 1013
203.125 85.9375 711
187.5 101.562 706
-39.0625 156.25 667
171.875 328.125 620
-171.875 250 671
-429.688 -78.125 628
164.062 406.25 595
-445.312 -54.6875 616
-398.438 -164.062 807
-226.562 -109.375 734
-164.062 -125 698
171.875 320.312 622
-70.3125 140.625 655
210.938 -109.375 805
187.5 234.375 654
-101.562 195.312 653
-164.062 7.8125 778
-492.188 -296.875 744
-281.25 -164.062 734
375 -109.375 1001
-390.625 -15.625 675
335.938 -70.3125 978
-296.875 -304.688 783
437.5 -250 727
203.125 54.6875 727
-31.25 156.25 667
-335.938 -351.562 761
-156.25 140.625 716
-250 -132.812 742
304.688 -453.125 2560
-257.812 -171.875 771
375 -15.625 898
-335.938 -296.875 759
-351.562 -406.25 783
-85.9375 281.25 625
328.125 -117.188 1004
-132.812 -171.875 720
-421.875 -70.3125 641
171.875 312.5 625
-195.312 -117.188 752
-265.625 -187.5 734
-460.938 -62.5 620
-218.75 -85.9375 686
-273.438 -132.812 741
187.5 62.5 723
406.25 101.562 878
203.125 -289.062 923
351.562 7.8125 928
-156.25 -7.8125 774
179.688 218.75 659
-289.062 -250 713
-312.5 -359.375 778
-156.25 -171.875 766
179.688 320.312 622
-281.25 -203.125 730
-343.75 -156.25 894
382.812 -62.5 878
-421.875 -195.312 766
-312.5 -85.9375 700
-460.938 -46.875 618
187.5 265.625 641
140.625 -445.312 2680
367.188 -62.5 973
-85.9375 250 643
-265.625 -265.625 720
-453.125 70.3125 710
195.312 78.125 716
-125 210.938 661
203.125 -273.438 910
-414.062 -281.25 738
375 -156.25 1028
203.125 23.4375 741
-132.812 304.688 649
367.188 -85.9375 987
187.5 93.75 710
-375 -210.938 764
203.125 -218.75 871
179.688 437.5 736
-304.688 -367.188 789
-281.25 -296.875 798
-195.312 -93.75 686
203.125 46.875 730
-125 -164.062 716
-265.625 -195.312 734
-328.125 343.75 644
-289.062 -85.9375 693
-85.9375 218.75 653
-156.25 -156.25 783
-54.6875 203.125 654
187.5 257.812 644
195.312 203.125 666
-335.938 117.188 741
-140.625 140.625 680
195.312 140.625 690
437.5 -257.812 725
-390.625 -39.0625 682
-335.938 -250 717
0 15.625 761
203.125 -46.875 774
-62.5 -304.688 959
-23.4375 218.75 676
-15.625 70.3125 738
171.875 335.938 615
-281.25 -234.375 720
-390.625 -234.375 752
-296.875 -187.5 730
-429.688 -367.188 728
203.125 -226.562 878
187.5 203.125 666
-406.25 -242.188 747
210.938 -257.812 896
203.125 31.25 736
-125 171.875 701
375 -85.9375 984
-203.125 125 728
304.688 296.875 790
-328.125 -85.9375 711
-312.5 -218.75 722
187.5 78.125 716
-273.438 -304.688 805
-406.25 -39.0625 652
-312.5 -226.562 720
-39.0625 85.9375 664
-476.562 -39.0625 620
-226.562 -93.75 686
-289.062 -171.875 734
-390.625 335.938 653
15.625 179.688 688
-31.25 179.688 668
-289.062 -93.75 693
171.875 429.688 623
-31.25 101.562 659
250 429.688 738
-164.062 -187.5 762
-375 -281.25 746
-445.312 -375 723
-445.312 46.875 686
203.125 -296.875 928
-429.688 -78.125 628
-15.625 187.5 659
-23.4375 210.938 680
-148.438 273.438 636
-320.312 -273.438 767
-414.062 -289.062 738
-140.625 -78.125 704
-46.875 117.188 652
-39.0625 117.188 652
-140.625 195.312 693
-257.812 -125 746
-273.438 -210.938 731
171.875 421.875 601
-382.812 85.9375 725
-351.562 46.875 736
179.688 304.688 628
-250 -148.438 744
187.5 218.75 659
-78.125 132.812 658
-242.188 -78.125 686
-250 -101.562 741
-148.438 140.625 680
-39.0625 78.125 664
187.5 226.562 655
-273.438 -265.625 719
375 -140.625 1019
-296.875 -78.125 694
-31.25 195.312 664
367.188 -109.375 1001
-328.125 -382.812 776
-429.688 85.9375 727
-93.75 164.062 662
382.812 -78.125 862
-351.562 -242.188 761
-117.188 148.438 680
210.938 -62.5 781
-343.75 -226.562 773
-46.875 93.75 661
234.375 -460.938 2579
-257.812 -117.188 746
-195.312 -117.188 752
179.688 328.125 620
187.5 335.938 616
203.125 -210.938 867
421.875 195.312 829
195.312 46.875 730
-289.062 -265.625 713
359.375 -31.25 954
203.125 -23.4375 761
203.125 -250 894
-62.5 203.125 654
-328.125 -390.625 781
179.688 312.5 625
187.5 31.25 736
-468.75 -328.125 736
187.5 250 648
-382.812 -296.875 742
179.688 296.875 631
-335.938 -171.875 823
-359.375 85.9375 727
-156.25 234.375 678
-195.312 -109.375 752
257.812 -460.938 2579
203.125 -171.875 839
203.125 15.625 742
-273.438 15.625 785
-312.5 -109.375 707
359.375 -23.4375 946
-85.9375 132.812 661
-335.938 54.6875 766
375 -164.062 1038
-460.938 -242.188 746
-312.5 -242.188 717
-468.75 117.188 752
-148.438 265.625 634
367.188 -453.125 2503
187.5 70.3125 720
-164.062 242.188 674
23.4375 148.438 684
195.312 39.0625 733
-460.938 -70.3125 623
320.312 15.625 928
-289.062 -250 713
-312.5 -101.562 703
367.188 -101.562 995
-382.812 0 690
-250 -117.188 741
-437.5 -54.6875 618
-320.312 -226.562 719
437.5 226.562 813
-140.625 203.125 688
-15.625 140.625 658
-367.188 23.4375 708
195.312 -273.438 910
-70.3125 242.188 650
-109.375 93.75 734
-484.375 -320.312 742
-46.875 117.188 652
-132.812 257.812 636
-117.188 226.562 657
359.375 -39.0625 956
-351.562 -203.125 783
-328.125 -250 719
-234.375 -132.812 736
171.875 296.875 631
289.062 -234.375 2333
-85.9375 242.188 649
-101.562 187.5 654
-93.75 250 643
-171.875 -125 698
-226.562 -93.75 686
-164.062 -140.625 767
-78.125 437.5 690
-421.875 -429.688 762
-257.812 -93.75 687
0 148.438 687
304.688 242.188 817
210.938 -460.938 2579
-46.875 93.75 661
359.375 -93.75 989
187.5 -46.875 774
-445.312 -281.25 734
-226.562 -101.562 736
-398.438 -281.25 741
187.5 210.938 663
-265.625 15.625 785
-195.312 -85.9375 687
-476.562 -187.5 787
187.5 195.312 668
-335.938 -304.688 755
203.125 -117.188 809
328.125 0 938
-164.062 179.688 700
-117.188 171.875 666
-39.0625 203.125 661
-390.625 -156.25 805
226.562 -156.25 829
-468.75 -46.875 619
179.688 421.875 601
-320.312 -179.688 739
-171.875 296.875 653
-289.062 -78.125 693
367.188 -39.0625 956
375 -171.875 1041
-62.5 164.062 662
-500 -375 755
-375 7.8125 694
-500 31.25 674
187.5 242.188 652
-289.062 -101.562 693
187.5 -109.375 805
-304.688 -101.562 701
-500 -187.5 794
171.875 414.062 596
-265.625 -203.125 752
-140.625 187.5 697
-414.062 -296.875 736
-414.062 -375 731
-140.625 -234.375 915
132.812 -304.688 938
203.125 -257.812 898
-62.5 234.375 655
375 -453.125 2541
-398.438 -296.875 739
265.625 -460.938 2560
-226.562 -85.9375 686
-414.062 -421.875 764
179.688 296.875 631
187.5 85.9375 713
-304.688 -70.3125 704
203.125 -242.188 889
-187.5 62.5 754
468.75 -125 769
-39.0625 93.75 661
-187.5 -101.562 687
-281.25 -226.562 723
195.312 101.562 706
-125 257.812 640
-39.0625 257.812 662
187.5 39.0625 734
171.875 304.688 629
492.188 -46.875 805
210.938 78.125 716
-437.5 -367.188 727
-164.062 -195.312 754
-312.5 -367.188 781
-414.062 -46.875 648
343.75 296.875 790
164.062 390.625 601
-250 -101.562 741
-234.375 -117.188 736
187.5 320.312 622
-429.688 -78.125 628
-320.312 -382.812 781
-101.562 226.562 658
-23.4375 156.25 672
-78.125 171.875 657
226.562 -460.938 2579
359.375 -453.125 2503
-492.188 -320.312 746
-46.875 85.9375 664
7.8125 195.312 655
171.875 289.062 635
-414.062 -234.375 749
-445.312 -359.375 728
203.125 7.8125 746
187.5 -54.6875 776
-359.375 101.562 739
-31.25 93.75 662
-500 -359.375 747
187.5 203.125 666
-312.5 -234.375 719
187.5 109.375 704
-203.125 -109.375 752
-187.5 -109.375 687
-109.375 101.562 731
179.688 179.688 675
359.375 -46.875 962
-54.6875 171.875 661
-62.5 226.562 657
-7.8125 210.938 657
-171.875 273.438 663
-414.062 -179.688 780
-320.312 -125 731
-140.625 210.938 686
-93.75 -203.125 887
187.5 -125 815
-304.688 -250 720
367.188 -93.75 992
-203.125 -101.562 687
179.688 429.688 601
179.688 320.312 622
-226.562 -109.375 734
-23.4375 70.3125 739
-421.875 -62.5 641
367.188 -15.625 943
218.75 -109.375 805
140.625 -304.688 938
-148.438 -15.625 774
203.125 31.25 736
-234.375 -109.375 734
-445.312 -101.562 635
-171.875 -203.125 755
-226.562 -101.562 736
187.5 -70.3125 787
-132.812 273.438 637
203.125 -234.375 882
187.5 46.875 730
-132.812 203.125 688
-289.062 -242.188 716
-62.5 296.875 647
218.75 -460.938 2598
-140.625 -39.0625 764
-351.562 -179.688 802
-257.812 -164.062 741
187.5 -132.812 821
203.125 -7.8125 752
-117.188 156.25 682
-343.75 -164.062 827
-343.75 -398.438 776
-304.688 -304.688 778
-343.75 -273.438 757
312.5 15.625 928
148.438 -304.688 938
187.5 179.688 675
328.125 -54.6875 967
-492.188 -375 755
-257.812 -195.312 759
-132.812 234.375 649
367.188 -117.188 1007
195.312 -7.8125 754
-476.562 101.562 749
187.5 -78.125 789
195.312 -296.875 928
-437.5 -93.75 630
-171.875 257.812 668
476.562 -351.562 652
296.875 343.75 769
187.5 -140.625 825
-445.312 -62.5 619
-78.125 226.562 655
187.5 -85.9375 792
-250 -78.125 686
-46.875 78.125 664
39.0625 148.438 682
-421.875 -281.25 736
203.125 -281.25 915
179.688 203.125 666
-117.188 250 642
195.312 171.875 678
179.688 250 649
242.188 -460.938 2560
-85.9375 132.812 661
187.5 328.125 619
187.5 -101.562 802
187.5 23.4375 739
-101.562 125 663
-140.625 195.312 693
-304.688 -367.188 789
-296.875 -343.75 787
-23.4375 140.625 657
-195.312 -101.562 686
-328.125 -171.875 739
-281.25 -156.25 736
-328.125 -164.062 734
-23.4375 203.125 662
429.688 203.125 825
-312.5 -312.5 769
-289.062 -273.438 790
171.875 406.25 596
195.312 0 750
-234.375 -62.5 684
-93.75 132.812 663
187.5 148.438 687
-46.875 195.312 661
164.062 382.812 601
-429.688 -273.438 736
-171.875 156.25 711
187.5 0 752
187.5 -148.438 827
-39.0625 70.3125 741
265.625 -23.4375 956
-320.312 -265.625 716
195.312 -23.4375 762
-23.4375 78.125 734
179.688 414.062 596
-367.188 109.375 744
187.5 187.5 671
-351.562 -375 761
187.5 171.875 678
-179.688 -117.188 754
203.125 15.625 742
39.0625 132.812 691
-23.4375 132.812 657
203.125 39.0625 733
-335.938 -125 731
164.062 367.188 606
-437.5 367.188 739
460.938 -39.0625 839
-234.375 -85.9375 688
187.5 -179.688 845
179.688 265.625 643
-125 265.625 638
-281.25 -226.562 723
-140.625 265.625 635
-265.625 -187.5 734
281.25 -460.938 2560
-250 -140.625 744
359.375 -101.562 995
-312.5 -273.438 773
-39.0625 171.875 667
-164.062 -148.438 773
179.688 195.312 668
-226.562 -93.75 686
-7.8125 218.75 658
203.125 23.4375 741
156.25 -304.688 938
195.312 -78.125 790
-445.312 -273.438 738
-203.125 -117.188 752
-398.438 -23.4375 671
-429.688 -304.688 733
164.062 375 603
-226.562 -109.375 734
-148.438 242.188 641
-390.625 -304.688 739
-328.125 -93.75 711
-484.375 -281.25 744
-109.375 140.625 680
-187.5 -195.312 769
-109.375 164.062 666
187.5 -171.875 841
-171.875 23.4375 771
179.688 273.438 640
156.25 406.25 595
-312.5 -375 783
-218.75 -54.6875 682
-171.875 -195.312 764
-445.312 23.4375 666
-500 -7.8125 641
-164.062 -140.625 767
187.5 -23.4375 762
-289.062 -85.9375 693
-296.875 -265.625 714
-437.5 93.75 734
-281.25 -218.75 728
335.938 -265.625 2365
187.5 15.625 744
-203.125 -109.375 752
-273.438 -203.125 733
-93.75 125 663
-468.75 -62.5 621
250 -460.938 2560
-335.938 -117.188 730
-93.75 304.688 644
179.688 171.875 678
195.312 7.8125 747
-492.188 -203.125 781
-382.812 0 690
-281.25 -187.5 733
15.625 164.062 694
-156.25 226.562 680
484.375 -351.562 647
453.125 7.8125 889
179.688 164.062 682
-406.25 -125 882
210.938 -148.438 827
-406.25 -39.0625 652
187.5 164.062 682
-445.312 -101.562 635
-460.938 -78.125 625
-132.812 -460.938 2723
-250 -125 741
-250 -62.5 688
210.938 -140.625 821
437.5 -125 783
-257.812 -148.438 742
187.5 -156.25 831
492.188 -156.25 725
-46.875 70.3125 722
-23.4375 62.5 742
-7.8125 -460.938 2701
476.562 -101.562 783
-421.875 -187.5 771
195.312 -70.3125 785
-437.5 -85.9375 627
-117.188 164.062 667
-93.75 -460.938 2723
-367.188 -265.625 750
343.75 -453.125 2541
-70.3125 164.062 659
-140.625 -46.875 761
-171.875 -132.812 759
210.938 195.312 670
-382.812 93.75 733
-109.375 250 649
-46.875 179.688 662
382.812 -70.3125 862
-78.125 156.25 664
-335.938 -382.812 774
375 -171.875 1041
-281.25 -304.688 796
210.938 -39.0625 769
179.688 289.062 634
-437.5 -46.875 618
-117.188 242.188 650
492.188 -109.375 757
-359.375 78.125 719
-367.188 -257.812 752
-273.438 -140.625 739
-156.25 273.438 661
-296.875 -179.688 733
-164.062 -179.688 766
367.188 -23.4375 948
421.875 -132.812 790
171.875 398.438 597
-140.625 257.812 635
-125 -460.938 2744
203.125 -7.8125 752
203.125 -15.625 755
195.312 -31.25 766
187.5 140.625 691
-421.875 -31.25 632
31.25 -460.938 2723
-265.625 -179.688 739
101.562 -304.688 940
-390.625 -7.8125 675
-359.375 70.3125 716
-460.938 70.3125 710
-218.75 117.188 733
187.5 132.812 693
-250 -78.125 686
-132.812 250 636
-289.062 -250 713
171.875 257.812 646
-343.75 -109.375 860
-320.312 -218.75 722
203.125 -23.4375 761
164.062 406.25 595
179.688 265.625 643
195.312 -46.875 773
-148.438 226.562 680
218.75 -164.062 837
-203.125 -101.562 687
-226.562 -117.188 736
187.5 125 696
179.688 398.438 598
187.5 -109.375 805
-281.25 -140.625 739
-320.312 -78.125 716
-257.812 -46.875 694
195.312 -54.6875 776
179.688 351.562 611
-54.6875 93.75 661
-242.188 -117.188 738
187.5 -164.062 837
-125 -117.188 707
187.5 117.188 700
-421.875 -62.5 641
-335.938 -132.812 734
-31.25 179.688 668
-210.938 -93.75 687
-125 296.875 650
210.938 -85.9375 790
-429.688 -15.625 640
187.5 -210.938 869
195.312 -93.75 796
-140.625 187.5 697
-140.625 203.125 688
171.875 250 649
140.625 -304.688 938
195.312 148.438 687
125 406.25 599
-343.75 -187.5 800
-171.875 -132.812 759
375 -179.688 1047
-492.188 -242.188 757
203.125 -187.5 851
-343.75 -242.188 717
15.625 156.25 687
23.4375 -460.938 2701
195.312 156.25 683
203.125 62.5 722
-484.375 -179.688 787
257.812 -460.938 2579
-289.062 -328.125 790
-476.562 -312.5 741
273.438 -460.938 2560
179.688 187.5 671
367.188 -85.9375 987
210.938 -132.812 819
-140.625 -70.3125 747
-421.875 -429.688 762
171.875 437.5 623
-242.188 -78.125 686
226.562 -109.375 805
187.5 312.5 625
-125 226.562 655
-62.5 226.562 657
195.312 -39.0625 769
-320.312 -39.0625 817
187.5 54.6875 727
-273.438 -195.312 733
-304.688 -195.312 727
187.5 -218.75 871
-359.375 39.0625 716
-140.625 171.875 703
-335.938 -148.438 734
-296.875 -312.5 783
-437.5 -85.9375 627
320.312 148.438 860
187.5 -195.312 860
187.5 304.688 628
-203.125 -93.75 687
-109.375 132.812 682
-281.25 -218.75 728
-382.812 -210.938 762
-312.5 -218.75 722
187.5 289.062 632
179.688 226.562 655
-289.062 -242.188 716
-140.625 148.438 680
-468.75 -70.3125 624
-312.5 -203.125 723
-46.875 109.375 654
-281.25 -85.9375 691
164.062 359.375 608
-312.5 -250 717
179.688 250 649
-390.625 -296.875 741
-140.625 304.688 649
-93.75 93.75 666
-343.75 -164.062 827
171.875 265.625 643
-179.688 250 672
-453.125 -296.875 733
-101.562 164.062 663
375 -164.062 1038
406.25 210.938 823
359.375 -156.25 1031
-148.438 -460.938 2723
-476.562 -351.562 741
-335.938 -156.25 734
289.062 -460.938 2560
-289.062 -429.688 2835
179.688 156.25 684
-46.875 -312.5 967
195.312 -62.5 781
390.625 70.3125 894
351.562 -453.125 2522
195.312 -171.875 841
-351.562 -234.375 766
179.688 132.812 694
187.5 -226.562 878
-164.062 -148.438 773
-31.25 117.188 655
-132.812 234.375 649
-140.625 -54.6875 757
-203.125 -117.188 752
-328.125 -390.625 781
-179.688 265.625 666
-234.375 -125 736
-164.062 -453.125 2723
-343.75 -390.625 773
-421.875 -406.25 755
179.688 390.625 599
-164.062 -109.375 693
335.938 -117.188 1004
-54.6875 164.062 666
-414.062 -46.875 657
-101.562 234.375 653
179.688 210.938 662
296.875 335.938 774
195.312 -85.9375 792
-289.062 -281.25 796
-226.562 -140.625 769
-117.188 187.5 657
382.812 -93.75 845
-187.5 -109.375 693
289.062 265.625 805
367.188 -31.25 951
187.5 -7.8125 754
187.5 148.438 687
-328.125 -140.625 736
-257.812 -156.25 780
-140.625 296.875 652
195.312 -156.25 829
-320.312 -132.812 734
-289.062 -171.875 734
-39.0625 -312.5 962
195.312 -101.562 800
-343.75 -218.75 781
-273.438 -218.75 742
187.5 -250 894
187.5 -250 894
265.625 -460.938 2560
187.5 171.875 676
164.062 351.562 612
195.312 140.625 690
367.188 -132.812 1016
-226.562 -93.75 686
367.188 -453.125 2503
187.5 -187.5 851
-46.875 93.75 662
-54.6875 140.625 653
-164.062 -164.062 778
187.5 -242.188 889
367.188 -78.125 978
-273.438 -78.125 688
187.5 -460.938 2618
156.25 -304.688 935
492.188 -78.125 780
179.688 281.25 636
-164.062 -171.875 761
148.438 -304.688 935
187.5 -39.0625 767
-93.75 242.188 650
-117.188 171.875 663
-320.312 -226.562 720
406.25 -140.625 789
195.312 -132.812 819
-289.062 -312.5 794
195.312 -78.125 789
-281.25 -148.438 741
-335.938 -210.938 734
164.062 328.125 619
-132.812 289.062 654
367.188 -101.562 992
-171.875 -132.812 696
-62.5 218.75 659
187.5 -234.375 882
-406.25 -265.625 742
-132.812 242.188 647
351.562 -101.562 992
-421.875 -296.875 734
-7.8125 -101.562 817
195.312 -164.062 835
-164.062 -156.25 781
-156.25 234.375 680
-148.438 -101.562 706
-429.688 -70.3125 635
367.188 -140.625 1019
-351.562 -148.438 889
187.5 -281.25 915
-390.625 -320.312 742
187.5 -296.875 928
375 -187.5 1047
-46.875 117.188 652
132.812 -304.688 938
179.688 -304.688 933
187.5 7.8125 747
-367.188 117.188 742
-445.312 -273.438 738
-335.938 -179.688 831
-148.438 -23.4375 776
125 -304.688 940
-328.125 62.5 767
-46.875 62.5 742
484.375 -320.312 642
484.375 -320.312 642
187.5 -273.438 910
195.312 -195.312 856
187.5 156.25 683
-125 265.625 638
359.375 0 933
-304.688 -296.875 781
-421.875 -421.875 764
7.8125 179.688 690
54.6875 179.688 687
-62.5 179.688 659
-15.625 171.875 697
15.625 171.875 693
187.5 164.062 680
-39.0625 132.812 653
117.188 125 701
-39.0625 125 653
-85.9375 125 657
-242.188 125 730
-304.688 125 734
46.875 140.625 703
23.4375 140.625 684
125 148.438 693
187.5 234.375 653
-70.3125 234.375 659
-453.125 234.375 697
93.75 234.375 661
-468.75 242.188 696
210.938 242.188 823
31.25 226.562 668
-15.625 218.75 655
-132.812 187.5 664
140.625 187.5 675
39.0625 187.5 683
23.4375 195.312 682
-140.625 195.312 693
54.6875 210.938 671
281.25 210.938 835
-93.75 210.938 652
85.9375 203.125 675
23.4375 203.125 679
23.4375 15.625 757
-375 15.625 708
-453.125 15.625 661
210.938 23.4375 742
62.5 23.4375 749
0 23.4375 757
-445.312 23.4375 666
0 0 769
23.4375 0 764
-148.438 7.8125 776
132.812 7.8125 750
78.125 7.8125 755
-187.5 7.8125 776
203.125 46.875 728
-148.438 54.6875 754
-281.25 54.6875 766
-15.625 39.0625 750
-398.438 39.0625 682
-7.8125 31.25 754
-484.375 31.25 674
-62.5 62.5 744
-234.375 62.5 761
-203.125 62.5 757
-289.062 62.5 764
-421.875 62.5 703
-468.75 62.5 704
-250 70.3125 757
-140.625 70.3125 749
-31.25 70.3125 741
-359.375 70.3125 728
70.3125 78.125 723
-187.5 78.125 747
-218.75 78.125 749
7.8125 85.9375 728
-195.312 85.9375 744
-132.812 85.9375 739
-304.688 85.9375 754
-320.312 85.9375 754
-39.0625 117.188 653
-54.6875 117.188 652
-343.75 117.188 741
265.625 117.188 878
203.125 117.188 698
-171.875 109.375 731
-31.25 109.375 659
-437.5 109.375 752
-398.438 109.375 750
179.688 109.375 704
-23.4375 93.75 728
-78.125 93.75 662
-164.062 93.75 738
-242.188 93.75 746
-343.75 93.75 750
31.25 101.562 719
-78.125 101.562 658
-7.8125 101.562 723
-171.875 101.562 736
-351.562 101.562 744
-312.5 101.562 746
-398.438 101.562 744
179.688 382.812 600
0 382.812 612
62.5 375 611
-54.6875 375 619
-500 398.438 778
0 398.438 609
-70.3125 390.625 614
164.062 414.062 596
195.312 414.062 749
257.812 421.875 739
-429.688 421.875 771
-421.875 421.875 771
257.812 460.938 723
93.75 273.438 646
31.25 273.438 650
-39.0625 273.438 657
-445.312 273.438 680
398.438 265.625 798
-476.562 265.625 686
-476.562 257.812 690
85.9375 257.812 653
-132.812 257.812 640
-93.75 250 646
-125 250 646
23.4375 250 659
85.9375 281.25 643
-23.4375 281.25 650
-93.75 281.25 625
7.8125 281.25 649
70.3125 289.062 641
-460.938 296.875 671
-93.75 296.875 625
-117.188 296.875 650
-273.438 296.875 659
-359.375 296.875 664
-492.188 304.688 672
-437.5 304.688 668
164.062 335.938 615
-351.562 335.938 649
-289.062 335.938 644
93.75 312.5 632
15.625 312.5 636
-281.25 312.5 653
210.938 320.312 787
-375 320.312 657
398.438 359.375 755
-179.688 359.375 630
-250 367.188 636
-304.688 343.75 643
-390.625 343.75 655
-140.625 343.75 632
-125 351.562 631
-203.125 -125 754
-179.688 -125 696
-171.875 -125 696
-85.9375 -125 837
-351.562 -117.188 869
-7.8125 -117.188 827
-148.438 -109.375 700
-257.812 -109.375 742
0 -109.375 823
23.4375 -109.375 821
78.125 -109.375 813
242.188 -109.375 1007
-242.188 -109.375 736
-226.562 -101.562 755
15.625 -101.562 817
31.25 -101.562 815
62.5 -101.562 813
-78.125 -101.562 827
-281.25 -101.562 785
93.75 -93.75 803
0 -93.75 813
23.4375 -93.75 809
-210.938 -93.75 686
-117.188 -93.75 825
-359.375 -93.75 856
-359.375 -85.9375 851
-226.562 -85.9375 686
-250 -85.9375 686
46.875 -78.125 802
7.8125 -78.125 805
-15.625 -78.125 807
-250 -78.125 686
-257.812 -78.125 686
-406.25 -78.125 658
-382.812 -78.125 847
109.375 -70.3125 790
62.5 -70.3125 796
-109.375 -70.3125 811
-39.0625 -70.3125 805
-429.688 -70.3125 635
-265.625 -70.3125 687
-421.875 -54.6875 649
-445.312 -54.6875 620
-125 -54.6875 803
-78.125 -54.6875 800
-250 -54.6875 691
203.125 -54.6875 774
101.562 -62.5 785
-7.8125 -62.5 798
7.8125 -46.875 789
15.625 -46.875 787
93.75 -46.875 780
85.9375 -46.875 780
203.125 -39.0625 769
156.25 -39.0625 771
54.6875 -39.0625 780
62.5 -39.0625 780
210.938 -23.4375 757
-429.688 -23.4375 637
-398.438 -23.4375 682
-406.25 -31.25 666
-398.438 -31.25 680
-445.312 -31.25 624
-7.8125 -31.25 783
31.25 -15.625 769
-390.625 -15.625 690
-421.875 -15.625 646
-375 -15.625 704
-156.25 -15.625 774
-117.188 -15.625 785
-101.562 -7.8125 780
-125 -7.8125 781
-93.75 -7.8125 778
-421.875 -7.8125 647
-226.562 -203.125 767
-210.938 -203.125 767
-179.688 -203.125 755
-132.812 -203.125 728
-351.562 -195.312 794
-484.375 -195.312 780
-54.6875 -210.938 891
46.875 -210.938 880
-125 -210.938 896
-93.75 -210.938 894
-210.938 -210.938 762
-281.25 -218.75 734
-203.125 -218.75 759
-210.938 -218.75 759
-125 -218.75 903
-164.062 -242.188 925
-226.562 -242.188 938
-15.625 -242.188 906
-289.062 -242.188 713
-281.25 -250 714
-156.25 -250 930
-93.75 -250 923
-70.3125 -250 920
-390.625 -250 750
-234.375 -226.562 762
-156.25 -226.562 747
-132.812 -226.562 910
-93.75 -226.562 906
-46.875 -226.562 898
-312.5 -226.562 720
-289.062 -234.375 731
-148.438 -234.375 915
-85.9375 -234.375 908
62.5 -140.625 835
-296.875 -140.625 759
-78.125 -140.625 847
-171.875 -140.625 766
-351.562 -132.812 878
-31.25 -132.812 839
-226.562 -132.812 766
101.562 -132.812 827
218.75 -148.438 831
15.625 -148.438 843
-54.6875 -148.438 849
-70.3125 -148.438 851
-476.562 -148.438 910
234.375 -156.25 1041
-164.062 -156.25 781
-179.688 -156.25 773
218.75 -187.5 849
-164.062 -187.5 754
-117.188 -187.5 885
226.562 -179.688 841
23.4375 -179.688 862
70.3125 -179.688 858
304.688 -179.688 1050
-117.188 -179.688 722
-140.625 -179.688 723
-234.375 -179.688 780
273.438 -171.875 1047
-23.4375 -171.875 862
-39.0625 -171.875 862
-125 -171.875 722
-164.062 -171.875 761
-226.562 -171.875 787
-156.25 -164.062 714
-117.188 -164.062 720
-468.75 -164.062 811
171.875 -265.625 906
-39.0625 -265.625 925
-156.25 -265.625 943
-335.938 -265.625 719
-320.312 -265.625 720
-320.312 -257.812 720
-101.562 -257.812 925
-179.688 -257.812 940
-171.875 -257.812 938
-437.5 -257.812 739
-281.25 -257.812 713
-312.5 -257.812 720
-109.375 -281.25 948
-23.4375 -281.25 938
-148.438 -281.25 954
-304.688 -281.25 781
-429.688 -281.25 738
101.562 -281.25 925
-93.75 -273.438 938
-125 -273.438 943
-179.688 -273.438 951
-242.188 -273.438 962
-281.25 -273.438 713
-304.688 -273.438 783
-335.938 -312.5 761
-250 -304.688 989
-351.562 -304.688 754
85.9375 -304.688 940
109.375 -304.688 943
-101.562 -304.688 964
-70.3125 -304.688 959
-15.625 -289.062 940
-78.125 -289.062 948
-117.188 -289.062 956
-351.562 -289.062 754
-414.062 -289.062 739
148.438 -289.062 925
-437.5 -296.875 733
-398.438 -296.875 741
-281.25 -296.875 803
93.75 -296.875 935
-39.0625 -359.375 2680
375 -351.562 2503
62.5 -351.562 2639
250 -375 2598
39.0625 -375 2680
-382.812 -375 754
-437.5 -367.188 727
93.75 -343.75 2618
-476.562 -343.75 736
132.812 -335.938 2579
179.688 -335.938 2560
-375 -335.938 747
-484.375 -328.125 742
-304.688 -453.125 2789
-367.188 -468.75 2744
-289.062 -468.75 2744
359.375 -382.812 2560
257.812 -382.812 2618
484.375 -382.812 652
85.9375 -382.812 2680
-62.5 -382.812 2744
-132.812 -382.812 2723
101.562 -390.625 2723
-93.75 -390.625 2789
-414.062 -406.25 734
23.4375 -406.25 2789
-484.375 -406.25 749
203.125 -398.438 2680
343.75 -398.438 2598
93.75 -429.688 2744
187.5 -414.062 2744
-500 -414.062 750
-257.812 -414.062 2908
31.25 171.875 691
46.875 179.688 687
-109.375 164.062 663
-132.812 164.062 682
382.812 156.25 849
54.6875 156.25 694
15.625 156.25 684
31.25 132.812 690
62.5 132.812 704
-210.938 125 727
-46.875 140.625 653
-54.6875 140.625 653
39.0625 140.625 703
187.5 148.438 687
-78.125 242.188 650
148.438 242.188 653
179.688 234.375 654
132.812 234.375 657
62.5 234.375 663
125 226.562 661
0 226.562 671
-7.8125 226.562 672
109.375 218.75 666
-132.812 218.75 659
54.6875 195.312 679
-39.0625 195.312 667
-78.125 187.5 654
-54.6875 187.5 659
101.562 187.5 678
46.875 203.125 676
-187.5 210.938 687
70.3125 210.938 672
203.125 210.938 663
101.562 0 755
-101.562 0 776
-93.75 0 776
-179.688 15.625 774
250 15.625 935
468.75 15.625 889
15.625 15.625 757
140.625 15.625 746
-117.188 23.4375 767
296.875 23.4375 925
70.3125 23.4375 749
-117.188 46.875 754
-382.812 46.875 697
-273.438 54.6875 766
-39.0625 54.6875 747
-226.562 54.6875 762
46.875 39.0625 746
242.188 39.0625 923
62.5 31.25 747
-140.625 31.25 766
-367.188 31.25 722
210.938 62.5 723
0 62.5 739
-164.062 62.5 752
-156.25 62.5 752
46.875 70.3125 733
-195.312 70.3125 752
-171.875 78.125 746
15.625 78.125 731
-164.062 78.125 744
-31.25 85.9375 666
-7.8125 85.9375 730
-351.562 85.9375 739
39.0625 101.562 719
210.938 109.375 701
-46.875 109.375 655
23.4375 117.188 698
-54.6875 382.812 614
148.438 390.625 601
-156.25 390.625 630
187.5 414.062 747
140.625 406.25 597
132.812 406.25 597
132.812 421.875 609
-468.75 421.875 771
242.188 437.5 733
-31.25 273.438 655
-125 273.438 636
-93.75 273.438 627
359.375 265.625 802
-500 265.625 687
31.25 250 659
-468.75 289.062 675
85.9375 289.062 641
-500 281.25 680
148.438 281.25 638
-85.9375 304.688 646
-335.938 304.688 661
46.875 312.5 634
-359.375 320.312 655
-328.125 320.312 654
-195.312 335.938 640
-218.75 335.938 641
-132.812 351.562 630
-242.188 351.562 636
-93.75 351.562 628
-351.562 351.562 649
218.75 343.75 774
-93.75 343.75 630
-195.312 343.75 636
0 367.188 618
-54.6875 359.375 623
-132.812 -218.75 906
-78.125 -210.938 894
-226.562 -210.938 764
-210.938 -195.312 774
-273.438 -203.125 739
-148.438 -250 930
-320.312 -250 719
-445.312 -226.562 749
-46.875 -234.375 903
-210.938 -132.812 761
-468.75 -140.625 903
-500 -148.438 913
-257.812 -171.875 769
-375 -171.875 803
-351.562 -187.5 803
218.75 -179.688 841
-273.438 -125 746
-109.375 -101.562 827
-445.312 -101.562 635
-437.5 -109.375 640
-273.438 -109.375 747
-148.438 -85.9375 738
-421.875 -46.875 646
-453.125 -39.0625 620
304.688 -15.625 946
-312.5 -265.625 720
-7.8125 -304.688 956
62.5 -375 2701
281.25 -375 2579
484.375 -367.188 646
335.938 -343.75 2485
-421.875 -382.812 727
-414.062 -390.625 727
-15.625 -406.25 2789
-117.188 -398.438 2789
-500 -398.438 746
-156.25 -421.875 2859
0 -429.688 2812
343.75 148.438 858
-7.8125 210.938 654
289.062 54.6875 913
-367.188 101.562 738
-375 85.9375 728
203.125 429.688 739
468.75 -375 659
-156.25 -414.062 2859
476.562 -398.438 664
-476.562 -406.25 754
46.875 -23.4375 773
171.875 156.25 686
39.0625 195.312 680
-218.75 85.9375 747
-78.125 31.25 759
281.25 390.625 752
78.125 375 610
-453.125 421.875 769
187.5 460.938 728
171.875 445.312 623
406.25 359.375 755
39.0625 359.375 616
-78.125 312.5 641
7.8125 296.875 644
-484.375 296.875 674
210.938 304.688 794
132.812 281.25 640
390.625 265.625 798
328.125 257.812 805
-289.062 -273.438 713
-382.812 -343.75 746
484.375 -375 648
476.562 -359.375 647
-171.875 -390.625 2789
304.688 -390.625 2598
-156.25 15.625 774
-281.25 -210.938 733
367.188 -359.375 2503
328.125 -359.375 2522
46.875 -429.688 2744
109.375 -406.25 2744
54.6875 421.875 632
7.8125 -406.25 2744
-109.375 398.438 627
312.5 460.938 720
-242.188 -406.25 2883
468.75 -39.0625 835
-500 -382.812 755
31.25 -390.625 2744
15.625 398.438 607
406.25 0 901
429.688 -46.875 845
437.5 -125 778
437.5 -140.625 769
-109.375 117.188 666
195.312 -140.625 823
187.5 -289.062 923
-164.062 -125 696
171.875 273.438 641
187.5 78.125 716
-39.0625 156.25 664
476.562 -179.688 728
-335.938 -164.062 736
195.312 -179.688 845
195.312 -125 813
492.188 -171.875 711
414.062 -156.25 778
179.688 117.188 700
421.875 -125 790
-171.875 -460.938 2723
-453.125 -46.875 619
-390.625 -312.5 742
-390.625 -7.8125 687
-320.312 -171.875 738
195.312 -203.125 862
187.5 62.5 722
-453.125 -289.062 734
187.5 -203.125 860
179.688 101.562 706
187.5 31.25 736
484.375 -171.875 730
460.938 -148.438 752
445.312 -187.5 734
351.562 -93.75 989
195.312 -70.3125 785
468.75 -210.938 710
375 -453.125 2522
445.312 -210.938 719
-437.5 -62.5 627
187.5 -265.625 906
476.562 -250 684
-468.75 -62.5 621
281.25 -460.938 2541
-7.8125 -312.5 959
187.5 265.625 641
367.188 -125 1013
-117.188 109.375 727
-70.3125 210.938 654
492.188 -265.625 654
-164.062 234.375 679
429.688 -46.875 845
187.5 -93.75 796
-148.438 156.25 680
-54.6875 78.125 666
-156.25 218.75 684
-195.312 -93.75 690
-445.312 -93.75 630
-437.5 -195.312 766
-351.562 -273.438 755
-156.25 -460.938 2744
-359.375 -265.625 755
-78.125 179.688 655
187.5 101.562 706
-179.688 -460.938 2723
179.688 148.438 687
195.312 117.188 698
492.188 -187.5 701
445.312 -187.5 734
-468.75 -78.125 625
195.312 -148.438 827
289.062 335.938 774
187.5 93.75 710
-257.812 -101.562 742
179.688 78.125 716
179.688 93.75 710
-382.812 -335.938 746
-484.375 62.5 703
171.875 203.125 666
273.438 -460.938 2541
289.062 -31.25 956
179.688 62.5 722
-132.812 234.375 652
-164.062 -460.938 2744
-289.062 -289.062 796
187.5 85.9375 711
187.5 -132.812 819
359.375 -54.6875 967
-445.312 -460.938 2701
187.5 273.438 638
-304.688 351.562 641
-203.125 -109.375 693
-203.125 -109.375 693
296.875 257.812 809
-320.312 -273.438 773
195.312 -226.562 875
-265.625 -15.625 708
-148.438 195.312 693
187.5 -179.688 845
62.5 -468.75 2659
-109.375 218.75 654
-468.75 -70.3125 624
-351.562 -156.25 894
187.5 -304.688 933
-257.812 359.375 636
367.188 -109.375 995
-343.75 -171.875 815
195.312 -187.5 851
335.938 359.375 761
-460.938 -359.375 728
-421.875 -156.25 805
93.75 -468.75 2659
-382.812 335.938 652
210.938 -203.125 860
-460.938 -85.9375 629
-460.938 -85.9375 629
-335.938 -101.562 710
171.875 242.188 652
351.562 -46.875 959
335.938 -453.125 2541
-453.125 -54.6875 619
187.5 70.3125 719
203.125 -46.875 773
-156.25 375 627
-312.5 351.562 642
-250 -93.75 741
195.312 -171.875 839
164.062 304.688 628
-109.375 257.812 634
437.5 -203.125 731
437.5 -125 778
-187.5 -117.188 693
187.5 242.188 650
109.375 -468.75 2639
-492.188 -335.938 746
-460.938 -320.312 736
-460.938 -320.312 736
195.312 -234.375 882
179.688 85.9375 713
-203.125 -117.188 752
-335.938 -179.688 831
195.312 101.562 706
-218.75 -93.75 686
453.125 -320.312 674
-343.75 -375 769
-265.625 -78.125 687
-421.875 328.125 659
-296.875 -281.25 790
-367.188 93.75 733
-46.875 117.188 652
-109.375 85.9375 736
78.125 398.438 602
-367.188 343.75 649
367.188 -93.75 992
187.5 125 694
78.125 -468.75 2659
-453.125 -39.0625 620
-296.875 -351.562 796
-125 242.188 650
195.312 46.875 730
171.875 226.562 657
468.75 -39.0625 835
-93.75 195.312 652
187.5 -140.625 823
-195.312 -109.375 691
-125 164.062 670
-164.062 367.188 627
-296.875 -289.062 789
187.5 250 648
-171.875 257.812 667
171.875 281.25 636
-148.438 218.75 684
-46.875 195.312 664
-257.812 -156.25 780
195.312 -210.938 867
179.688 54.6875 725
359.375 -453.125 2503
-445.312 -54.6875 620
421.875 281.25 789
-390.625 335.938 654
-179.688 -125 696
-296.875 -335.938 790
179.688 179.688 675
203.125 -78.125 789
375 -179.688 1044
-132.812 273.438 640
-70.3125 203.125 654
195.312 -250 894
195.312 -218.75 871
-109.375 226.562 657
-289.062 -304.688 794
-351.562 343.75 649
195.312 15.625 742
195.312 -195.312 856
-62.5 164.062 664
164.062 296.875 631
-187.5 375 628
-265.625 -117.188 746
-203.125 -85.9375 687
-54.6875 93.75 661
-164.062 273.438 662
-156.25 156.25 682
101.562 -468.75 2659
39.0625 -468.75 2680
-320.312 -85.9375 701
-492.188 -179.688 789
-171.875 -140.625 766
-132.812 171.875 701
421.875 406.25 736
-203.125 -109.375 693
-46.875 203.125 664
-85.9375 382.812 616
-421.875 -421.875 764
320.312 -421.875 2598
-179.688 257.812 668
-117.188 148.438 680
-78.125 148.438 667
31.25 398.438 608
195.312 39.0625 733
195.312 -257.812 896
-148.438 148.438 679
-125 148.438 680
195.312 -156.25 829
-453.125 -460.938 2701
-343.75 -156.25 736
-179.688 242.188 675
359.375 -7.8125 938
171.875 195.312 668
31.25 -468.75 2701
-171.875 -187.5 762
85.9375 -468.75 2659
375 -187.5 1047
187.5 39.0625 734
-39.0625 195.312 667
195.312 -289.062 923
187.5 242.188 650
-421.875 -54.6875 649
-437.5 78.125 719
171.875 171.875 678
54.6875 -468.75 2659
-203.125 367.188 630
-195.312 -460.938 2723
-148.438 210.938 686
132.812 -468.75 2639
-54.6875 390.625 615
-140.625 -460.938 2723
-281.25 -210.938 733
195.312 23.4375 739
-445.312 -93.75 630
179.688 351.562 610
179.688 210.938 662
-234.375 -85.9375 687
-273.438 -453.125 2789
-164.062 -164.062 778
-289.062 -453.125 2789
289.062 -460.938 2560
-468.75 -85.9375 630
179.688 343.75 613
375 -437.5 2579
-453.125 -281.25 734
-171.875 -460.938 2723
-414.062 -164.062 800
117.188 -468.75 2639
-304.688 -359.375 794
257.812 -460.938 2579
468.75 85.9375 875
156.25 -468.75 2618
187.5 23.4375 738
-187.5 -460.938 2744
210.938 -171.875 837
101.562 398.438 600
-39.0625 85.9375 666
23.4375 398.438 608
109.375 398.438 598
-375 335.938 650
-437.5 -78.125 629
242.188 -460.938 2560
85.9375 398.438 602
-445.312 328.125 659
-500 -203.125 781
-156.25 265.625 631
164.062 429.688 619
-234.375 -101.562 733
156.25 429.688 618
171.875 179.688 676
-54.6875 179.688 662
195.312 -265.625 906
-62.5 140.625 653
-234.375 -109.375 734
195.312 31.25 736
164.062 414.062 596
-7.8125 -468.75 2680
195.312 -281.25 918
-234.375 367.188 634
-101.562 296.875 650
171.875 210.938 662
-203.125 -117.188 752
125 -468.75 2618
-70.3125 226.562 658
-242.188 -125 738
148.438 -468.75 2618
179.688 31.25 736
-476.562 -46.875 619
-148.438 195.312 693
-148.438 164.062 682
-476.562 -54.6875 620
195.312 0 749
-343.75 -109.375 710
-335.938 -289.062 761
179.688 46.875 730
-132.812 195.312 664
187.5 226.562 655
187.5 234.375 653
171.875 187.5 671
156.25 382.812 600
-335.938 -109.375 710
187.5 -117.188 811
226.562 7.8125 938
-109.375 195.312 654
-437.5 85.9375 727
-242.188 -85.9375 686
-289.062 -234.375 731
-445.312 -375 722
-296.875 -343.75 792
-7.8125 390.625 610
-179.688 265.625 666
359.375 -62.5 970
-171.875 -125 696
-101.562 179.688 655
-289.062 -226.562 730
203.125 -70.3125 783
179.688 335.938 616
-343.75 343.75 646
-296.875 -93.75 694
179.688 328.125 620
179.688 70.3125 719
-289.062 -164.062 734
367.188 -164.062 1034
210.938 -164.062 835
164.062 437.5 622
-414.062 328.125 657
15.625 -468.75 2659
46.875 -468.75 2680
-54.6875 109.375 653
164.062 421.875 601
-101.562 250 648
-85.9375 171.875 657
156.25 375 602
-375 101.562 739
-210.938 -101.562 686
-296.875 -273.438 790
-179.688 148.438 714
-351.562 -359.375 761
-234.375 -93.75 687
70.3125 -468.75 2659
367.188 -156.25 1028
-296.875 -85.9375 691
-171.875 242.188 674
-273.438 -132.812 742
-132.812 234.375 652
179.688 164.062 680
-398.438 -296.875 741
-398.438 335.938 655
164.062 312.5 625
195.312 7.8125 747
-296.875 351.562 641
179.688 -70.3125 787
0 -468.75 2659
-132.812 382.812 624
23.4375 -468.75 2659
187.5 109.375 703
62.5 -468.75 2659
-117.188 85.9375 739
78.125 -468.75 2659
-195.312 367.188 629
367.188 -132.812 1016
281.25 -460.938 2541
-460.938 320.312 662
265.625 -460.938 2560
-367.188 -289.062 749
-273.438 -78.125 688
-148.438 203.125 690
195.312 15.625 742
-85.9375 226.562 657
171.875 234.375 654
-234.375 -54.6875 683
-156.25 226.562 682
171.875 156.25 686
-109.375 281.25 628
-437.5 -78.125 629
476.562 15.625 885
-375 78.125 719
-359.375 -406.25 781
-484.375 78.125 720
-335.938 -257.812 719
-296.875 -250 713
460.938 -414.062 684
179.688 -78.125 789
-351.562 -382.812 769
-320.312 -226.562 720
-23.4375 -468.75 2659
-101.562 382.812 619
-414.062 -171.875 789
187.5 132.812 693
484.375 234.375 805
-93.75 375 619
-179.688 -132.812 761
-234.375 -101.562 733
7.8125 -468.75 2659
-148.438 -171.875 722
-367.188 85.9375 728
