ply
format ascii 1.0
comment Created by Open3D
element vertex 2376
property double x
property double y
property double z
end_header
359.375 -156.25 954
125 46.875 975
-78.125 218.75 1010
-265.625 234.375 981
429.688 -31.25 1019
101.562 367.188 1227
281.25 -351.562 1019
250 335.938 1193
-179.688 171.875 975
187.5 -273.438 1297
78.125 -203.125 1101
70.3125 328.125 1586
281.25 351.562 1259
179.688 -273.438 1288
406.25 257.812 1458
414.062 -7.8125 1013
273.438 320.312 1255
250 148.438 1044
-7.8125 351.562 1572
421.875 265.625 1439
234.375 179.688 1057
265.625 -343.75 1047
-250 289.062 1010
46.875 -203.125 1138
453.125 273.438 1421
375 437.5 1338
218.75 0 1031
179.688 359.375 1232
421.875 195.312 1536
265.625 281.25 1616
242.188 15.625 1007
117.188 359.375 1223
328.125 0 1016
156.25 359.375 1227
46.875 351.562 1523
257.812 304.688 1157
226.562 218.75 1080
257.812 343.75 1202
250 421.875 1297
203.125 343.75 1236
234.375 335.938 1185
-70.3125 -85.9375 1080
-31.25 -78.125 1084
210.938 445.312 1302
-7.8125 359.375 1564
31.25 31.25 1016
15.625 445.312 1398
-109.375 -78.125 1130
234.375 289.062 1153
476.562 -31.25 1044
93.75 -132.812 962
-39.0625 -54.6875 1070
210.938 -117.188 1070
343.75 312.5 1529
0 335.938 1572
-7.8125 343.75 1572
398.438 -164.062 956
421.875 328.125 1427
85.9375 375 1223
-7.8125 -23.4375 1112
375 70.3125 1050
-148.438 421.875 1458
54.6875 -23.4375 973
-265.625 226.562 975
-23.4375 -78.125 1080
23.4375 421.875 1433
-304.688 320.312 1019
78.125 429.688 1415
476.562 -15.625 1019
-187.5 375 1063
148.438 296.875 1470
7.8125 -23.4375 1108
367.188 -7.8125 1022
-195.312 398.438 1087
187.5 -312.5 1236
195.312 -39.0625 973
-39.0625 7.8125 1060
343.75 187.5 1748
234.375 7.8125 1019
78.125 -23.4375 959
320.312 -273.438 1057
304.688 -140.625 946
179.688 343.75 1236
15.625 335.938 1601
320.312 203.125 1748
39.0625 328.125 1609
-273.438 406.25 1073
304.688 -273.438 1054
70.3125 -23.4375 962
70.3125 375 1227
367.188 -257.812 1080
304.688 -218.75 1080
-273.438 210.938 967
210.938 -7.8125 1054
15.625 7.8125 1050
343.75 -7.8125 1013
445.312 171.875 1785
382.812 46.875 981
-54.6875 0 1077
-62.5 -54.6875 1070
46.875 335.938 1579
492.188 -39.0625 1031
54.6875 117.188 946
312.5 -382.812 1016
187.5 7.8125 1025
343.75 -218.75 1084
281.25 320.312 1255
85.9375 390.625 1483
-210.938 406.25 1087
93.75 109.375 946
23.4375 273.438 1060
132.812 359.375 1223
414.062 -15.625 1025
23.4375 7.8125 1047
46.875 39.0625 1001
-187.5 171.875 975
-23.4375 351.562 1572
46.875 7.8125 992
132.812 250 1070
171.875 -148.438 998
-15.625 -70.3125 1080
15.625 140.625 992
460.938 273.438 1415
109.375 -304.688 1439
109.375 406.25 1445
132.812 437.5 1392
382.812 -289.062 1067
312.5 -210.938 1080
164.062 312.5 1302
468.75 234.375 1523
187.5 70.3125 954
-101.562 382.812 1509
453.125 -31.25 1022
406.25 -23.4375 1019
23.4375 320.312 1609
210.938 437.5 1292
-23.4375 281.25 1054
125 -148.438 973
-203.125 367.188 1060
375 101.562 1794
328.125 203.125 1757
406.25 351.562 1439
273.438 312.5 1255
132.812 -398.438 1245
382.812 320.312 1470
140.625 -406.25 1232
23.4375 -117.188 1007
-31.25 109.375 935
-46.875 335.938 1601
312.5 0 1010
109.375 312.5 1601
359.375 304.688 1509
335.938 171.875 1853
-226.562 359.375 1054
0 -31.25 1119
-15.625 -148.438 998
101.562 359.375 1227
148.438 351.562 1202
257.812 -273.438 1097
312.5 -398.438 1028
23.4375 93.75 938
132.812 101.562 946
-93.75 367.188 1543
-273.438 187.5 959
-398.438 -54.6875 3120
242.188 156.25 1047
85.9375 0 956
7.8125 343.75 1572
226.562 203.125 1070
101.562 23.4375 967
375 117.188 1813
328.125 289.062 1586
156.25 312.5 1302
-23.4375 -39.0625 1080
-93.75 390.625 1509
304.688 -257.812 1057
85.9375 289.062 1077
7.8125 390.625 1489
148.438 273.438 1090
226.562 0 1028
375 93.75 1785
-281.25 187.5 956
39.0625 343.75 1572
156.25 273.438 1090
296.875 273.438 1639
265.625 -132.812 943
289.062 62.5 973
54.6875 7.8125 987
179.688 -156.25 998
179.688 70.3125 951
39.0625 -31.25 973
445.312 -171.875 964
-85.9375 -203.125 1149
70.3125 -117.188 998
343.75 -148.438 951
-93.75 -117.188 1105
-78.125 -46.875 1101
304.688 46.875 973
109.375 343.75 1543
312.5 273.438 1639
-23.4375 343.75 1609
304.688 -335.938 1025
398.438 320.312 1427
-7.8125 414.062 1452
492.188 23.4375 998
226.562 210.938 1077
421.875 226.562 1543
218.75 312.5 1193
210.938 -46.875 987
70.3125 351.562 1543
265.625 -328.125 1057
335.938 296.875 1564
140.625 359.375 1223
242.188 -343.75 1202
445.312 273.438 1415
398.438 351.562 1452
117.188 296.875 1632
257.812 226.562 1094
437.5 54.6875 1050
359.375 54.6875 978
250 187.5 1070
39.0625 367.188 1536
-125 125 925
46.875 382.812 1489
226.562 -70.3125 995
164.062 -406.25 1206
203.125 335.938 1245
296.875 375 1452
468.75 -39.0625 1022
289.062 390.625 1278
-250 281.25 1007
234.375 289.062 1153
78.125 -31.25 964
242.188 -15.625 1038
218.75 -148.438 1031
39.0625 218.75 1001
203.125 359.375 1236
210.938 414.062 1273
-46.875 234.375 989
234.375 281.25 1149
46.875 375 1509
-70.3125 -23.4375 1101
78.125 312.5 1616
109.375 320.312 1594
-265.625 226.562 975
-101.562 -31.25 1141
257.812 15.625 1004
226.562 226.562 1084
46.875 296.875 1063
-85.9375 -7.8125 1094
265.625 -375 1028
429.688 226.562 1543
-54.6875 -78.125 1077
-289.062 367.188 1057
250 -46.875 989
-460.938 15.625 2365
31.25 312.5 1639
-78.125 132.812 933
-109.375 -54.6875 1189
273.438 -312.5 1047
-148.438 -164.062 1489
-101.562 390.625 1458
-78.125 -39.0625 1101
62.5 -23.4375 967
210.938 367.188 1214
296.875 367.188 1458
15.625 0 1060
265.625 15.625 1004
437.5 203.125 1543
187.5 -31.25 967
265.625 54.6875 967
195.312 -23.4375 981
-273.438 195.312 962
31.25 39.0625 1004
-7.8125 367.188 1529
46.875 359.375 1523
78.125 382.812 1227
382.812 70.3125 1057
85.9375 -250 1421
250 117.188 1028
234.375 15.625 1013
242.188 -335.938 1206
-179.688 421.875 1101
429.688 -23.4375 1025
31.25 273.438 1060
39.0625 46.875 992
234.375 -257.812 1227
117.188 -93.75 956
406.25 -7.8125 1013
234.375 -265.625 1255
93.75 -203.125 1087
210.938 429.688 1283
234.375 296.875 1161
476.562 421.875 1338
78.125 304.688 1624
-242.188 304.688 1022
296.875 -265.625 1054
406.25 257.812 1458
117.188 304.688 1632
-257.812 257.812 995
226.562 -7.8125 1044
210.938 -265.625 1264
-468.75 -7.8125 2349
78.125 289.062 1077
-93.75 54.6875 998
23.4375 31.25 1019
179.688 -250 1223
218.75 234.375 1090
93.75 125 998
-195.312 421.875 1101
453.125 273.438 1421
54.6875 -117.188 1004
335.938 0 1019
-54.6875 132.812 935
-226.562 367.188 1060
-101.562 -109.375 1119
-117.188 414.062 1433
210.938 421.875 1283
414.062 23.4375 987
304.688 -382.812 1013
-54.6875 375 1483
226.562 62.5 962
359.375 0 1010
273.438 15.625 1004
-203.125 382.812 1073
39.0625 390.625 1489
78.125 -156.25 962
-46.875 -148.438 1025
234.375 0 1031
-78.125 -7.8125 1094
210.938 -273.438 1288
210.938 -273.438 1288
-125 -148.438 1427
70.3125 -148.438 956
257.812 304.688 1157
250 156.25 1054
148.438 312.5 1523
460.938 296.875 1421
406.25 328.125 1427
226.562 195.312 1067
453.125 -23.4375 1034
-171.875 -187.5 3208
31.25 7.8125 995
-101.562 406.25 1458
101.562 304.688 1624
296.875 7.8125 1013
109.375 351.562 1232
132.812 -273.438 1302
460.938 273.438 1415
335.938 7.8125 1004
85.9375 -210.938 1094
429.688 203.125 1550
242.188 -421.875 1189
-109.375 406.25 1458
0 398.438 1483
421.875 54.6875 1041
281.25 -203.125 1063
468.75 273.438 1415
-234.375 343.75 1044
250 125 1031
-15.625 234.375 992
148.438 320.312 1543
54.6875 203.125 1028
226.562 218.75 1080
367.188 -226.562 1090
-203.125 390.625 1077
39.0625 15.625 992
265.625 -210.938 1090
484.375 -31.25 1041
218.75 257.812 1097
335.938 -398.438 1028
0 -15.625 1094
343.75 203.125 1748
39.0625 320.312 1632
382.812 -7.8125 1019
226.562 -15.625 1057
148.438 -15.625 959
-46.875 359.375 1483
109.375 328.125 1594
-85.9375 -171.875 1054
351.562 31.25 975
359.375 31.25 978
218.75 101.562 1016
-273.438 203.125 964
187.5 289.062 1317
31.25 359.375 1543
250 304.688 1157
218.75 289.062 1189
203.125 -15.625 984
359.375 203.125 1748
164.062 -109.375 995
-31.25 437.5 1415
-203.125 398.438 1084
179.688 312.5 1297
203.125 101.562 1013
15.625 101.562 935
210.938 -7.8125 1054
62.5 195.312 1025
187.5 31.25 989
265.625 70.3125 967
109.375 -351.562 1273
203.125 -164.062 1070
39.0625 -7.8125 989
320.312 -335.938 1028
226.562 15.625 1013
-437.5 164.062 2450
242.188 -62.5 1016
-54.6875 -70.3125 1070
179.688 -390.625 1197
437.5 273.438 1421
210.938 -351.562 1202
70.3125 -23.4375 962
140.625 -46.875 956
210.938 -156.25 1047
257.812 187.5 1070
320.312 -390.625 1019
-70.3125 218.75 1010
195.312 -39.0625 973
218.75 -148.438 1031
164.062 -390.625 1202
445.312 273.438 1415
398.438 -328.125 1054
-78.125 -148.438 1070
382.812 343.75 1464
39.0625 296.875 1070
390.625 164.062 1823
46.875 -109.375 1016
226.562 -109.375 1034
109.375 367.188 1227
429.688 -164.062 959
-93.75 -46.875 1105
-7.8125 390.625 1477
-125 164.062 978
187.5 -78.125 975
-210.938 414.062 1090
15.625 -132.812 995
187.5 -359.375 1202
156.25 367.188 1232
148.438 445.312 1376
218.75 296.875 1197
195.312 -171.875 1084
-46.875 -85.9375 1084
62.5 54.6875 975
125 -351.562 1259
164.062 -445.312 1227
382.812 257.812 1564
15.625 -70.3125 1050
-257.812 265.625 995
54.6875 -148.438 954
-70.3125 375 1523
179.688 351.562 1232
375 31.25 978
-54.6875 398.438 1470
398.438 156.25 1843
398.438 328.125 1458
109.375 -78.125 959
117.188 335.938 1543
265.625 328.125 1255
226.562 -140.625 1013
-476.562 -351.562 2723
23.4375 -15.625 992
23.4375 -15.625 992
23.4375 -70.3125 1041
70.3125 93.75 940
140.625 -226.562 1236
210.938 -312.5 1236
-78.125 429.688 1433
273.438 328.125 1255
492.188 234.375 1477
-203.125 437.5 1105
-62.5 148.438 935
382.812 -156.25 951
250 234.375 1097
242.188 414.062 1241
-273.438 210.938 967
31.25 39.0625 1004
234.375 -132.812 987
0 328.125 1616
312.5 210.938 1748
414.062 265.625 1445
375 -351.562 1041
375 -15.625 1013
-500 -406.25 2618
250 -351.562 1054
109.375 125 1001
-304.688 328.125 1947
460.938 226.562 1529
-39.0625 -140.625 1031
164.062 -437.5 1219
156.25 359.375 1227
445.312 54.6875 1063
210.938 -109.375 1073
148.438 -218.75 1050
109.375 343.75 1543
-62.5 0 1077
-398.438 85.9375 989
226.562 187.5 1060
281.25 351.562 1259
70.3125 -15.625 962
398.438 -15.625 1025
218.75 15.625 1013
109.375 7.8125 970
171.875 -23.4375 959
250 281.25 1153
296.875 -335.938 1025
39.0625 -203.125 1141
179.688 304.688 1297
15.625 -23.4375 1105
421.875 148.438 1863
125 343.75 1232
234.375 289.062 1153
-132.812 -125 1359
-31.25 -23.4375 1097
312.5 -148.438 948
-101.562 -62.5 1130
-500 -335.938 2040
117.188 250 1067
304.688 -351.562 1019
484.375 -179.688 964
234.375 -296.875 1255
39.0625 312.5 1616
-54.6875 148.438 981
195.312 -46.875 978
-335.938 101.562 959
-445.312 335.938 1936
328.125 -390.625 1019
156.25 70.3125 948
234.375 125 1031
-85.9375 -46.875 1105
304.688 210.938 1748
39.0625 -23.4375 978
242.188 320.312 1173
78.125 335.938 1572
-101.562 -31.25 1141
234.375 -31.25 1063
15.625 -203.125 1165
-7.8125 -132.812 1007
-468.75 -312.5 2767
351.562 -148.438 951
-109.375 -54.6875 1189
468.75 31.25 995
445.312 -31.25 1022
117.188 -242.188 1317
156.25 -132.812 973
351.562 -398.438 1028
148.438 -117.188 1031
234.375 132.812 1034
226.562 203.125 1070
179.688 359.375 1232
-296.875 351.562 1047
109.375 -23.4375 959
398.438 46.875 989
-101.562 117.188 925
359.375 -398.438 1031
70.3125 375 1227
335.938 -328.125 1038
-54.6875 359.375 1483
-7.8125 -31.25 1123
140.625 414.062 1427
-265.625 242.188 984
453.125 210.938 1529
23.4375 -140.625 956
39.0625 -85.9375 1034
218.75 273.438 1181
437.5 273.438 1421
265.625 -257.812 1097
242.188 -328.125 1214
351.562 -218.75 1080
-195.312 390.625 1080
343.75 78.125 1057
289.062 351.562 1278
234.375 281.25 1149
492.188 39.0625 1050
117.188 281.25 1087
117.188 117.188 946
-210.938 335.938 1044
-492.188 -453.125 2579
78.125 -7.8125 959
-250 296.875 1013
343.75 0 1016
-453.125 359.375 1883
359.375 -281.25 1067
62.5 -31.25 970
-273.438 203.125 964
-46.875 406.25 1470
148.438 367.188 1227
132.812 367.188 1214
265.625 281.25 1616
-93.75 -15.625 1112
273.438 -132.812 943
343.75 -218.75 1084
-78.125 218.75 1010
195.312 0 1038
398.438 289.062 1509
437.5 -31.25 1019
281.25 187.5 1853
62.5 23.4375 987
7.8125 -140.625 992
-109.375 -125 1359
156.25 320.312 1268
-93.75 -156.25 1067
226.562 406.25 1241
54.6875 132.812 992
-179.688 156.25 923
187.5 265.625 1094
421.875 320.312 1415
476.562 -39.0625 1022
187.5 -70.3125 973
250 351.562 1197
218.75 -109.375 1063
382.812 -15.625 1013
-39.0625 -39.0625 1067
351.562 187.5 1757
453.125 -15.625 1022
437.5 -335.938 1126
250 -382.812 1041
468.75 234.375 1523
-23.4375 -70.3125 1084
-7.8125 375 1483
109.375 85.9375 943
132.812 -46.875 954
203.125 62.5 959
-179.688 312.5 1038
-273.438 218.75 973
132.812 -7.8125 959
218.75 281.25 1185
-257.812 257.812 995
-85.9375 -31.25 1130
23.4375 -7.8125 998
-468.75 -328.125 2767
382.812 250 1503
-250 281.25 1007
15.625 -7.8125 1077
23.4375 -203.125 1157
62.5 312.5 1624
218.75 7.8125 1022
218.75 -257.812 1236
281.25 7.8125 1004
117.188 351.562 1223
460.938 273.438 1415
78.125 359.375 1227
406.25 242.188 1483
476.562 46.875 1060
273.438 359.375 1259
234.375 7.8125 1019
179.688 -187.5 1123
398.438 -23.4375 1013
179.688 109.375 1007
-39.0625 -54.6875 1070
421.875 -15.625 1025
179.688 335.938 1264
39.0625 335.938 1579
70.3125 -93.75 987
242.188 335.938 1181
-39.0625 -78.125 1077
-218.75 390.625 1077
-257.812 273.438 998
78.125 125 992
484.375 265.625 1433
70.3125 351.562 1543
-85.9375 -7.8125 1094
70.3125 328.125 1586
234.375 -23.4375 1044
281.25 15.625 1001
226.562 195.312 1067
78.125 312.5 1616
7.8125 -203.125 1173
179.688 351.562 1232
359.375 195.312 1766
-484.375 -414.062 2618
39.0625 343.75 1572
242.188 -117.188 975
453.125 15.625 987
140.625 250 1077
203.125 -164.062 1070
179.688 -265.625 1268
289.062 -203.125 1063
117.188 39.0625 987
85.9375 -132.812 964
382.812 -265.625 1080
46.875 46.875 992
148.438 -39.0625 956
-70.3125 -93.75 1080
304.688 7.8125 1013
250 -234.375 1145
70.3125 335.938 1572
-281.25 195.312 959
117.188 304.688 1632
421.875 -257.812 1165
0 351.562 1572
218.75 304.688 1189
171.875 359.375 1232
125 7.8125 967
250 304.688 1157
445.312 -23.4375 1034
-484.375 -421.875 2639
-101.562 -23.4375 1126
-125 -156.25 1097
117.188 -23.4375 956
328.125 171.875 1853
-265.625 234.375 981
39.0625 367.188 1536
226.562 -375 1185
62.5 -78.125 989
460.938 -23.4375 1031
54.6875 -31.25 973
85.9375 367.188 1223
-109.375 -46.875 1181
-281.25 187.5 956
492.188 -31.25 1028
226.562 421.875 1245
171.875 -195.312 1028
62.5 132.812 995
195.312 -171.875 1084
109.375 -195.312 1073
-437.5 -156.25 2883
187.5 -179.688 1108
164.062 -203.125 1025
234.375 273.438 1145
445.312 -335.938 1126
-39.0625 406.25 1470
390.625 320.312 1439
203.125 257.812 1094
54.6875 -39.0625 975
-125 -148.438 1427
-476.562 -359.375 2701
226.562 -382.812 1185
-39.0625 375 1509
226.562 226.562 1084
171.875 351.562 1232
101.562 -15.625 962
320.312 171.875 1843
390.625 -156.25 954
15.625 15.625 1044
226.562 179.688 1057
359.375 335.938 1496
140.625 -117.188 964
140.625 359.375 1223
-265.625 210.938 970
-250 296.875 1013
-101.562 382.812 1509
304.688 0 1007
453.125 273.438 1421
218.75 -273.438 1283
85.9375 382.812 1223
445.312 218.75 1543
-203.125 414.062 1090
-46.875 382.812 1509
257.812 351.562 1197
250 -359.375 1054
406.25 -164.062 959
414.062 265.625 1445
390.625 203.125 1609
226.562 171.875 1054
210.938 0 1034
195.312 343.75 1236
78.125 -7.8125 959
109.375 -15.625 962
226.562 101.562 1019
312.5 -210.938 1080
312.5 -140.625 948
-242.188 312.5 1025
-109.375 -85.9375 1138
117.188 375 1214
359.375 343.75 1483
265.625 132.812 1038
187.5 -54.6875 975
78.125 62.5 967
-15.625 0 1070
273.438 -335.938 1028
93.75 -117.188 956
54.6875 296.875 1073
125 320.312 1292
78.125 328.125 1288
492.188 -23.4375 1025
-23.4375 375 1523
312.5 335.938 1516
476.562 -23.4375 1038
351.562 -7.8125 1010
179.688 328.125 1268
265.625 -335.938 1041
-7.8125 367.188 1529
-117.188 -132.812 1101
218.75 335.938 1189
-62.5 359.375 1264
-7.8125 -210.938 1181
-203.125 398.438 1080
7.8125 -70.3125 1047
46.875 296.875 1073
-117.188 125 925
-421.875 -70.3125 2984
-109.375 -62.5 1130
-203.125 421.875 1094
-46.875 7.8125 1063
54.6875 54.6875 978
7.8125 -210.938 1161
367.188 -390.625 1028
328.125 398.438 1404
148.438 343.75 1206
-39.0625 -46.875 1073
-85.9375 382.812 1516
-437.5 -140.625 2933
-460.938 -273.438 2835
390.625 -7.8125 1019
234.375 359.375 1197
46.875 359.375 1250
242.188 234.375 1094
125 296.875 1328
-148.438 -164.062 1489
54.6875 -7.8125 964
210.938 -117.188 1047
453.125 218.75 1529
250 171.875 1060
-54.6875 382.812 1516
-203.125 406.25 1087
109.375 367.188 1219
320.312 187.5 1833
-453.125 -210.938 2450
171.875 -359.375 1206
7.8125 -15.625 1097
54.6875 312.5 1307
-273.438 414.062 1077
0 398.438 1206
85.9375 375 1219
85.9375 289.062 1080
46.875 320.312 1307
132.812 -210.938 1041
148.438 320.312 1292
7.8125 382.812 1210
265.625 187.5 1063
226.562 187.5 1060
46.875 382.812 1206
328.125 179.688 1833
-132.812 390.625 1496
234.375 15.625 1013
62.5 195.312 1025
85.9375 7.8125 959
-210.938 382.812 1070
343.75 -7.8125 1010
476.562 -328.125 1381
-460.938 390.625 1813
93.75 -281.25 1392
62.5 -125 973
203.125 -7.8125 1054
-429.688 -125 2984
-484.375 -429.688 2618
-54.6875 351.562 1264
109.375 320.312 1288
179.688 -62.5 970
148.438 312.5 1297
234.375 406.25 1236
468.75 273.438 1410
320.312 343.75 1415
-132.812 164.062 978
312.5 7.8125 1013
-468.75 -312.5 2767
0 320.312 1073
460.938 31.25 992
164.062 -23.4375 959
210.938 -156.25 1022
78.125 320.312 1292
-109.375 -39.0625 1153
234.375 62.5 962
-132.812 -351.562 2984
468.75 -171.875 964
-156.25 414.062 1177
-78.125 406.25 1470
226.562 78.125 951
234.375 164.062 1050
250 109.375 1022
351.562 -359.375 1028
359.375 296.875 1464
-500 -414.062 2598
234.375 117.188 1025
296.875 359.375 1477
187.5 -23.4375 970
125 -296.875 1421
437.5 320.312 1410
273.438 -203.125 1073
70.3125 359.375 1250
78.125 382.812 1210
-93.75 375 1543
15.625 320.312 1312
453.125 -335.938 1126
-257.812 437.5 1094
421.875 23.4375 987
-7.8125 343.75 1273
-109.375 -54.6875 1108
351.562 78.125 1050
85.9375 351.562 1250
242.188 218.75 1084
117.188 328.125 1288
132.812 429.688 1398
382.812 23.4375 981
62.5 335.938 1288
320.312 -148.438 951
125 343.75 1250
117.188 101.562 946
-78.125 156.25 981
421.875 15.625 987
265.625 -382.812 1028
125 367.188 1219
-31.25 148.438 989
492.188 250 1445
-85.9375 -46.875 1097
226.562 15.625 1013
-257.812 265.625 995
23.4375 320.312 1312
-46.875 -62.5 1073
382.812 70.3125 1054
-93.75 367.188 1550
218.75 -62.5 998
156.25 265.625 1087
187.5 109.375 1013
210.938 -93.75 998
359.375 -156.25 954
312.5 -351.562 1019
351.562 -335.938 1041
85.9375 312.5 1328
31.25 -85.9375 1028
54.6875 382.812 1214
335.938 320.312 1523
492.188 226.562 1503
335.938 -312.5 1044
-85.9375 398.438 1489
-500 -390.625 2680
-93.75 -54.6875 1101
210.938 351.562 1210
257.812 187.5 1063
187.5 359.375 1236
-468.75 -304.688 2767
31.25 -140.625 954
23.4375 31.25 1019
117.188 -304.688 1445
140.625 296.875 1328
109.375 343.75 1255
-273.438 218.75 970
62.5 -148.438 959
117.188 320.312 1288
39.0625 320.312 1317
-31.25 398.438 1206
85.9375 343.75 1250
125 281.25 1087
375 85.9375 1057
31.25 351.562 1250
-70.3125 117.188 928
23.4375 -93.75 1022
476.562 -31.25 1031
-218.75 375 1063
-500 -359.375 2256
-46.875 351.562 1268
445.312 -31.25 1019
195.312 312.5 1236
242.188 210.938 1077
-265.625 250 984
281.25 85.9375 973
-31.25 351.562 1273
148.438 -351.562 1227
-476.562 -273.438 2812
101.562 328.125 1288
-31.25 312.5 1067
179.688 -187.5 1097
-257.812 273.438 998
320.312 109.375 1785
156.25 343.75 1264
39.0625 46.875 995
453.125 46.875 1041
-23.4375 -148.438 992
484.375 -171.875 964
140.625 -367.188 1227
-187.5 421.875 1101
343.75 39.0625 973
296.875 218.75 1748
218.75 -15.625 1054
226.562 421.875 1241
31.25 -31.25 970
398.438 -156.25 954
437.5 218.75 1543
312.5 0 1007
273.438 -140.625 948
492.188 7.8125 995
-78.125 359.375 1536
156.25 296.875 1322
187.5 296.875 1292
31.25 7.8125 995
78.125 359.375 1259
62.5 406.25 1458
445.312 15.625 987
-31.25 -148.438 998
31.25 335.938 1273
414.062 -164.062 959
343.75 335.938 1445
-476.562 -367.188 2680
-93.75 242.188 1019
-492.188 -359.375 2256
328.125 -148.438 951
320.312 -125 951
210.938 -23.4375 1077
421.875 62.5 1050
156.25 273.438 1090
-54.6875 -148.438 1019
-7.8125 351.562 1273
210.938 406.25 1241
156.25 -210.938 1169
-304.688 335.938 1031
125 375 1219
-257.812 273.438 998
-70.3125 351.562 1264
132.812 281.25 1087
187.5 406.25 1317
218.75 265.625 1097
375 -234.375 1094
15.625 23.4375 1031
398.438 242.188 1489
226.562 156.25 1044
226.562 218.75 1080
273.438 15.625 1007
-70.3125 0 1080
46.875 15.625 989
257.812 -351.562 1047
375 304.688 1452
296.875 195.312 1843
148.438 359.375 1206
437.5 -164.062 959
-250 289.062 1010
476.562 242.188 1496
-492.188 -460.938 2522
70.3125 304.688 1084
15.625 15.625 1044
-281.25 195.312 959
195.312 421.875 1322
46.875 54.6875 978
429.688 54.6875 1041
203.125 -359.375 1193
-46.875 101.562 933
320.312 0 1007
-257.812 273.438 998
-109.375 -70.3125 1134
-7.8125 -31.25 1063
7.8125 -148.438 962
234.375 -132.812 967
226.562 148.438 1038
210.938 398.438 1250
242.188 226.562 1087
-15.625 281.25 1054
226.562 164.062 1050
-257.812 250 989
148.438 15.625 964
195.312 351.562 1232
281.25 -203.125 1070
250 15.625 1007
-7.8125 140.625 987
-78.125 -93.75 1119
484.375 46.875 1050
70.3125 -15.625 959
7.8125 -23.4375 1108
437.5 273.438 1415
437.5 -23.4375 1022
414.062 -23.4375 1019
-23.4375 -39.0625 1067
93.75 320.312 1292
-281.25 398.438 1070
351.562 0 1016
210.938 -39.0625 989
390.625 281.25 1470
218.75 7.8125 1025
-250 304.688 1016
210.938 382.812 1236
-257.812 265.625 995
335.938 -304.688 1044
85.9375 -7.8125 956
85.9375 7.8125 959
0 328.125 1302
125 -304.688 1445
265.625 226.562 1130
156.25 117.188 1004
156.25 -203.125 1025
476.562 -171.875 964
-148.438 414.062 1181
23.4375 382.812 1219
390.625 351.562 1452
46.875 203.125 1025
70.3125 -23.4375 962
-85.9375 -31.25 1101
148.438 117.188 1004
156.25 -117.188 1007
-265.625 140.625 910
-46.875 -70.3125 1073
179.688 351.562 1232
-226.562 375 1063
-289.062 375 1047
-273.438 226.562 973
46.875 312.5 1307
-101.562 -31.25 1141
281.25 179.688 1833
0 375 1202
414.062 -257.812 1181
-39.0625 -39.0625 1077
15.625 304.688 1073
78.125 335.938 1288
429.688 -15.625 1025
-414.062 -39.0625 3037
414.062 -15.625 1025
-78.125 242.188 1022
62.5 -46.875 975
46.875 390.625 1206
-109.375 31.25 1034
-125 -164.062 1087
492.188 -179.688 967
179.688 390.625 1392
351.562 -148.438 951
-85.9375 242.188 1022
70.3125 -85.9375 978
210.938 -437.5 1202
54.6875 -31.25 967
-7.8125 -7.8125 1087
-101.562 -23.4375 1126
54.6875 0 970
312.5 273.438 1639
0 343.75 1273
164.062 359.375 1232
93.75 328.125 1288
148.438 335.938 1259
-171.875 132.812 923
31.25 46.875 995
7.8125 343.75 1273
-437.5 -164.062 2859
273.438 54.6875 970
-7.8125 390.625 1210
-109.375 -39.0625 1153
39.0625 359.375 1250
187.5 -31.25 970
148.438 -164.062 1007
-257.812 281.25 1001
-281.25 203.125 962
453.125 54.6875 1050
257.812 -210.938 1097
429.688 -304.688 1141
-7.8125 -164.062 973
54.6875 23.4375 984
187.5 -304.688 1241
156.25 -296.875 1273
289.062 -296.875 1041
-210.938 398.438 1080
-117.188 -132.812 1101
226.562 -273.438 1292
281.25 281.25 1624
468.75 210.938 1529
39.0625 382.812 1210
453.125 226.562 1529
-492.188 -351.562 2256
226.562 117.188 1022
242.188 -132.812 954
-265.625 242.188 981
187.5 -62.5 978
156.25 250 1077
429.688 23.4375 987
39.0625 -85.9375 998
281.25 218.75 1739
250 -226.562 1138
164.062 -203.125 1141
367.188 -296.875 1060
54.6875 -195.312 1123
242.188 195.312 1067
93.75 -15.625 959
-500 -367.188 2256
179.688 39.0625 984
257.812 398.438 1273
273.438 -375 1016
7.8125 -140.625 967
23.4375 367.188 1250
15.625 0 992
359.375 156.25 1823
148.438 -218.75 1193
101.562 -23.4375 959
-468.75 -320.312 2767
234.375 109.375 1019
23.4375 31.25 1019
54.6875 335.938 1283
390.625 31.25 978
320.312 7.8125 1013
-484.375 -421.875 2659
304.688 -250 1063
-31.25 375 1523
390.625 171.875 1813
421.875 -23.4375 1019
125 -101.562 962
234.375 429.688 1241
-242.188 -148.438 1477
351.562 328.125 1503
226.562 414.062 1241
429.688 273.438 1427
93.75 375 1223
210.938 390.625 1236
398.438 0 1007
335.938 -335.938 1031
187.5 -179.688 1090
39.0625 -15.625 975
54.6875 15.625 984
335.938 -367.188 1022
265.625 187.5 1063
-273.438 210.938 970
-492.188 -367.188 2680
0 -93.75 1022
-109.375 -46.875 1181
-296.875 359.375 1050
226.562 390.625 1219
-148.438 390.625 1503
234.375 390.625 1219
484.375 226.562 1509
-46.875 -62.5 1073
101.562 -15.625 959
117.188 -210.938 1063
85.9375 0 956
-484.375 -312.5 2767
210.938 -54.6875 998
39.0625 23.4375 992
15.625 23.4375 1031
109.375 -250 1292
54.6875 210.938 1028
476.562 406.25 1365
367.188 -343.75 1041
-15.625 -210.938 1189
93.75 15.625 962
-62.5 54.6875 995
101.562 375 1219
195.312 -54.6875 984
62.5 -117.188 962
179.688 304.688 1297
85.9375 -62.5 962
-210.938 351.562 1054
414.062 179.688 1794
125 359.375 1232
250 -351.562 1054
-476.562 -375 2680
-203.125 414.062 1090
93.75 289.062 1084
78.125 -7.8125 956
-250 304.688 1016
-171.875 429.688 1145
468.75 304.688 1439
343.75 195.312 1739
250 -242.188 1105
265.625 -312.5 1054
-15.625 343.75 1283
250 23.4375 998
70.3125 -15.625 959
-15.625 -70.3125 1070
39.0625 273.438 1060
46.875 15.625 989
132.812 367.188 1219
-125 -148.438 1087
-7.8125 226.562 992
203.125 -335.938 1206
-500 -398.438 2659
-445.312 -195.312 2835
39.0625 335.938 1273
-484.375 -406.25 2639
-109.375 -62.5 1130
78.125 375 1219
-31.25 -39.0625 1084
382.812 -7.8125 1022
109.375 15.625 973
265.625 15.625 1004
54.6875 328.125 1283
195.312 -171.875 1070
-85.9375 343.75 1041
226.562 101.562 1019
429.688 -164.062 959
-468.75 -328.125 2767
281.25 390.625 1278
54.6875 31.25 984
-250 296.875 1013
242.188 421.875 1241
-46.875 -210.938 1177
289.062 -328.125 1025
171.875 -109.375 998
31.25 7.8125 995
93.75 -273.438 1381
70.3125 375 1214
78.125 328.125 1288
140.625 -328.125 1255
-78.125 382.812 1509
195.312 70.3125 956
210.938 414.062 1241
335.938 -273.438 1060
-85.9375 226.562 1010
187.5 -70.3125 978
-54.6875 -70.3125 1073
-109.375 -117.188 1105
109.375 398.438 1464
15.625 15.625 1044
343.75 -359.375 1025
140.625 -320.312 1268
296.875 46.875 970
54.6875 54.6875 978
-484.375 -320.312 2767
0 -70.3125 1054
-460.938 -242.188 2659
242.188 203.125 1070
85.9375 304.688 1328
-23.4375 437.5 1421
-7.8125 -70.3125 1063
-46.875 375 1509
78.125 -70.3125 970
226.562 -85.9375 1019
-101.562 -109.375 1105
101.562 437.5 1398
382.812 31.25 978
62.5 93.75 938
265.625 -320.312 1050
125 312.5 1302
-265.625 234.375 978
273.438 187.5 1833
0 -109.375 1013
203.125 -390.625 1189
226.562 132.812 1031
-125 414.062 1439
31.25 -109.375 1016
234.375 320.312 1169
226.562 125 1028
218.75 -125 1028
234.375 281.25 1145
390.625 46.875 984
453.125 218.75 1529
39.0625 343.75 1268
-117.188 117.188 925
-484.375 -304.688 2744
-93.75 -101.562 1123
85.9375 -203.125 1094
195.312 -23.4375 973
-39.0625 -46.875 1073
414.062 343.75 1439
-257.812 281.25 1001
226.562 187.5 1060
-7.8125 -101.562 1019
-54.6875 -93.75 1063
85.9375 -132.812 964
242.188 328.125 1173
226.562 109.375 1019
-273.438 218.75 970
328.125 -382.812 1019
31.25 15.625 995
312.5 195.312 2143
-78.125 242.188 1022
375 320.312 1452
281.25 -140.625 943
15.625 -140.625 954
117.188 328.125 1288
234.375 7.8125 1019
242.188 351.562 1189
-257.812 273.438 998
-109.375 -39.0625 1153
367.188 -156.25 948
-78.125 234.375 998
429.688 -171.875 967
-85.9375 -54.6875 1090
484.375 242.188 1489
39.0625 367.188 1214
343.75 281.25 1503
-273.438 226.562 973
187.5 414.062 1317
242.188 62.5 962
-453.125 -242.188 2767
62.5 195.312 1025
31.25 -117.188 1010
156.25 367.188 1227
437.5 -15.625 1025
54.6875 304.688 1073
476.562 242.188 1496
226.562 -31.25 1047
320.312 414.062 1387
23.4375 23.4375 1028
70.3125 -156.25 959
210.938 375 1241
148.438 -304.688 1288
148.438 359.375 1206
257.812 351.562 1259
-234.375 351.562 1047
265.625 93.75 1028
187.5 312.5 1288
-421.875 -93.75 3037
62.5 296.875 1080
46.875 320.312 1307
171.875 -265.625 1273
-289.062 125 923
382.812 320.312 1439
257.812 54.6875 964
-23.4375 226.562 992
234.375 15.625 1013
-39.0625 -62.5 1077
351.562 39.0625 975
257.812 -218.75 1115
-460.938 -218.75 2450
-39.0625 -31.25 1077
-484.375 -414.062 2639
-93.75 -39.0625 1101
-31.25 -62.5 1084
-460.938 -289.062 2812
7.8125 -23.4375 1108
242.188 -15.625 1016
-398.438 93.75 975
85.9375 382.812 1219
226.562 148.438 1038
-15.625 -281.25 3149
125 328.125 1297
195.312 -312.5 1236
70.3125 312.5 1328
328.125 -304.688 1044
273.438 -132.812 940
85.9375 7.8125 959
453.125 -23.4375 1038
226.562 203.125 1070
242.188 7.8125 1016
156.25 78.125 948
-203.125 421.875 1094
54.6875 -39.0625 975
-15.625 -226.562 1181
226.562 226.562 1084
0 226.562 989
210.938 0 1038
-203.125 429.688 1101
484.375 -39.0625 1025
39.0625 7.8125 992
164.062 312.5 1292
250 281.25 1145
-7.8125 7.8125 1060
-93.75 -46.875 1101
-476.562 -382.812 2680
343.75 -335.938 1038
39.0625 -93.75 1007
320.312 -210.938 1080
156.25 312.5 1297
140.625 117.188 1004
-70.3125 -31.25 1077
375 -156.25 948
-117.188 328.125 1050
406.25 242.188 1509
242.188 23.4375 998
234.375 -125 970
-78.125 -39.0625 1094
0 -140.625 989
117.188 367.188 1219
242.188 -62.5 984
-109.375 -46.875 1181
187.5 -289.062 1292
-46.875 359.375 1268
234.375 -289.062 1255
-93.75 -15.625 1115
226.562 -132.812 995
-101.562 234.375 1010
23.4375 101.562 935
210.938 -148.438 1028
460.938 -15.625 1022
78.125 0 959
46.875 343.75 1273
-70.3125 -148.438 1038
226.562 140.625 1031
70.3125 -15.625 959
250 -218.75 1112
242.188 -382.812 1041
31.25 39.0625 1004
-78.125 242.188 1022
62.5 -23.4375 962
312.5 46.875 973
351.562 -218.75 1084
23.4375 -54.6875 1034
281.25 -375 1010
226.562 351.562 1189
492.188 -320.312 1317
-265.625 242.188 981
54.6875 -117.188 1004
54.6875 -101.562 995
148.438 46.875 975
226.562 195.312 1063
39.0625 23.4375 992
31.25 -101.562 1019
406.25 203.125 1536
93.75 367.188 1219
70.3125 -39.0625 970
179.688 -437.5 1202
257.812 -351.562 1047
320.312 -351.562 1022
-476.562 -367.188 2680
-85.9375 -39.0625 1101
164.062 335.938 1259
328.125 -210.938 1077
468.75 -328.125 1392
-226.562 367.188 1060
171.875 273.438 1090
195.312 -304.688 1245
242.188 -304.688 1084
-281.25 203.125 962
226.562 109.375 1019
-218.75 359.375 1057
195.312 265.625 1094
195.312 109.375 1013
-85.9375 -93.75 1123
31.25 7.8125 995
210.938 359.375 1210
-23.4375 -70.3125 1077
117.188 -148.438 978
179.688 -70.3125 975
382.812 -15.625 1013
7.8125 -117.188 1007
-148.438 -164.062 1489
-476.562 46.875 2933
-289.062 179.688 910
468.75 242.188 1509
187.5 -39.0625 970
-109.375 -62.5 1130
-312.5 320.312 1016
179.688 -15.625 978
156.25 39.0625 987
93.75 -15.625 959
382.812 351.562 1458
31.25 382.812 1219
359.375 351.562 1470
265.625 -203.125 1077
39.0625 7.8125 992
156.25 -437.5 1227
23.4375 -23.4375 984
125 304.688 1302
257.812 179.688 1063
31.25 15.625 995
367.188 0 1010
226.562 125 1028
-250 296.875 1013
265.625 -304.688 1060
62.5 -15.625 959
226.562 117.188 1022
-85.9375 -70.3125 1080
218.75 -31.25 1070
140.625 343.75 1264
328.125 7.8125 1010
-39.0625 406.25 1470
-218.75 406.25 1084
343.75 0 1019
7.8125 0 1067
234.375 421.875 1241
23.4375 -62.5 1034
-101.562 -101.562 1123
359.375 -359.375 1031
78.125 -132.812 967
85.9375 -62.5 962
-62.5 -78.125 1077
31.25 359.375 1245
-304.688 343.75 1034
-85.9375 250 1025
367.188 343.75 1470
320.312 343.75 1415
7.8125 7.8125 1057
210.938 -109.375 1047
203.125 -46.875 989
218.75 -140.625 1010
171.875 304.688 1292
148.438 -414.062 1219
-179.688 437.5 1145
164.062 -109.375 998
-132.812 -156.25 1087
195.312 -54.6875 984
-421.875 304.688 2028
445.312 179.688 1776
179.688 -117.188 1004
210.938 398.438 1250
203.125 -7.8125 1054
-101.562 -117.188 1105
226.562 0 1031
445.312 -7.8125 1013
0 -148.438 973
-453.125 320.312 1981
367.188 -390.625 1028
210.938 234.375 1084
156.25 -390.625 1206
-109.375 -54.6875 1108
-398.438 62.5 1022
179.688 320.312 1268
437.5 359.375 1421
257.812 429.688 1292
-93.75 -93.75 1123
109.375 -15.625 959
-281.25 187.5 956
421.875 -15.625 1028
-101.562 -23.4375 1126
-445.312 -203.125 2859
15.625 23.4375 1031
-265.625 257.812 992
375 -7.8125 1022
195.312 -85.9375 995
156.25 -210.938 1169
195.312 -46.875 978
468.75 273.438 1410
-273.438 218.75 970
250 414.062 1278
-421.875 -85.9375 2984
210.938 367.188 1214
453.125 210.938 1523
31.25 -203.125 1141
39.0625 351.562 1250
78.125 -31.25 967
476.562 -39.0625 1022
54.6875 218.75 1004
-250 312.5 1022
148.438 -132.812 978
359.375 335.938 1483
429.688 226.562 1543
195.312 -421.875 1193
-85.9375 -78.125 1080
468.75 -15.625 1022
-70.3125 -39.0625 1077
187.5 -23.4375 970
101.562 109.375 946
-85.9375 -7.8125 1097
453.125 406.25 1370
-109.375 -39.0625 1153
-62.5 -23.4375 1080
62.5 -78.125 981
-281.25 210.938 964
101.562 343.75 1255
-210.938 429.688 1101
351.562 54.6875 981
23.4375 -46.875 1038
171.875 -273.438 1292
-429.688 -109.375 3010
-70.3125 226.562 1001
-78.125 -7.8125 1094
-453.125 -234.375 2659
414.062 359.375 1433
-101.562 -46.875 1101
-203.125 437.5 1105
375 -242.188 1090
265.625 437.5 1297
468.75 -31.25 1028
-39.0625 343.75 1268
359.375 187.5 2129
-210.938 343.75 1050
398.438 257.812 1464
429.688 273.438 1427
-257.812 289.062 1007
195.312 -31.25 970
0 351.562 1273
62.5 328.125 1283
-171.875 437.5 1145
226.562 -132.812 995
484.375 -31.25 1044
226.562 335.938 1185
-148.438 437.5 1433
39.0625 -109.375 1016
250 351.562 1189
492.188 -31.25 1034
257.812 234.375 1105
304.688 -359.375 1016
164.062 -101.562 984
62.5 218.75 1004
390.625 70.3125 1054
-210.938 351.562 1054
273.438 289.062 1259
312.5 7.8125 1013
234.375 414.062 1241
-500 -382.812 2680
234.375 335.938 1181
-23.4375 -164.062 989
234.375 320.312 1169
250 429.688 1292
-273.438 234.375 978
281.25 343.75 1278
-93.75 -39.0625 1101
445.312 218.75 1536
31.25 -93.75 1025
273.438 390.625 1273
226.562 179.688 1054
460.938 226.562 1529
117.188 320.312 1288
335.938 195.312 1739
203.125 -39.0625 989
421.875 273.438 1433
-289.062 187.5 954
109.375 304.688 1322
31.25 46.875 995
-31.25 -39.0625 1084
335.938 -367.188 1022
-492.188 -343.75 2271
46.875 -39.0625 978
78.125 0 959
23.4375 31.25 1019
343.75 187.5 2143
-484.375 -437.5 2639
85.9375 312.5 1328
93.75 351.562 1250
101.562 250 1060
421.875 328.125 1410
242.188 -93.75 973
31.25 15.625 995
226.562 343.75 1189
460.938 15.625 989
242.188 414.062 1278
242.188 281.25 1145
445.312 -164.062 959
-437.5 -148.438 2908
-453.125 359.375 1894
218.75 -140.625 1010
234.375 265.625 1138
140.625 46.875 975
414.062 328.125 1421
-257.812 273.438 998
140.625 -226.562 1210
257.812 -328.125 1060
351.562 -296.875 1057
351.562 -7.8125 1010
210.938 328.125 1206
117.188 -335.938 1264
226.562 406.25 1232
250 -359.375 1050
210.938 382.812 1236
226.562 257.812 1097
117.188 -93.75 959
328.125 54.6875 973
265.625 226.562 1130
226.562 23.4375 998
7.8125 -23.4375 1108
226.562 -54.6875 1047
210.938 -62.5 998
-85.9375 -39.0625 1101
23.4375 39.0625 1010
218.75 -7.8125 1050
164.062 367.188 1227
320.312 0 1007
-281.25 195.312 959
453.125 -171.875 962
460.938 234.375 1523
15.625 7.8125 1054
320.312 203.125 1748
203.125 -156.25 1044
7.8125 7.8125 1057
78.125 -78.125 970
78.125 -78.125 970
-265.625 250 984
85.9375 335.938 1288
7.8125 -203.125 1165
132.812 -320.312 1273
210.938 -148.438 1028
-62.5 -85.9375 1080
-125 -140.625 1101
250 343.75 1185
343.75 -320.312 1044
390.625 -7.8125 1019
242.188 343.75 1185
148.438 -93.75 970
-78.125 -85.9375 1077
281.25 54.6875 970
406.25 265.625 1452
218.75 15.625 1016
210.938 0 1038
148.438 -218.75 1193
234.375 351.562 1189
-15.625 -132.812 1007
156.25 -148.438 987
257.812 312.5 1259
7.8125 -7.8125 1080
359.375 39.0625 975
453.125 -7.8125 1013
257.812 -210.938 1097
281.25 414.062 1302
226.562 148.438 1038
382.812 78.125 1054
39.0625 46.875 995
-125 -179.688 1101
85.9375 359.375 1219
187.5 351.562 1232
398.438 -7.8125 1019
312.5 -210.938 1080
179.688 -289.062 1283
-54.6875 -70.3125 1073
226.562 7.8125 1022
164.062 -203.125 1141
-296.875 367.188 1047
-273.438 226.562 973
359.375 -218.75 1080
-39.0625 148.438 987
-484.375 -335.938 2744
93.75 -125 956
62.5 226.562 1001
-281.25 210.938 964
359.375 -148.438 951
226.562 335.938 1185
-46.875 -54.6875 1070
39.0625 7.8125 992
210.938 343.75 1214
289.062 15.625 1004
-500 -414.062 2598
398.438 242.188 1489
148.438 -390.625 1214
187.5 -62.5 978
62.5 -23.4375 962
257.812 281.25 1145
242.188 351.562 1189
132.812 281.25 1087
234.375 -390.625 1185
335.938 328.125 1445
179.688 -39.0625 967
304.688 328.125 1536
-93.75 -46.875 1101
210.938 7.8125 1028
-70.3125 0 1080
296.875 -257.812 1057
-265.625 382.812 1057
218.75 7.8125 1025
132.812 -117.188 959
117.188 343.75 1255
-476.562 -390.625 2680
-476.562 -390.625 2680
171.875 -367.188 1202
281.25 -328.125 1025
265.625 320.312 1255
195.312 367.188 1236
7.8125 328.125 1302
78.125 -132.812 967
0 7.8125 1057
-445.312 -179.688 2859
-492.188 -335.938 2301
125 -171.875 984
-210.938 335.938 1047
-312.5 328.125 1947
382.812 -375 1031
171.875 109.375 1004
210.938 335.938 1206
-257.812 289.062 1007
-31.25 -132.812 1022
-484.375 -429.688 2618
304.688 320.312 1543
46.875 -23.4375 970
125 -335.938 1264
226.562 328.125 1177
156.25 289.062 1333
187.5 343.75 1227
445.312 164.062 1776
304.688 -250 1063
46.875 54.6875 978
226.562 320.312 1173
195.312 -15.625 992
-31.25 -78.125 1084
242.188 164.062 1054
328.125 203.125 1766
117.188 351.562 1255
375 78.125 1057
242.188 23.4375 998
335.938 320.312 1523
-273.438 242.188 981
-273.438 242.188 981
460.938 265.625 1477
7.8125 0 1067
429.688 359.375 1427
-289.062 187.5 954
15.625 390.625 1202
-195.312 375 1223
179.688 -15.625 978
-250 304.688 1016
421.875 203.125 1536
320.312 -265.625 1063
289.062 7.8125 1007
234.375 15.625 1013
250 -398.438 1041
-445.312 -210.938 2812
-117.188 39.0625 1025
351.562 203.125 1757
468.75 242.188 1509
281.25 -226.562 1080
210.938 -148.438 1028
187.5 -70.3125 978
320.312 -140.625 948
-476.562 -281.25 2812
359.375 -7.8125 1013
148.438 -117.188 978
-78.125 242.188 1022
-39.0625 359.375 1264
-406.25 85.9375 992
468.75 -23.4375 1034
390.625 -15.625 1016
-132.812 -156.25 1087
414.062 257.812 1458
-109.375 398.438 1445
-7.8125 -15.625 1097
421.875 250 1509
-468.75 -328.125 2767
156.25 335.938 1259
-265.625 398.438 1067
351.562 335.938 1503
-468.75 -335.938 2744
210.938 320.312 1206
234.375 312.5 1165
210.938 351.562 1210
343.75 210.938 1748
179.688 -31.25 967
117.188 -234.375 1307
476.562 31.25 995
-109.375 335.938 1041
-125 -140.625 1101
-265.625 265.625 995
-140.625 414.062 1185
289.062 85.9375 1025
382.812 281.25 1523
140.625 335.938 1259
-203.125 398.438 1080
390.625 320.312 1427
195.312 328.125 1259
156.25 320.312 1259
312.5 203.125 1748
0 85.9375 946
445.312 210.938 1536
335.938 257.812 1529
242.188 156.25 1044
195.312 -164.062 1077
-101.562 226.562 1010
62.5 -109.375 1004
85.9375 203.125 1028
-484.375 -421.875 2659
-257.812 281.25 1001
382.812 85.9375 1054
23.4375 39.0625 1010
203.125 -421.875 1193
445.312 203.125 1536
-93.75 -7.8125 1101
226.562 156.25 1044
226.562 -289.062 1283
109.375 -54.6875 954
23.4375 -23.4375 984
375 93.75 1785
226.562 -23.4375 1047
148.438 335.938 1259
-31.25 335.938 1302
218.75 -140.625 1010
281.25 15.625 1004
-445.312 320.312 1981
226.562 312.5 1165
203.125 328.125 1227
351.562 367.188 1445
390.625 -351.562 1044
343.75 -242.188 1080
-7.8125 -117.188 1013
-117.188 -125 1105
265.625 312.5 1259
109.375 -62.5 954
398.438 -351.562 1044
132.812 367.188 1219
296.875 15.625 1001
179.688 312.5 1297
218.75 226.562 1080
-15.625 320.312 1073
-62.5 351.562 1264
31.25 -23.4375 984
0 -210.938 1177
-70.3125 -54.6875 1073
-265.625 257.812 992
54.6875 -31.25 967
-210.938 375 1063
-218.75 414.062 1087
421.875 -23.4375 1019
429.688 164.062 1823
70.3125 -7.8125 959
453.125 320.312 1410
-101.562 -101.562 1123
367.188 -257.812 1080
351.562 0 1016
187.5 -31.25 970
-109.375 -62.5 1130
7.8125 -101.562 1016
-460.938 382.812 1823
-78.125 0 1084
-281.25 203.125 962
375 -226.562 1097
-281.25 218.75 970
-343.75 210.938 959
289.062 -226.562 1070
-70.3125 -23.4375 1084
0 -117.188 1007
476.562 265.625 1464
218.75 218.75 1077
312.5 -296.875 1044
15.625 -125 1001
-421.875 -101.562 3037
343.75 250 1529
335.938 -304.688 1044
-109.375 -117.188 1105
203.125 -7.8125 1054
273.438 335.938 1273
15.625 31.25 1025
-476.562 -375 2680
281.25 -132.812 943
164.062 359.375 1232
54.6875 -78.125 989
406.25 -23.4375 1019
187.5 -54.6875 975
171.875 70.3125 954
125 296.875 1328
93.75 -23.4375 959
125 375 1219
187.5 320.312 1278
70.3125 203.125 1022
351.562 164.062 1833
23.4375 -109.375 1013
367.188 -382.812 1028
296.875 -382.812 1010
23.4375 -70.3125 1038
31.25 -85.9375 1028
156.25 343.75 1264
-70.3125 234.375 987
218.75 -54.6875 998
23.4375 -78.125 1034
-23.4375 210.938 1016
46.875 -31.25 967
281.25 -382.812 1013
242.188 335.938 1181
312.5 343.75 1458
203.125 437.5 1292
-132.812 148.438 928
-46.875 -54.6875 1070
156.25 273.438 1090
164.062 273.438 1090
-265.625 257.812 992
39.0625 -101.562 1022
226.562 -7.8125 1044
328.125 -265.625 1067
257.812 46.875 967
460.938 -171.875 962
195.312 320.312 1227
421.875 414.062 1370
140.625 -218.75 1214
335.938 62.5 975
101.562 125 998
-500 -421.875 2598
406.25 328.125 1421
304.688 -328.125 1028
-62.5 -93.75 1063
210.938 -296.875 1255
406.25 46.875 989
-93.75 -93.75 1123
203.125 -289.062 1292
-257.812 296.875 1010
375 -250 1084
226.562 421.875 1241
429.688 39.0625 987
367.188 187.5 1785
46.875 -101.562 998
203.125 -156.25 1025
7.8125 7.8125 1060
226.562 210.938 1070
390.625 351.562 1452
-210.938 390.625 1077
-195.312 421.875 1094
460.938 54.6875 1038
242.188 -125 948
187.5 -39.0625 973
-109.375 -109.375 1101
218.75 234.375 1084
179.688 421.875 1370
210.938 -343.75 1197
85.9375 15.625 959
242.188 140.625 1031
312.5 54.6875 973
62.5 -117.188 962
226.562 304.688 1153
-273.438 226.562 973
210.938 -31.25 975
226.562 218.75 1073
-39.0625 -46.875 1077
398.438 -156.25 956
109.375 -31.25 954
335.938 265.625 1503
187.5 -171.875 1070
226.562 320.312 1169
359.375 -390.625 1031
148.438 -125 978
296.875 -265.625 1054
-7.8125 46.875 1004
312.5 -140.625 948
46.875 367.188 1250
164.062 -148.438 1010
203.125 445.312 1273
-39.0625 -148.438 1001
70.3125 -7.8125 959
-273.438 242.188 981
226.562 171.875 1047
140.625 -39.0625 956
15.625 343.75 1278
7.8125 15.625 1047
359.375 78.125 1047
15.625 -351.562 3092
203.125 351.562 1219
382.812 328.125 1433
218.75 -382.812 1185
265.625 -398.438 1028
203.125 -445.312 1206
-289.062 195.312 956
78.125 0 956
421.875 -164.062 962
218.75 15.625 1016
54.6875 -39.0625 975
109.375 -250 1307
-15.625 -15.625 1101
70.3125 -109.375 956
375 125 1804
289.062 281.25 1632
257.812 15.625 998
218.75 -93.75 1028
406.25 265.625 1445
78.125 -296.875 1445
335.938 -351.562 1028
78.125 7.8125 956
140.625 -93.75 970
-476.562 -273.438 2789
398.438 31.25 984
218.75 210.938 1070
7.8125 31.25 1028
-210.938 367.188 1050
226.562 7.8125 1022
101.562 -257.812 1333
210.938 296.875 1169
187.5 -375 1189
468.75 367.188 1415
234.375 -375 1044
210.938 328.125 1181
210.938 -148.438 1010
281.25 -234.375 1067
39.0625 359.375 1250
-93.75 -31.25 1101
93.75 289.062 1080
210.938 304.688 1169
-242.188 343.75 1041
-85.9375 -31.25 1097
375 -234.375 1094
39.0625 398.438 1483
226.562 312.5 1157
226.562 164.062 1044
-289.062 390.625 1060
109.375 15.625 967
31.25 -117.188 1007
93.75 -140.625 970
289.062 -382.812 1016
-265.625 273.438 998
453.125 -164.062 962
445.312 359.375 1410
375 351.562 1458
-273.438 429.688 1087
-85.9375 257.812 1025
117.188 367.188 1219
-140.625 351.562 1586
7.8125 0 1067
187.5 -23.4375 970
281.25 382.812 1278
320.312 46.875 973
-109.375 -31.25 1145
78.125 -7.8125 959
-31.25 -70.3125 1077
7.8125 398.438 1202
-234.375 367.188 1057
-46.875 398.438 1193
-78.125 296.875 1047
218.75 421.875 1241
0 -23.4375 1057
218.75 -78.125 1034
250 -210.938 1108
39.0625 382.812 1489
-93.75 -7.8125 1105
359.375 -257.812 1080
250 281.25 1647
85.9375 -54.6875 959
179.688 296.875 1297
203.125 429.688 1255
273.438 -203.125 1080
-85.9375 -54.6875 1080
46.875 -7.8125 964
210.938 312.5 1173
-273.438 210.938 970
429.688 -15.625 1022
226.562 296.875 1153
226.562 304.688 1153
218.75 -132.812 1001
125 257.812 1067
23.4375 46.875 995
125 -320.312 1283
-265.625 257.812 989
328.125 390.625 1398
179.688 -351.562 1197
210.938 335.938 1185
-210.938 382.812 1070
101.562 289.062 1077
179.688 -31.25 967
242.188 -273.438 1094
7.8125 320.312 1601
140.625 -304.688 1278
453.125 -31.25 1019
46.875 -78.125 987
179.688 -257.812 1259
242.188 -265.625 1094
-101.562 242.188 1013
46.875 15.625 984
468.75 15.625 989
54.6875 218.75 1004
156.25 359.375 1223
-132.812 421.875 1458
257.812 320.312 1255
-101.562 -15.625 1119
156.25 382.812 1206
226.562 125 1025
242.188 351.562 1185
429.688 62.5 1057
218.75 -15.625 1057
265.625 -203.125 1084
296.875 195.312 1823
367.188 343.75 1464
226.562 187.5 1057
-117.188 -125 1101
-7.8125 -140.625 987
-70.3125 -85.9375 1080
-257.812 289.062 1007
304.688 203.125 2129
0 -140.625 964
257.812 312.5 1259
320.312 -203.125 1067
195.312 351.562 1232
187.5 -171.875 1070
242.188 -7.8125 998
250 351.562 1255
-281.25 218.75 967
484.375 -171.875 964
-39.0625 382.812 1197
-101.562 -125 1097
-203.125 421.875 1094
164.062 -31.25 962
-273.438 234.375 978
62.5 109.375 940
-125 7.8125 1084
281.25 -203.125 1073
-109.375 -70.3125 1130
242.188 125 1028
-289.062 195.312 956
23.4375 -39.0625 1034
210.938 281.25 1161
289.062 195.312 1823
-15.625 -7.8125 1090
296.875 -257.812 1057
195.312 -164.062 1054
-101.562 7.8125 1077
78.125 7.8125 956
187.5 -70.3125 984
-31.25 312.5 1063
406.25 359.375 1427
93.75 -265.625 1354
171.875 -187.5 1112
421.875 273.438 1404
148.438 -367.188 1214
15.625 304.688 1073
-289.062 187.5 954
218.75 226.562 1077
-117.188 -164.062 1077
0 343.75 1278
-117.188 -46.875 1108
148.438 -171.875 1001
39.0625 15.625 989
-78.125 226.562 1004
85.9375 15.625 959
-257.812 296.875 1010
-15.625 351.562 1268
148.438 351.562 1241
23.4375 15.625 995
-46.875 -78.125 1087
93.75 351.562 1255
468.75 281.25 1410
156.25 312.5 1292
-109.375 -156.25 1067
179.688 -179.688 1087
132.812 343.75 1250
156.25 367.188 1210
367.188 -218.75 1084
117.188 343.75 1255
218.75 -23.4375 1054
109.375 -148.438 981
226.562 367.188 1197
179.688 -187.5 1087
-85.9375 0 1087
-281.25 203.125 962
179.688 -62.5 975
460.938 -23.4375 1041
187.5 -31.25 970
70.3125 -70.3125 970
156.25 -414.062 1210
476.562 273.438 1410
-445.312 328.125 1959
-109.375 -31.25 1145
109.375 -195.312 1054
398.438 328.125 1421
7.8125 -7.8125 1084
164.062 -195.312 1126
218.75 210.938 1070
7.8125 -70.3125 1044
242.188 414.062 1278
203.125 -23.4375 970
234.375 328.125 1173
156.25 -101.562 984
203.125 375 1241
85.9375 -273.438 1398
234.375 -70.3125 989
-31.25 -31.25 1084
476.562 195.312 1671
-210.938 437.5 1101
-210.938 398.438 1084
7.8125 15.625 1047
-500 -406.25 2639
125 78.125 946
23.4375 -31.25 1038
210.938 359.375 1202
125 304.688 1322
101.562 296.875 1077
15.625 31.25 1025
460.938 234.375 1523
-218.75 367.188 1050
132.812 367.188 1223
-93.75 -46.875 1097
328.125 343.75 1516
328.125 -148.438 951
257.812 281.25 1639
484.375 -39.0625 1022
328.125 0 1010
-46.875 375 1250
242.188 109.375 1019
335.938 210.938 1757
117.188 -23.4375 948
31.25 23.4375 995
421.875 -367.188 1206
226.562 304.688 1153
7.8125 328.125 1278
312.5 187.5 1833
148.438 359.375 1227
171.875 -54.6875 967
62.5 -195.312 1115
-23.4375 148.438 987
117.188 -234.375 1250
-31.25 -195.312 1185
492.188 -39.0625 1025
39.0625 54.6875 984
-109.375 -109.375 1101
39.0625 -195.312 1130
-31.25 398.438 1206
335.938 -148.438 951
-304.688 351.562 1034
54.6875 382.812 1496
375 312.5 1433
398.438 187.5 1794
-234.375 359.375 1050
343.75 171.875 1813
-265.625 273.438 998
296.875 -351.562 1016
-93.75 -31.25 1101
-101.562 -39.0625 1101
-39.0625 -39.0625 1077
-31.25 -7.8125 1094
226.562 289.062 1149
-265.625 265.625 995
54.6875 335.938 1283
-453.125 351.562 1894
484.375 -320.312 1410
7.8125 375 1241
-101.562 382.812 1489
242.188 187.5 1060
78.125 -23.4375 962
-273.438 250 984
414.062 -156.25 959
171.875 359.375 1223
210.938 289.062 1165
-62.5 375 1543
109.375 -70.3125 954
375 -367.188 1031
164.062 -23.4375 962
140.625 -437.5 1227
125 -117.188 962
335.938 273.438 1503
