ply
format ascii 1.0
comment Created by Open3D
element vertex 2419
property double x
property double y
property double z
end_header
164.062 -250 873
-54.6875 -382.812 849
109.375 -171.875 794
-109.375 -78.125 767
273.438 46.875 752
-484.375 375 1227
-85.9375 375 790
23.4375 250 730
335.938 250 680
62.5 234.375 710
-328.125 46.875 856
195.312 -132.812 776
-335.938 -39.0625 839
93.75 -164.062 796
-101.562 -125 739
-7.8125 -304.688 854
164.062 250 707
187.5 -320.312 2908
148.438 250 708
382.812 46.875 730
7.8125 23.4375 803
101.562 -281.25 829
-453.125 375 1034
406.25 250 668
7.8125 -210.938 708
-15.625 226.562 719
-70.3125 -101.562 752
148.438 -289.062 845
-359.375 289.062 825
-445.312 101.562 787
-93.75 0 817
93.75 242.188 711
453.125 242.188 658
-101.562 -140.625 728
-367.188 234.375 860
-15.625 234.375 725
-320.312 39.0625 1007
-132.812 -101.562 754
-375 -125 940
15.625 -156.25 720
78.125 242.188 714
492.188 -140.625 903
335.938 54.6875 720
234.375 -273.438 1060
-39.0625 31.25 802
15.625 -148.438 723
-54.6875 -210.938 711
312.5 148.438 700
-54.6875 31.25 802
-257.812 195.312 744
-421.875 -148.438 978
-390.625 156.25 798
-85.9375 -210.938 714
234.375 -203.125 854
-132.812 -203.125 714
-7.8125 414.062 1433
-7.8125 -31.25 792
-7.8125 -7.8125 807
-164.062 203.125 728
-109.375 -15.625 805
-304.688 421.875 1193
-179.688 210.938 739
203.125 242.188 693
-273.438 296.875 819
257.812 242.188 684
-140.625 -109.375 749
195.312 -320.312 2908
-203.125 210.938 747
-484.375 296.875 843
-250 187.5 738
-328.125 -7.8125 823
-257.812 187.5 739
-93.75 -406.25 867
335.938 429.688 752
-85.9375 -140.625 730
23.4375 -7.8125 805
-148.438 218.75 738
-101.562 -195.312 708
31.25 -375 860
-109.375 -179.688 711
312.5 70.3125 722
-109.375 210.938 722
-367.188 156.25 802
304.688 -273.438 1057
-234.375 195.312 739
23.4375 226.562 710
132.812 -281.25 841
-382.812 218.75 813
-421.875 164.062 796
226.562 242.188 690
-148.438 -93.75 759
-125 -179.688 711
140.625 -250 860
-54.6875 328.125 802
-429.688 312.5 837
281.25 70.3125 761
398.438 -273.438 1054
132.812 -218.75 837
234.375 429.688 762
-359.375 140.625 805
273.438 156.25 708
-78.125 -296.875 858
31.25 226.562 708
-70.3125 218.75 722
234.375 -218.75 851
281.25 46.875 752
-445.312 218.75 837
-39.0625 -125 738
-46.875 -132.812 733
-54.6875 218.75 717
-273.438 382.812 954
203.125 -148.438 773
-234.375 -39.0625 860
265.625 250 690
-468.75 117.188 792
125 -250 833
-406.25 70.3125 792
-210.938 195.312 733
-117.188 -179.688 711
-85.9375 226.562 731
7.8125 234.375 722
-125 -78.125 767
-476.562 273.438 835
93.75 -171.875 803
242.188 242.188 687
-492.188 93.75 967
242.188 429.688 762
171.875 -250 875
-281.25 351.562 817
-367.188 398.438 1022
-406.25 226.562 809
140.625 -281.25 845
320.312 39.0625 728
-468.75 218.75 829
-398.438 -148.438 981
156.25 421.875 776
281.25 257.812 694
-414.062 54.6875 800
-382.812 234.375 817
-382.812 -218.75 1292
210.938 -218.75 878
-367.188 -320.312 3238
210.938 437.5 1292
7.8125 0 813
-492.188 125 940
-23.4375 226.562 720
-406.25 320.312 843
-437.5 -421.875 2286
-101.562 -7.8125 811
132.812 -148.438 811
-156.25 -203.125 716
-359.375 328.125 821
-101.562 -382.812 862
-437.5 -140.625 978
-7.8125 -343.75 847
-273.438 -210.938 1268
-265.625 187.5 741
250 242.188 686
-343.75 390.625 1007
-54.6875 -195.312 706
-140.625 382.812 802
359.375 93.75 741
359.375 -304.688 2789
-390.625 328.125 833
382.812 250 670
-31.25 -398.438 849
-359.375 -70.3125 873
-390.625 101.562 789
210.938 -320.312 2908
390.625 31.25 759
-31.25 -62.5 776
-484.375 234.375 862
-15.625 414.062 1415
-101.562 -328.125 858
171.875 250 706
-156.25 -156.25 725
-140.625 -203.125 714
-132.812 -203.125 714
218.75 242.188 691
-468.75 375 1038
140.625 421.875 773
-437.5 101.562 787
-171.875 203.125 733
-218.75 -117.188 928
-460.938 -39.0625 967
398.438 -257.812 1038
296.875 156.25 708
226.562 -226.562 860
-125 23.4375 811
-414.062 398.438 1223
-46.875 -179.688 708
-234.375 -117.188 1157
195.312 421.875 769
-398.438 -140.625 984
-453.125 78.125 794
-156.25 203.125 727
23.4375 -62.5 771
7.8125 -265.625 875
-453.125 -140.625 975
-367.188 -117.188 935
-343.75 -31.25 835
-85.9375 -179.688 710
367.188 15.625 728
351.562 -265.625 1050
-343.75 335.938 827
-492.188 367.188 1041
-343.75 195.312 813
-234.375 429.688 1001
390.625 -257.812 1038
-164.062 -156.25 727
54.6875 234.375 713
15.625 226.562 711
328.125 62.5 719
23.4375 437.5 1398
-132.812 -335.938 882
226.562 351.562 781
-132.812 23.4375 811
-468.75 242.188 858
-445.312 312.5 835
-421.875 226.562 811
-414.062 -218.75 1302
7.8125 -125 738
23.4375 -218.75 711
-421.875 -218.75 1302
-398.438 -54.6875 975
359.375 23.4375 731
367.188 78.125 728
-93.75 23.4375 811
-117.188 -218.75 723
445.312 -257.812 1034
-289.062 23.4375 1019
-179.688 203.125 734
132.812 -226.562 835
257.812 164.062 706
-406.25 156.25 796
-242.188 312.5 811
296.875 125 698
-85.9375 -375 851
187.5 437.5 1288
-148.438 15.625 819
39.0625 421.875 1410
-390.625 132.812 800
-171.875 -93.75 906
-359.375 250 847
-46.875 414.062 1427
156.25 -218.75 837
312.5 109.375 711
-367.188 -93.75 915
-492.188 414.062 1232
375 -265.625 1044
367.188 85.9375 746
-85.9375 -296.875 860
7.8125 -62.5 773
-23.4375 414.062 1433
-351.562 414.062 1210
-500 -226.562 1302
7.8125 226.562 714
15.625 -210.938 708
-421.875 148.438 796
-328.125 343.75 918
-445.312 382.812 1034
7.8125 -46.875 783
-257.812 304.688 815
140.625 242.188 701
-476.562 226.562 867
-437.5 265.625 841
-476.562 -320.312 2226
-484.375 109.375 954
-273.438 429.688 1189
-281.25 187.5 742
-62.5 -140.625 728
-15.625 -257.812 878
101.562 234.375 704
304.688 257.812 690
-117.188 -203.125 711
-500 -125 946
-335.938 414.062 1197
203.125 -281.25 858
-125 210.938 725
-484.375 -125 964
85.9375 -234.375 833
-476.562 -125 967
-39.0625 335.938 798
-218.75 195.312 734
93.75 234.375 704
289.062 187.5 694
-414.062 93.75 787
70.3125 -296.875 841
320.312 31.25 733
-39.0625 -31.25 792
343.75 250 678
-226.562 -335.938 3037
-109.375 -132.812 734
-156.25 210.938 733
-429.688 179.688 800
-210.938 203.125 739
-109.375 390.625 1452
-375 31.25 803
250 250 693
140.625 -85.9375 845
171.875 437.5 1283
-242.188 -335.938 3064
125 414.062 776
156.25 -179.688 776
-398.438 -218.75 1297
-414.062 390.625 1031
156.25 250 708
476.562 250 659
-31.25 -343.75 845
468.75 -218.75 987
140.625 250 710
382.812 359.375 769
15.625 -179.688 707
85.9375 234.375 706
-31.25 226.562 722
-414.062 -179.688 1245
-242.188 429.688 1001
39.0625 -257.812 896
-140.625 367.188 798
-62.5 -85.9375 761
273.438 257.812 696
-304.688 429.688 1193
-93.75 218.75 725
296.875 -273.438 1057
210.938 -273.438 858
265.625 257.812 697
-54.6875 -179.688 708
-453.125 -132.812 975
-492.188 109.375 954
62.5 242.188 717
476.562 257.812 664
-281.25 -210.938 1268
-164.062 -54.6875 873
-382.812 125 805
320.312 250 682
0 -125 738
468.75 257.812 666
-351.562 406.25 1010
492.188 429.688 723
-132.812 210.938 727
-78.125 -382.812 849
-125 -179.688 708
-289.062 289.062 827
-460.938 304.688 835
179.688 437.5 769
101.562 -195.312 790
203.125 -273.438 856
-492.188 296.875 839
-62.5 -195.312 704
-390.625 398.438 1034
0 226.562 704
257.812 -195.312 790
132.812 242.188 693
-70.3125 218.75 710
281.25 242.188 672
-117.188 210.938 716
-460.938 226.562 835
-312.5 195.312 747
210.938 -234.375 860
-289.062 421.875 1013
-414.062 -320.312 3269
445.312 257.812 657
257.812 257.812 686
-148.438 -109.375 746
-343.75 -23.4375 837
-31.25 234.375 717
-7.8125 -62.5 764
281.25 109.375 698
-367.188 46.875 811
62.5 406.25 774
-125 -203.125 716
312.5 -265.625 1054
-445.312 226.562 837
421.875 257.812 659
414.062 281.25 678
-437.5 -320.312 2256
0 234.375 711
-164.062 210.938 722
-7.8125 234.375 711
-23.4375 234.375 713
-351.562 -320.312 3092
351.562 0 723
406.25 437.5 738
273.438 171.875 706
-429.688 164.062 796
-390.625 39.0625 800
-54.6875 -78.125 759
-375 328.125 825
210.938 -156.25 769
-15.625 31.25 803
164.062 -281.25 864
-257.812 -335.938 3037
132.812 -179.688 780
-406.25 -140.625 978
375 429.688 741
15.625 -382.812 856
226.562 -156.25 776
304.688 -265.625 1054
-476.562 367.188 933
-375 -320.312 3238
46.875 -242.188 915
-156.25 -203.125 717
-257.812 429.688 998
-406.25 -218.75 1307
492.188 250 650
-93.75 -351.562 849
-132.812 -156.25 717
-359.375 78.125 802
-320.312 195.312 746
-312.5 179.688 734
-140.625 -203.125 717
-125 398.438 1312
273.438 242.188 674
328.125 23.4375 733
312.5 -312.5 2812
-492.188 70.3125 787
281.25 429.688 750
-39.0625 -304.688 847
156.25 429.688 774
-78.125 218.75 713
-132.812 -203.125 716
-85.9375 -390.625 854
-460.938 70.3125 800
195.312 351.562 787
-109.375 -218.75 725
-257.812 296.875 825
265.625 70.3125 766
23.4375 -312.5 858
296.875 101.562 719
179.688 242.188 684
-429.688 -218.75 1307
54.6875 242.188 707
62.5 -289.062 889
15.625 -156.25 711
-289.062 -335.938 3064
132.812 -281.25 839
101.562 -273.438 827
-296.875 23.4375 1025
-140.625 -93.75 752
117.188 -39.0625 843
226.562 -164.062 774
-242.188 359.375 809
-101.562 -390.625 864
-101.562 -140.625 722
54.6875 359.375 783
132.812 -171.875 780
23.4375 -93.75 747
15.625 -171.875 706
15.625 31.25 802
-382.812 148.438 802
-109.375 -140.625 722
93.75 -289.062 825
-125 0 811
101.562 -281.25 827
171.875 242.188 686
-23.4375 -93.75 747
492.188 257.812 650
-257.812 203.125 741
484.375 257.812 653
-398.438 140.625 800
-93.75 226.562 722
15.625 -31.25 781
-109.375 -171.875 708
468.75 250 654
460.938 250 655
-414.062 320.312 831
125 335.938 798
-468.75 250 856
445.312 -250 1028
-31.25 -15.625 796
445.312 250 657
-164.062 -203.125 719
-429.688 382.812 1028
390.625 429.688 739
367.188 437.5 742
250 429.688 754
-359.375 117.188 811
164.062 437.5 771
-359.375 335.938 827
-101.562 -179.688 708
-320.312 414.062 1013
382.812 437.5 742
179.688 -250 869
-265.625 203.125 741
-445.312 234.375 864
375 78.125 727
23.4375 226.562 700
-335.938 210.938 827
468.75 265.625 658
-39.0625 -156.25 716
-390.625 406.25 1034
7.8125 -54.6875 769
-7.8125 406.25 790
234.375 250 684
-101.562 -171.875 708
23.4375 -250 889
148.438 250 694
-445.312 203.125 809
289.062 -273.438 1060
-320.312 179.688 739
-281.25 23.4375 815
109.375 234.375 691
-46.875 -343.75 841
-70.3125 -421.875 845
-398.438 -62.5 987
-78.125 -210.938 717
-117.188 -171.875 710
-62.5 -179.688 704
-101.562 -195.312 708
-70.3125 -179.688 704
-109.375 -179.688 708
-414.062 -218.75 1307
-125 -312.5 871
15.625 -54.6875 769
203.125 242.188 682
132.812 250 698
312.5 85.9375 717
187.5 242.188 683
-335.938 421.875 1206
-375 85.9375 794
-460.938 242.188 860
-195.312 203.125 727
328.125 101.562 717
484.375 250 652
-70.3125 -140.625 722
304.688 250 672
359.375 39.0625 734
335.938 101.562 717
-500 164.062 833
-398.438 226.562 811
-492.188 -398.438 2103
-23.4375 23.4375 811
-15.625 -46.875 776
15.625 -7.8125 796
0 -78.125 757
-382.812 164.062 798
62.5 359.375 783
-7.8125 226.562 706
-78.125 -140.625 722
-445.312 156.25 796
156.25 -148.438 780
-109.375 -117.188 738
-437.5 -218.75 1307
-93.75 -140.625 722
-250 304.688 819
-335.938 187.5 742
406.25 265.625 668
-460.938 164.062 805
382.812 -257.812 1041
171.875 -148.438 774
-414.062 148.438 798
-445.312 93.75 785
-70.3125 -195.312 706
296.875 70.3125 727
-85.9375 -195.312 708
-210.938 210.938 734
-117.188 -132.812 728
-320.312 187.5 742
-171.875 -85.9375 901
492.188 265.625 650
304.688 164.062 706
-265.625 187.5 731
-85.9375 -93.75 749
-218.75 -335.938 3037
-289.062 429.688 1013
-85.9375 -382.812 851
-453.125 164.062 800
-70.3125 31.25 805
187.5 -156.25 771
289.062 164.062 707
-62.5 -195.312 704
-54.6875 -421.875 841
-15.625 -101.562 744
398.438 281.25 682
-218.75 203.125 731
-93.75 -382.812 858
-429.688 15.625 817
296.875 -265.625 1054
-328.125 -7.8125 825
-140.625 429.688 1177
7.8125 226.562 704
0 -281.25 860
-93.75 -179.688 707
289.062 140.625 696
-429.688 265.625 843
-304.688 421.875 1010
421.875 265.625 666
-203.125 -335.938 3037
398.438 257.812 663
140.625 -39.0625 841
304.688 148.438 696
-351.562 -39.0625 849
46.875 234.375 704
171.875 437.5 771
-343.75 -31.25 837
70.3125 234.375 697
54.6875 226.562 694
-437.5 203.125 805
-93.75 -171.875 708
15.625 226.562 701
437.5 250 657
-242.188 195.312 733
-234.375 195.312 731
-78.125 -171.875 707
-296.875 -210.938 1278
-179.688 367.188 800
7.8125 39.0625 798
414.062 265.625 667
320.312 156.25 688
78.125 -257.812 845
-179.688 -125 935
-140.625 -156.25 717
-78.125 -23.4375 792
-281.25 -335.938 3064
-15.625 -265.625 864
296.875 179.688 698
-335.938 414.062 1007
-273.438 187.5 733
289.062 101.562 719
-398.438 156.25 798
-132.812 210.938 717
-437.5 101.562 783
484.375 -140.625 908
359.375 429.688 742
-117.188 -15.625 800
-101.562 -117.188 738
-46.875 -93.75 747
-367.188 140.625 803
445.312 414.062 739
-117.188 -117.188 739
-476.562 -109.375 967
78.125 234.375 694
-273.438 -335.938 3064
-117.188 -203.125 714
367.188 93.75 738
-31.25 -343.75 843
351.562 -125 906
273.438 70.3125 762
-335.938 289.062 827
-445.312 335.938 956
-468.75 -406.25 2116
0 0 805
203.125 437.5 771
-46.875 -187.5 704
156.25 -281.25 843
-54.6875 -70.3125 762
-453.125 -148.438 973
-414.062 -148.438 978
492.188 335.938 706
125 -195.312 789
-304.688 -335.938 3092
78.125 -250 841
-70.3125 -62.5 767
195.312 -242.188 864
117.188 -250 831
195.312 -250 862
-273.438 429.688 1004
367.188 15.625 723
281.25 -273.438 1060
195.312 242.188 682
125 234.375 688
351.562 359.375 773
-492.188 179.688 827
-343.75 210.938 819
492.188 351.562 725
-421.875 -218.75 1307
195.312 -187.5 849
-156.25 -78.125 764
-492.188 218.75 875
-23.4375 -320.312 847
-484.375 70.3125 787
-484.375 234.375 867
-164.062 218.75 733
390.625 359.375 771
7.8125 -117.188 734
351.562 85.9375 722
476.562 265.625 658
-164.062 -93.75 755
-382.812 -117.188 987
-359.375 62.5 805
390.625 265.625 671
-476.562 70.3125 787
125 -210.938 835
343.75 359.375 774
296.875 250 674
218.75 250 683
-125 -203.125 716
-343.75 -421.875 2812
-70.3125 -382.812 847
289.062 250 674
93.75 234.375 693
304.688 179.688 697
-31.25 31.25 805
23.4375 -117.188 736
-187.5 203.125 725
-109.375 -398.438 875
-281.25 296.875 823
-148.438 296.875 803
250 54.6875 776
-93.75 -195.312 708
-343.75 273.438 839
273.438 109.375 701
289.062 257.812 682
-148.438 218.75 728
-78.125 -390.625 851
-492.188 117.188 951
-210.938 390.625 1004
-85.9375 218.75 714
-93.75 0 809
-140.625 210.938 719
-343.75 296.875 825
218.75 257.812 693
-23.4375 -15.625 796
179.688 351.562 785
-109.375 -7.8125 803
164.062 -148.438 776
93.75 -281.25 827
164.062 242.188 688
-85.9375 -171.875 707
117.188 -296.875 819
85.9375 234.375 693
242.188 257.812 688
179.688 -148.438 774
-93.75 -257.812 880
46.875 242.188 708
-226.562 195.312 728
476.562 -164.062 933
-500 -421.875 2103
-7.8125 -101.562 742
-468.75 242.188 860
-398.438 328.125 833
-492.188 -429.688 2078
-328.125 250 856
-179.688 -132.812 731
-367.188 125 807
-265.625 304.688 821
-445.312 242.188 860
351.562 -304.688 2789
-257.812 -218.75 1278
-179.688 203.125 723
23.4375 -54.6875 769
-31.25 23.4375 811
-54.6875 -179.688 704
125 242.188 694
101.562 -210.938 858
390.625 117.188 728
-117.188 -187.5 708
0 -148.438 717
-70.3125 15.625 817
-46.875 -179.688 704
23.4375 421.875 781
-164.062 -187.5 711
-320.312 15.625 978
-273.438 195.312 739
15.625 351.562 790
0 -304.688 854
-156.25 -7.8125 841
460.938 242.188 657
-164.062 -148.438 722
-156.25 -304.688 915
359.375 15.625 723
-78.125 -195.312 707
445.312 265.625 663
-320.312 171.875 736
-31.25 414.062 792
-156.25 382.812 802
-31.25 343.75 798
15.625 -148.438 717
-492.188 -117.188 962
187.5 -281.25 1080
-335.938 -421.875 2835
-375 -125 954
62.5 -281.25 894
-351.562 101.562 823
15.625 -46.875 774
-312.5 382.812 959
-429.688 -46.875 975
-500 187.5 827
-367.188 46.875 811
-148.438 23.4375 819
23.4375 -109.375 739
-406.25 109.375 787
-218.75 210.938 741
-445.312 -140.625 975
85.9375 -296.875 825
312.5 429.688 747
-406.25 85.9375 789
476.562 -140.625 908
-351.562 210.938 809
-15.625 -7.8125 802
-101.562 -281.25 867
-476.562 242.188 858
-437.5 164.062 796
-101.562 -171.875 708
-390.625 -62.5 989
31.25 234.375 704
-39.0625 234.375 717
39.0625 234.375 704
-148.438 31.25 811
-359.375 23.4375 809
15.625 -140.625 722
289.062 335.938 749
429.688 250 657
-125 -156.25 717
-445.312 -218.75 1307
62.5 343.75 796
-109.375 -328.125 858
351.562 101.562 730
101.562 -164.062 796
-109.375 226.562 727
-421.875 343.75 935
101.562 -70.3125 867
-15.625 226.562 708
335.938 31.25 736
210.938 -156.25 769
-328.125 328.125 813
375 -257.812 1044
437.5 265.625 664
-23.4375 -109.375 741
-382.812 406.25 1028
289.062 -312.5 2835
195.312 -273.438 858
-453.125 85.9375 790
-453.125 250 856
-320.312 257.812 849
-171.875 203.125 722
125 250 700
132.812 -257.812 851
-85.9375 -320.312 849
320.312 15.625 736
-335.938 179.688 739
-117.188 -140.625 727
234.375 343.75 789
101.562 -187.5 790
-93.75 -171.875 708
-70.3125 -70.3125 762
289.062 85.9375 728
117.188 -156.25 789
-421.875 242.188 860
398.438 265.625 670
-85.9375 -140.625 722
164.062 -187.5 829
-281.25 -23.4375 1067
343.75 31.25 733
-54.6875 -132.812 727
312.5 23.4375 749
-101.562 -109.375 741
351.562 265.625 678
257.812 -273.438 1063
414.062 250 659
226.562 257.812 688
-437.5 93.75 785
421.875 250 657
148.438 343.75 792
39.0625 242.188 710
70.3125 242.188 704
-289.062 250 794
-390.625 234.375 811
-23.4375 -328.125 845
335.938 15.625 728
250 257.812 687
109.375 304.688 752
132.812 -203.125 835
-78.125 -140.625 722
-320.312 195.312 746
156.25 437.5 774
218.75 242.188 679
117.188 250 701
398.438 250 661
62.5 234.375 700
-39.0625 -101.562 744
-85.9375 15.625 817
78.125 -273.438 837
0 -101.562 742
-226.562 203.125 733
179.688 -250 869
-62.5 -179.688 704
117.188 -171.875 785
335.938 23.4375 730
62.5 -312.5 835
148.438 -148.438 781
359.375 437.5 744
15.625 -187.5 704
-179.688 -125 935
171.875 -187.5 854
-203.125 203.125 728
-453.125 -218.75 1312
367.188 265.625 676
375 437.5 742
-390.625 -148.438 978
-78.125 -250 880
-429.688 101.562 785
-445.312 62.5 790
203.125 -46.875 845
-445.312 78.125 794
312.5 62.5 722
-109.375 218.75 720
-171.875 210.938 727
-31.25 226.562 711
-320.312 179.688 739
242.188 -210.938 837
-39.0625 0 807
-476.562 210.938 827
140.625 -242.188 858
-70.3125 -171.875 707
187.5 -242.188 869
-250 398.438 959
-289.062 -210.938 1278
-164.062 -117.188 742
-46.875 -117.188 736
-328.125 421.875 1197
-195.312 203.125 727
476.562 -62.5 843
101.562 -257.812 831
-62.5 -171.875 707
-343.75 421.875 1210
-70.3125 -140.625 722
-85.9375 -117.188 738
-23.4375 -351.562 843
179.688 242.188 684
-7.8125 -210.938 713
312.5 250 671
-140.625 -203.125 717
7.8125 -85.9375 749
109.375 -257.812 829
351.562 257.812 670
-375 406.25 1025
-500 109.375 956
-93.75 390.625 794
-70.3125 -195.312 706
171.875 242.188 686
-101.562 -101.562 746
289.062 -265.625 1050
-414.062 210.938 803
-85.9375 218.75 714
-335.938 171.875 738
-31.25 -78.125 761
-328.125 -351.562 2984
351.562 -46.875 839
328.125 0 731
343.75 46.875 730
-453.125 109.375 787
-398.438 70.3125 796
-78.125 -171.875 707
-171.875 -85.9375 901
265.625 250 678
-93.75 218.75 714
-375 226.562 809
-85.9375 -390.625 854
-476.562 -132.812 967
-453.125 -398.438 2184
-156.25 187.5 717
-54.6875 226.562 714
-7.8125 226.562 706
210.938 257.812 693
-62.5 398.438 790
-171.875 390.625 1108
-85.9375 -195.312 708
-406.25 -140.625 978
-500 296.875 843
-54.6875 -117.188 734
-46.875 -187.5 704
-328.125 23.4375 981
-117.188 -117.188 739
101.562 -273.438 827
-109.375 -203.125 714
187.5 -156.25 771
-367.188 -93.75 925
492.188 -140.625 908
-117.188 -171.875 710
195.312 -281.25 1080
257.812 70.3125 766
312.5 179.688 697
296.875 132.812 696
-460.938 -242.188 1328
-85.9375 -156.25 714
-382.812 281.25 835
-367.188 210.938 807
125 406.25 766
-328.125 179.688 739
-414.062 -54.6875 987
-117.188 218.75 723
-242.188 406.25 964
-62.5 -195.312 704
-289.062 187.5 734
-390.625 226.562 811
-62.5 343.75 794
-468.75 218.75 831
-7.8125 23.4375 809
-109.375 234.375 733
-460.938 101.562 787
-171.875 218.75 734
312.5 31.25 742
-31.25 39.0625 802
335.938 62.5 719
62.5 242.188 708
351.562 -265.625 1054
109.375 242.188 696
179.688 -320.312 2908
382.812 265.625 672
-31.25 234.375 717
-140.625 210.938 719
187.5 242.188 683
-23.4375 -125 731
187.5 -273.438 860
-85.9375 -171.875 707
164.062 437.5 771
-148.438 -171.875 710
289.062 117.188 694
156.25 -156.25 774
-382.812 -140.625 975
-312.5 195.312 747
-101.562 -156.25 714
-500 101.562 964
-179.688 210.938 728
359.375 257.812 668
15.625 -203.125 706
-414.062 46.875 796
-500 203.125 880
343.75 257.812 672
-195.312 375 803
-85.9375 -273.438 867
23.4375 -101.562 742
-93.75 -156.25 714
-375 -117.188 938
-140.625 320.312 811
468.75 250 654
31.25 242.188 711
203.125 250 687
-281.25 195.312 739
-445.312 390.625 1227
93.75 -273.438 829
78.125 234.375 694
-93.75 -140.625 722
476.562 250 653
-382.812 39.0625 803
335.938 257.812 674
359.375 39.0625 734
250 250 682
148.438 437.5 774
-93.75 -390.625 860
328.125 -265.625 1054
335.938 109.375 714
78.125 -289.062 835
-78.125 -117.188 734
414.062 -296.875 2744
78.125 -187.5 811
-101.562 0 809
437.5 -250 1028
-140.625 226.562 734
-70.3125 -15.625 796
-125 226.562 731
296.875 -265.625 1054
-320.312 421.875 1013
-23.4375 15.625 815
265.625 148.438 717
85.9375 -265.625 841
304.688 109.375 719
-70.3125 -398.438 851
-78.125 -93.75 749
0 226.562 704
15.625 -62.5 766
296.875 54.6875 731
-39.0625 414.062 792
-351.562 62.5 809
85.9375 -226.562 831
15.625 421.875 783
406.25 250 661
93.75 250 704
351.562 39.0625 736
-164.062 -46.875 783
70.3125 234.375 697
-125 -93.75 750
-70.3125 -54.6875 771
-85.9375 7.8125 815
109.375 -187.5 789
-226.562 210.938 741
117.188 -156.25 789
-39.0625 -320.312 845
85.9375 445.312 1312
-437.5 234.375 867
-320.312 -304.688 3092
-179.688 218.75 736
-375 164.062 800
-23.4375 -437.5 843
-93.75 46.875 796
250 70.3125 764
203.125 429.688 767
-312.5 406.25 1007
-453.125 234.375 864
375 250 663
351.562 437.5 747
367.188 250 664
-15.625 39.0625 802
15.625 -195.312 704
460.938 437.5 730
304.688 23.4375 749
-187.5 203.125 725
7.8125 406.25 783
-367.188 218.75 807
-414.062 242.188 860
31.25 421.875 783
-109.375 39.0625 805
273.438 -312.5 2835
-7.8125 -328.125 845
156.25 437.5 774
-382.812 328.125 827
-132.812 -117.188 739
39.0625 -304.688 867
-179.688 -117.188 925
367.188 -257.812 1041
-453.125 242.188 860
-476.562 93.75 796
93.75 242.188 700
-382.812 242.188 860
179.688 -242.188 871
-460.938 125 792
-304.688 187.5 739
367.188 23.4375 725
453.125 -250 1025
-460.938 -218.75 1312
-109.375 -210.938 720
-257.812 195.312 734
-328.125 -343.75 2984
70.3125 -265.625 920
-437.5 250 851
406.25 265.625 668
-132.812 -203.125 716
-85.9375 62.5 789
-132.812 -351.562 875
-101.562 390.625 796
0 -210.938 713
203.125 257.812 693
-226.562 437.5 998
-46.875 39.0625 800
-320.312 -343.75 2984
343.75 265.625 679
382.812 62.5 728
-406.25 54.6875 803
-54.6875 -398.438 847
351.562 250 667
-7.8125 335.938 800
281.25 -265.625 1050
7.8125 -78.125 755
23.4375 -398.438 862
421.875 -257.812 1044
-312.5 335.938 811
234.375 -218.75 843
-93.75 -296.875 858
46.875 343.75 796
15.625 -78.125 757
-281.25 429.688 1013
492.188 250 650
-7.8125 -414.062 854
-281.25 203.125 744
-85.9375 -265.625 871
-476.562 85.9375 796
-93.75 -7.8125 803
476.562 257.812 654
-234.375 195.312 731
195.312 -125 773
304.688 93.75 720
15.625 -132.812 727
179.688 -281.25 1080
78.125 257.812 714
156.25 -148.438 780
375 265.625 674
-492.188 164.062 833
-93.75 218.75 714
-85.9375 -140.625 722
54.6875 -273.438 889
-140.625 -117.188 739
242.188 -273.438 1063
-437.5 85.9375 787
210.938 429.688 762
54.6875 234.375 701
62.5 234.375 700
-320.312 -210.938 1278
-171.875 -93.75 755
-398.438 -140.625 981
-453.125 -140.625 973
460.938 -226.562 1001
-31.25 -203.125 710
-78.125 -195.312 707
-78.125 -195.312 707
-31.25 -156.25 714
-78.125 -148.438 719
-335.938 187.5 742
-296.875 281.25 835
-93.75 -117.188 738
-62.5 -156.25 714
-289.062 -171.875 1227
-414.062 117.188 787
-54.6875 -132.812 727
-117.188 -226.562 733
-70.3125 -445.312 841
-171.875 -78.125 894
-23.4375 226.562 708
-15.625 226.562 708
-15.625 -78.125 757
-437.5 78.125 794
328.125 257.812 674
-39.0625 226.562 711
468.75 257.812 654
-62.5 -117.188 734
179.688 -273.438 864
39.0625 234.375 704
-78.125 39.0625 802
-23.4375 -421.875 845
359.375 250 666
-476.562 132.812 845
-156.25 -15.625 802
-78.125 15.625 817
367.188 343.75 742
-398.438 -54.6875 981
117.188 -218.75 837
-234.375 203.125 734
382.812 250 662
-320.312 23.4375 984
-62.5 -171.875 707
195.312 -148.438 769
164.062 242.188 688
-406.25 398.438 1031
-296.875 -210.938 1278
429.688 343.75 731
312.5 195.312 688
-148.438 210.938 720
-492.188 -187.5 1273
-117.188 -187.5 708
257.812 62.5 769
375 117.188 730
78.125 414.062 776
-210.938 203.125 730
335.938 265.625 680
148.438 -148.438 781
476.562 -132.812 906
359.375 -257.812 1041
-359.375 125 809
-312.5 -210.938 1278
-382.812 226.562 815
375 -257.812 1044
-445.312 109.375 785
-117.188 -171.875 710
484.375 257.812 653
-453.125 171.875 800
-210.938 -335.938 3037
132.812 -39.0625 841
-70.3125 -93.75 749
-164.062 218.75 733
375 109.375 734
-23.4375 406.25 790
-429.688 -218.75 1307
15.625 234.375 708
195.312 -273.438 858
492.188 437.5 719
179.688 429.688 769
-23.4375 -445.312 843
132.812 -15.625 825
-429.688 -54.6875 987
-85.9375 -195.312 708
-125 218.75 723
304.688 125 706
23.4375 351.562 790
265.625 171.875 706
351.562 62.5 725
-382.812 93.75 792
-359.375 414.062 1210
101.562 -164.062 796
-62.5 234.375 722
312.5 46.875 730
445.312 -265.625 1044
-62.5 -304.688 849
-140.625 39.0625 803
-445.312 -226.562 1322
195.312 250 687
-7.8125 39.0625 798
148.438 -164.062 776
-109.375 -203.125 714
-70.3125 390.625 789
359.375 -265.625 1050
-453.125 -218.75 1312
-101.562 218.75 719
140.625 351.562 787
476.562 414.062 734
-46.875 7.8125 811
-117.188 -203.125 714
0 445.312 1404
-453.125 265.625 845
-85.9375 39.0625 802
289.062 -265.625 1050
-132.812 429.688 1177
-492.188 70.3125 787
7.8125 234.375 710
296.875 429.688 749
-31.25 226.562 711
-226.562 367.188 811
492.188 -70.3125 847
0 -7.8125 798
-335.938 195.312 746
-39.0625 -156.25 716
70.3125 -289.062 835
-70.3125 -195.312 706
-125 23.4375 817
390.625 367.188 767
476.562 273.438 664
-351.562 -39.0625 849
101.562 250 704
-289.062 195.312 741
414.062 359.375 771
-54.6875 -93.75 747
-187.5 312.5 815
-414.062 250 851
-156.25 210.938 722
304.688 359.375 776
132.812 242.188 693
-54.6875 39.0625 798
101.562 -281.25 827
-109.375 328.125 805
-484.375 304.688 843
187.5 -273.438 860
-328.125 -210.938 1283
468.75 359.375 767
-203.125 375 802
-70.3125 -117.188 734
-164.062 -39.0625 864
-195.312 320.312 811
-375 54.6875 807
-421.875 85.9375 789
101.562 -93.75 825
-468.75 -218.75 1312
257.812 351.562 781
-46.875 414.062 1427
156.25 351.562 789
-445.312 -218.75 1307
-93.75 -195.312 708
242.188 359.375 781
-429.688 78.125 792
-31.25 -445.312 839
-242.188 195.312 733
109.375 -46.875 849
93.75 -273.438 829
125 242.188 694
195.312 257.812 694
320.312 351.562 780
-15.625 -320.312 847
375 125 723
421.875 343.75 733
-468.75 -132.812 967
-453.125 -460.938 2226
-304.688 -210.938 1278
445.312 257.812 657
210.938 351.562 785
289.062 78.125 730
93.75 -226.562 837
320.312 101.562 717
-85.9375 46.875 796
-242.188 304.688 819
335.938 70.3125 717
-257.812 359.375 809
-93.75 406.25 1445
164.062 -46.875 847
-62.5 -54.6875 769
-78.125 -85.9375 754
-414.062 70.3125 794
-382.812 398.438 1028
-343.75 -15.625 831
187.5 250 690
250 359.375 780
335.938 250 668
195.312 437.5 769
164.062 351.562 787
132.812 -171.875 780
-328.125 0 825
-398.438 398.438 1025
-398.438 179.688 798
343.75 -304.688 2812
-62.5 -93.75 749
-351.562 125 809
-62.5 -109.375 739
85.9375 351.562 790
-171.875 218.75 734
78.125 250 707
-414.062 234.375 813
398.438 70.3125 720
-296.875 187.5 739
-187.5 210.938 730
-62.5 226.562 716
117.188 234.375 690
-132.812 31.25 811
304.688 257.812 678
-179.688 390.625 1108
70.3125 -273.438 918
-390.625 406.25 1034
-273.438 210.938 752
-476.562 210.938 827
210.938 -234.375 860
-54.6875 15.625 815
289.062 93.75 722
-78.125 -140.625 722
15.625 -156.25 711
140.625 -148.438 783
164.062 -281.25 864
296.875 148.438 713
132.812 -218.75 833
-335.938 -23.4375 833
-23.4375 -148.438 719
-234.375 -234.375 1288
23.4375 -23.4375 787
265.625 132.812 700
382.812 335.938 734
85.9375 250 706
257.812 250 680
414.062 -257.812 1038
-265.625 398.438 964
234.375 250 684
-367.188 257.812 847
-203.125 203.125 728
101.562 -265.625 829
-312.5 421.875 1013
-226.562 -109.375 925
-39.0625 -93.75 749
-31.25 -335.938 843
203.125 -281.25 1080
-367.188 414.062 1210
0 39.0625 798
-453.125 156.25 800
367.188 31.25 727
328.125 31.25 739
-359.375 -62.5 875
7.8125 -31.25 783
23.4375 414.062 781
-148.438 31.25 811
132.812 328.125 773
-375 242.188 860
-382.812 -140.625 975
-445.312 -140.625 975
-54.6875 234.375 722
-359.375 242.188 860
0 23.4375 807
15.625 39.0625 796
-320.312 46.875 1007
15.625 -164.062 710
-62.5 31.25 805
78.125 -250 841
265.625 46.875 749
-281.25 187.5 734
320.312 257.812 676
492.188 351.562 725
-437.5 62.5 792
-132.812 -257.812 913
351.562 109.375 736
23.4375 242.188 713
-468.75 70.3125 787
-406.25 70.3125 794
312.5 257.812 676
-460.938 -218.75 1312
-93.75 -85.9375 754
0 234.375 711
359.375 343.75 742
70.3125 -265.625 920
-265.625 195.312 738
343.75 250 667
31.25 445.312 1387
-203.125 273.438 800
-31.25 46.875 790
-343.75 -468.75 2723
-179.688 -109.375 923
406.25 429.688 738
-460.938 312.5 841
-437.5 390.625 1034
-335.938 31.25 964
-375 62.5 803
-15.625 -156.25 713
-85.9375 234.375 727
-437.5 -304.688 2317
281.25 -312.5 2835
171.875 250 693
-421.875 78.125 792
351.562 -265.625 1054
367.188 250 664
421.875 265.625 666
-46.875 -125 731
-46.875 226.562 713
-140.625 -335.938 887
-468.75 304.688 837
171.875 -281.25 864
-234.375 -335.938 3010
187.5 257.812 698
320.312 421.875 746
-148.438 -132.812 730
101.562 -273.438 827
-39.0625 -203.125 710
296.875 7.8125 785
148.438 242.188 688
351.562 265.625 678
-429.688 101.562 785
132.812 -281.25 839
-132.812 -140.625 727
7.8125 -273.438 869
140.625 242.188 691
39.0625 234.375 704
-109.375 226.562 727
-257.812 -335.938 3037
-31.25 -93.75 749
15.625 242.188 713
460.938 343.75 730
31.25 234.375 704
-484.375 -218.75 1317
70.3125 234.375 697
-46.875 234.375 719
-429.688 164.062 796
453.125 250 657
-54.6875 -101.562 744
398.438 257.812 663
70.3125 -281.25 837
265.625 250 678
421.875 257.812 659
226.562 -273.438 1067
398.438 250 661
382.812 257.812 664
54.6875 234.375 701
-132.812 39.0625 803
476.562 367.188 762
-132.812 15.625 821
-429.688 -421.875 2286
-62.5 -70.3125 762
-101.562 -179.688 708
-210.938 -203.125 1259
46.875 234.375 704
351.562 250 667
-7.8125 -203.125 708
-500 203.125 880
203.125 -234.375 864
-367.188 335.938 823
-289.062 203.125 749
164.062 -148.438 776
125 -39.0625 843
15.625 -187.5 704
-39.0625 234.375 717
-23.4375 226.562 708
-390.625 210.938 803
-468.75 226.562 835
-101.562 -203.125 713
-421.875 164.062 796
-54.6875 414.062 1433
-382.812 250 851
23.4375 -15.625 792
-359.375 85.9375 807
273.438 250 678
-179.688 -125 935
179.688 -273.438 864
281.25 -265.625 1050
-117.188 -93.75 750
289.062 257.812 682
179.688 250 691
-101.562 218.75 719
-101.562 -117.188 738
117.188 -296.875 819
-101.562 39.0625 803
-242.188 203.125 736
-195.312 210.938 731
-125 39.0625 803
312.5 78.125 717
164.062 -257.812 864
335.938 31.25 736
-429.688 62.5 798
398.438 421.875 739
351.562 421.875 742
-343.75 414.062 1007
-62.5 335.938 800
117.188 351.562 789
15.625 23.4375 805
-296.875 351.562 817
265.625 -312.5 2835
164.062 -242.188 873
132.812 -140.625 809
-109.375 218.75 720
-468.75 257.812 849
-453.125 367.188 938
-453.125 109.375 787
-70.3125 226.562 719
-15.625 -85.9375 754
-328.125 54.6875 856
-203.125 -203.125 1255
-335.938 -429.688 2812
-312.5 -93.75 1138
31.25 242.188 711
281.25 54.6875 749
-109.375 -132.812 727
148.438 -85.9375 794
132.812 -242.188 860
62.5 234.375 700
242.188 250 684
367.188 54.6875 736
15.625 -140.625 722
-117.188 39.0625 807
328.125 265.625 680
359.375 265.625 676
132.812 -226.562 833
-492.188 203.125 827
-85.9375 398.438 796
-156.25 210.938 722
-148.438 210.938 720
-101.562 406.25 1445
23.4375 421.875 781
39.0625 414.062 778
-289.062 -23.4375 1070
70.3125 -203.125 827
164.062 335.938 796
367.188 179.688 694
-125 226.562 731
7.8125 7.8125 809
109.375 242.188 696
-85.9375 218.75 714
-484.375 226.562 873
-78.125 -109.375 739
164.062 429.688 771
-335.938 406.25 1007
-335.938 335.938 819
203.125 -171.875 771
-218.75 -109.375 925
-187.5 -148.438 956
-351.562 406.25 1007
179.688 257.812 697
117.188 -148.438 792
-31.25 406.25 794
62.5 414.062 780
328.125 250 668
7.8125 -304.688 856
359.375 117.188 730
234.375 -156.25 778
-460.938 -414.062 2156
-437.5 140.625 800
-101.562 -390.625 864
179.688 -148.438 774
-328.125 -242.188 2958
-468.75 85.9375 794
-109.375 -7.8125 803
281.25 171.875 704
7.8125 429.688 1421
-15.625 226.562 708
-320.312 -210.938 1278
-54.6875 226.562 714
265.625 429.688 752
312.5 421.875 746
-78.125 328.125 803
125 -195.312 789
234.375 -273.438 1063
-367.188 -312.5 3208
101.562 -203.125 790
414.062 265.625 667
132.812 -148.438 785
-31.25 -148.438 719
-7.8125 -156.25 713
351.562 39.0625 736
-328.125 195.312 746
-46.875 -203.125 708
-484.375 93.75 796
-132.812 218.75 725
15.625 -179.688 704
85.9375 242.188 700
-70.3125 234.375 723
171.875 -320.312 2908
296.875 164.062 707
-15.625 0 805
320.312 265.625 683
-70.3125 -15.625 796
78.125 242.188 703
-445.312 -132.812 975
234.375 445.312 762
-132.812 226.562 733
-93.75 390.625 794
-320.312 179.688 739
-218.75 367.188 809
140.625 437.5 774
-367.188 164.062 802
-70.3125 -156.25 714
125 -289.062 833
-164.062 210.938 722
-296.875 429.688 1193
-62.5 234.375 722
93.75 421.875 774
-101.562 242.188 738
-15.625 -335.938 845
132.812 242.188 693
-62.5 -429.688 841
-109.375 -398.438 875
7.8125 -390.625 854
218.75 445.312 764
359.375 39.0625 734
0 -203.125 708
-445.312 234.375 864
218.75 -156.25 774
328.125 39.0625 734
-15.625 39.0625 802
-46.875 -7.8125 802
-125 -171.875 710
-23.4375 -203.125 710
367.188 93.75 738
15.625 -171.875 706
453.125 -226.562 1004
-492.188 101.562 964
-70.3125 39.0625 800
-46.875 0 807
-85.9375 -289.062 860
-500 78.125 787
93.75 -273.438 829
-195.312 312.5 815
-62.5 -414.062 847
-437.5 93.75 785
406.25 257.812 662
265.625 -273.438 1063
359.375 257.812 668
156.25 -109.375 787
281.25 117.188 696
218.75 250 683
-15.625 -203.125 710
273.438 382.812 766
-85.9375 414.062 1433
23.4375 39.0625 796
-351.562 -31.25 843
70.3125 242.188 704
15.625 -125 730
-62.5 39.0625 800
281.25 257.812 683
-312.5 179.688 734
195.312 -148.438 769
-187.5 375 803
-281.25 429.688 1013
-54.6875 -289.062 851
296.875 250 674
273.438 -273.438 1063
125 242.188 694
-367.188 62.5 803
-218.75 203.125 731
304.688 187.5 694
414.062 257.812 661
328.125 109.375 714
304.688 250 672
375 -273.438 1060
-210.938 406.25 1013
195.312 -289.062 1087
-132.812 -335.938 875
-187.5 218.75 736
109.375 -289.062 823
-242.188 218.75 750
-101.562 -93.75 750
265.625 -265.625 1054
-484.375 148.438 841
-375 125 809
304.688 265.625 684
-492.188 -31.25 875
7.8125 -281.25 862
-7.8125 -320.312 847
187.5 -148.438 771
257.812 -273.438 1063
-335.938 -210.938 1283
296.875 265.625 686
0 -398.438 854
312.5 250 671
-62.5 -132.812 727
281.25 70.3125 762
-492.188 -218.75 1322
-39.0625 -296.875 849
203.125 250 687
273.438 31.25 746
289.062 -273.438 1060
-296.875 195.312 744
320.312 46.875 727
85.9375 -226.562 831
31.25 250 717
343.75 -70.3125 858
-39.0625 39.0625 800
-492.188 -125 962
164.062 -218.75 887
171.875 -242.188 873
-273.438 195.312 739
-453.125 234.375 864
23.4375 0 800
156.25 -242.188 871
0 242.188 717
7.8125 -406.25 860
312.5 70.3125 720
-85.9375 328.125 803
39.0625 234.375 704
265.625 101.562 744
93.75 250 704
-328.125 0 825
375 257.812 666
-437.5 156.25 796
-382.812 226.562 815
-468.75 210.938 827
-460.938 234.375 864
7.8125 39.0625 798
39.0625 242.188 710
359.375 -257.812 1041
-273.438 203.125 742
-39.0625 226.562 711
312.5 117.188 710
0 -54.6875 769
-109.375 218.75 720
406.25 -257.812 1038
351.562 125 727
70.3125 414.062 776
-78.125 39.0625 802
-109.375 -187.5 708
132.812 -195.312 837
-101.562 -328.125 854
-31.25 39.0625 802
320.312 117.188 701
156.25 -281.25 843
7.8125 -203.125 707
-93.75 -421.875 873
265.625 93.75 750
-62.5 -15.625 796
148.438 421.875 771
203.125 359.375 781
132.812 351.562 789
-398.438 406.25 1210
-85.9375 39.0625 802
398.438 39.0625 754
-31.25 335.938 802
70.3125 250 710
-203.125 218.75 741
-54.6875 -187.5 703
304.688 421.875 747
-15.625 234.375 713
0 -85.9375 754
-93.75 -93.75 749
-335.938 -23.4375 833
-468.75 -218.75 1312
289.062 265.625 686
468.75 421.875 731
-109.375 39.0625 805
31.25 257.812 725
-445.312 312.5 837
-476.562 -218.75 1312
15.625 -132.812 727
-179.688 218.75 736
-437.5 382.812 1034
351.562 -257.812 1044
-39.0625 -445.312 839
-70.3125 23.4375 813
250 328.125 749
-335.938 281.25 835
-23.4375 -382.812 845
140.625 -140.625 789
70.3125 -265.625 920
70.3125 -265.625 920
-46.875 39.0625 800
117.188 242.188 694
-140.625 -70.3125 767
-250 203.125 739
226.562 445.312 764
171.875 257.812 698
226.562 250 683
-460.938 156.25 802
429.688 -250 1028
-23.4375 414.062 790
-101.562 -171.875 708
273.438 -265.625 1054
421.875 437.5 738
343.75 -257.812 1044
257.812 -265.625 1054
-140.625 398.438 1288
367.188 429.688 741
289.062 382.812 764
-117.188 -218.75 725
-140.625 218.75 725
296.875 62.5 728
-320.312 -312.5 3092
7.8125 421.875 1427
-7.8125 -429.688 847
132.812 -210.938 835
-343.75 398.438 1007
312.5 171.875 703
-460.938 70.3125 800
171.875 -273.438 864
156.25 250 694
-39.0625 406.25 792
289.062 7.8125 796
-375 -117.188 938
-7.8125 234.375 711
164.062 250 694
-492.188 164.062 833
343.75 257.812 672
-15.625 -312.5 849
7.8125 -54.6875 769
-328.125 -210.938 1283
-500 101.562 964
-171.875 -70.3125 887
-203.125 203.125 728
-54.6875 -171.875 707
-78.125 -23.4375 792
-460.938 250 856
257.812 250 680
-210.938 367.188 805
-70.3125 -414.062 851
15.625 -54.6875 769
117.188 -210.938 837
132.812 -203.125 835
343.75 -265.625 1054
-226.562 203.125 733
-140.625 39.0625 803
-7.8125 39.0625 798
-476.562 210.938 827
-54.6875 39.0625 798
-171.875 210.938 727
0 -39.0625 780
-375 406.25 1025
109.375 -296.875 815
351.562 257.812 670
46.875 -382.812 867
351.562 273.438 683
335.938 -265.625 1054
-195.312 218.75 741
15.625 359.375 787
-281.25 -335.938 3064
-476.562 78.125 798
0 351.562 790
-62.5 226.562 716
-23.4375 -117.188 736
62.5 242.188 708
156.25 257.812 701
148.438 -281.25 843
78.125 -210.938 825
-296.875 257.812 796
-492.188 78.125 787
250 148.438 719
-460.938 375 1041
-421.875 62.5 798
-500 -23.4375 864
148.438 437.5 774
-78.125 234.375 727
-257.812 195.312 734
-320.312 -351.562 2984
273.438 257.812 683
132.812 -179.688 780
31.25 234.375 704
-203.125 210.938 733
125 -179.688 783
-54.6875 351.562 790
109.375 -156.25 790
203.125 -148.438 769
-328.125 179.688 739
78.125 -265.625 841
-54.6875 226.562 714
85.9375 250 706
-382.812 62.5 803
-265.625 429.688 1001
234.375 250 684
-437.5 -140.625 975
-62.5 -101.562 744
-390.625 46.875 807
250 250 682
-289.062 187.5 734
-156.25 -7.8125 841
273.438 343.75 755
46.875 234.375 704
-148.438 -101.562 749
250 164.062 710
281.25 250 676
-218.75 -203.125 1259
78.125 250 707
335.938 101.562 717
109.375 242.188 696
-93.75 328.125 805
-125 7.8125 813
-296.875 273.438 839
-31.25 -421.875 841
-226.562 -203.125 1259
-437.5 -218.75 1307
-101.562 -226.562 730
-54.6875 -343.75 841
367.188 117.188 730
-132.812 39.0625 803
164.062 257.812 700
-335.938 -382.812 2908
382.812 125 722
289.062 250 674
-320.312 187.5 742
85.9375 367.188 783
62.5 250 711
-125 -101.562 747
-484.375 85.9375 796
-460.938 -218.75 1312
-367.188 -85.9375 915
-62.5 -187.5 704
351.562 367.188 767
-429.688 156.25 794
351.562 117.188 733
-179.688 -109.375 923
23.4375 234.375 706
-296.875 203.125 752
-54.6875 414.062 1433
-125 -171.875 710
-484.375 -218.75 1317
-23.4375 -70.3125 761
125 -140.625 811
-23.4375 -85.9375 754
-148.438 218.75 728
382.812 39.0625 755
-210.938 -203.125 1259
15.625 234.375 708
265.625 257.812 684
-335.938 179.688 739
93.75 -164.062 800
210.938 445.312 1288
250 62.5 769
-343.75 -429.688 2812
179.688 320.312 755
-54.6875 -304.688 847
-109.375 -132.812 727
101.562 -250 839
-117.188 -109.375 741
250 70.3125 764
179.688 -273.438 864
-343.75 54.6875 811
-250 195.312 734
-179.688 -117.188 925
-93.75 -398.438 860
148.438 250 694
-15.625 -117.188 736
-343.75 -210.938 1283
265.625 -265.625 1054
-62.5 -132.812 727
148.438 429.688 774
164.062 -93.75 790
-39.0625 -414.062 841
-437.5 226.562 805
421.875 -250 1028
-148.438 320.312 811
-250 359.375 809
-429.688 -140.625 978
148.438 -242.188 862
109.375 -148.438 827
-375 156.25 802
125 -187.5 789
-445.312 -406.25 2212
46.875 -234.375 910
-101.562 -242.188 901
-296.875 187.5 739
-125 -117.188 739
-117.188 218.75 723
-335.938 54.6875 858
-484.375 132.812 845
-187.5 -140.625 948
281.25 265.625 690
312.5 156.25 691
-226.562 -335.938 3037
-15.625 343.75 796
-54.6875 -31.25 787
-242.188 -343.75 3037
-296.875 421.875 1007
-414.062 390.625 1031
7.8125 242.188 716
-453.125 -218.75 1312
179.688 257.812 697
70.3125 367.188 781
-62.5 -203.125 710
359.375 132.812 722
-78.125 414.062 1433
-46.875 -132.812 727
-101.562 39.0625 803
492.188 359.375 762
-390.625 242.188 858
195.312 250 687
-78.125 398.438 794
390.625 39.0625 757
-203.125 312.5 815
187.5 359.375 783
-164.062 -39.0625 864
-78.125 -15.625 796
-484.375 70.3125 787
-500 -250 3010
-148.438 39.0625 805
289.062 195.312 693
-312.5 429.688 1197
218.75 -226.562 860
-109.375 -226.562 730
335.938 257.812 674
-234.375 203.125 734
-414.062 140.625 802
-85.9375 -23.4375 792
7.8125 -132.812 725
140.625 -78.125 845
-23.4375 -7.8125 802
-257.812 203.125 741
210.938 -273.438 858
265.625 265.625 690
-156.25 -132.812 730
7.8125 -109.375 739
-460.938 210.938 827
-390.625 171.875 798
-414.062 -437.5 2349
-46.875 406.25 789
-335.938 -218.75 1292
328.125 7.8125 730
-7.8125 -289.062 851
-85.9375 226.562 720
70.3125 445.312 1376
23.4375 343.75 796
-164.062 382.812 805
351.562 39.0625 736
-7.8125 -85.9375 754
-46.875 -125 731
-351.562 -226.562 1302
210.938 250 684
-328.125 187.5 742
-226.562 390.625 964
-23.4375 242.188 723
-46.875 226.562 713
-140.625 -195.312 713
101.562 242.188 698
-117.188 -171.875 710
-351.562 421.875 1210
328.125 257.812 674
-304.688 351.562 813
-367.188 109.375 819
31.25 328.125 805
-70.3125 226.562 719
-453.125 -132.812 973
-156.25 -195.312 713
-54.6875 398.438 789
-15.625 39.0625 802
-164.062 -148.438 722
460.938 265.625 658
-62.5 226.562 716
125 -218.75 835
203.125 -242.188 862
484.375 -289.062 2639
-398.438 46.875 800
-476.562 304.688 839
54.6875 -304.688 875
93.75 242.188 700
23.4375 -328.125 854
320.312 257.812 676
15.625 -242.188 891
-54.6875 -62.5 767
148.438 -218.75 880
-351.562 -31.25 843
-382.812 242.188 860
-273.438 187.5 733
78.125 -179.688 811
203.125 -179.688 771
-54.6875 -187.5 703
164.062 -273.438 864
-500 -234.375 1343
-46.875 335.938 803
171.875 -273.438 864
101.562 -265.625 829
242.188 250 684
-414.062 164.062 796
-335.938 -23.4375 833
-70.3125 39.0625 800
-382.812 226.562 815
296.875 125 694
-492.188 132.812 940
70.3125 -265.625 920
-468.75 226.562 835
-421.875 210.938 803
-367.188 -101.562 933
-39.0625 15.625 815
437.5 289.062 682
-398.438 62.5 800
-328.125 -382.812 2933
-85.9375 -93.75 749
-492.188 226.562 873
-23.4375 226.562 708
-218.75 429.688 998
-500 367.188 1044
7.8125 437.5 1410
-179.688 320.312 813
15.625 242.188 713
62.5 -304.688 835
218.75 250 683
-148.438 -78.125 764
414.062 367.188 766
-109.375 218.75 720
-359.375 234.375 807
140.625 242.188 691
296.875 117.188 694
-31.25 -117.188 736
-148.438 398.438 1210
-460.938 367.188 933
187.5 250 690
421.875 265.625 666
101.562 -257.812 831
-218.75 203.125 731
-93.75 -203.125 713
-23.4375 -398.438 851
-140.625 -226.562 739
453.125 257.812 657
132.812 -171.875 780
39.0625 -289.062 871
125 242.188 694
-39.0625 398.438 789
-289.062 335.938 805
-367.188 -132.812 946
-203.125 328.125 805
-343.75 273.438 839
-125 218.75 723
296.875 367.188 773
328.125 421.875 746
132.812 421.875 773
296.875 -265.625 1054
273.438 132.812 698
-171.875 382.812 802
257.812 -265.625 1054
257.812 257.812 686
-15.625 -437.5 845
312.5 257.812 676
-343.75 328.125 817
-78.125 -437.5 845
-390.625 -132.812 984
-148.438 -195.312 713
-156.25 210.938 722
250 -312.5 2859
-343.75 179.688 813
140.625 257.812 704
-187.5 -156.25 964
125 -148.438 789
234.375 -210.938 847
460.938 257.812 655
85.9375 242.188 700
-437.5 210.938 807
-179.688 375 802
328.125 31.25 739
-335.938 421.875 1206
-250 -335.938 3064
-156.25 0 833
-125 39.0625 803
140.625 250 696
218.75 445.312 764
226.562 250 683
-39.0625 7.8125 811
-484.375 242.188 860
39.0625 -281.25 878
140.625 429.688 774
-468.75 382.812 1038
273.438 250 678
-359.375 0 819
78.125 -296.875 833
367.188 445.312 747
-468.75 -132.812 967
-265.625 -343.75 3010
-484.375 0 935
179.688 250 691
-320.312 234.375 862
335.938 -257.812 1041
-453.125 179.688 802
-117.188 -7.8125 803
250 -265.625 1054
-304.688 187.5 739
-242.188 210.938 746
242.188 -273.438 1063
54.6875 250 714
-335.938 -414.062 2812
203.125 250 687
-234.375 -203.125 1259
7.8125 -203.125 707
-320.312 429.688 1197
-187.5 -148.438 956
195.312 445.312 769
320.312 148.438 688
140.625 445.312 1278
-39.0625 39.0625 800
289.062 429.688 750
-343.75 62.5 811
414.062 265.625 667
70.3125 398.438 769
54.6875 242.188 707
203.125 -273.438 856
156.25 -148.438 780
93.75 -39.0625 845
-140.625 -148.438 722
-460.938 171.875 817
-140.625 226.562 734
-101.562 -187.5 708
-281.25 195.312 739
187.5 -148.438 771
0 7.8125 809
7.8125 39.0625 798
-492.188 93.75 970
-70.3125 -132.812 727
-179.688 -109.375 923
-460.938 234.375 864
46.875 250 714
-453.125 70.3125 800
234.375 -226.562 841
-335.938 -210.938 1283
-375 70.3125 798
140.625 -210.938 831
414.062 -250 1028
406.25 265.625 668
-468.75 93.75 792
367.188 125 725
15.625 0 802
39.0625 -218.75 716
-242.188 351.562 803
93.75 -54.6875 854
148.438 257.812 703
-148.438 226.562 736
437.5 265.625 664
-62.5 39.0625 800
203.125 445.312 771
0 -117.188 734
-476.562 375 1034
-39.0625 -335.938 841
7.8125 -46.875 774
7.8125 234.375 710
-304.688 203.125 752
-390.625 -140.625 981
15.625 234.375 708
-85.9375 39.0625 802
-179.688 210.938 728
-265.625 -335.938 3064
-132.812 -85.9375 757
-70.3125 -203.125 710
7.8125 -39.0625 780
23.4375 -39.0625 780
-359.375 -54.6875 864
250 171.875 706
484.375 257.812 653
-117.188 218.75 723
-15.625 242.188 720
-445.312 -39.0625 967
109.375 242.188 696
-15.625 -54.6875 769
39.0625 328.125 803
-382.812 -101.562 989
-492.188 304.688 839
328.125 -265.625 1054
-468.75 125 794
-7.8125 -93.75 749
-70.3125 226.562 719
476.562 257.812 654
226.562 -265.625 847
0 -203.125 708
-476.562 -218.75 1312
328.125 46.875 727
281.25 78.125 731
320.312 132.812 688
-468.75 78.125 796
-140.625 -304.688 887
460.938 273.438 668
-31.25 234.375 717
-101.562 0 809
-406.25 328.125 829
468.75 273.438 667
-171.875 210.938 727
-406.25 164.062 796
437.5 257.812 657
-125 -46.875 780
-23.4375 -156.25 713
-93.75 226.562 722
492.188 273.438 657
-85.9375 -171.875 707
281.25 437.5 754
-62.5 -289.062 851
15.625 31.25 802
273.438 148.438 717
-62.5 -390.625 847
78.125 -242.188 841
23.4375 -93.75 747
-265.625 195.312 738
46.875 242.188 708
312.5 156.25 691
109.375 -164.062 790
-210.938 203.125 730
171.875 -31.25 835
484.375 437.5 725
-335.938 304.688 821
-500 -390.625 2116
93.75 -164.062 800
-429.688 234.375 864
-164.062 -31.25 858
-351.562 109.375 819
46.875 -250 908
-78.125 0 807
468.75 257.812 654
-54.6875 -203.125 708
312.5 367.188 769
-382.812 46.875 809
-421.875 101.562 787
23.4375 7.8125 807
148.438 -31.25 837
-390.625 156.25 800
-437.5 78.125 794
-70.3125 234.375 723
-62.5 -187.5 704
-414.062 398.438 1031
203.125 -148.438 769
-476.562 203.125 825
304.688 257.812 678
-101.562 15.625 819
218.75 -148.438 776
-250 398.438 959
-445.312 -429.688 2156
-109.375 406.25 1445
-429.688 93.75 785
-117.188 234.375 738
-492.188 -218.75 1322
164.062 250 694
-312.5 273.438 839
343.75 39.0625 734
-31.25 -289.062 854
-109.375 -187.5 708
-15.625 406.25 790
-312.5 195.312 747
359.375 125 725
484.375 -101.562 873
429.688 257.812 659
-46.875 -179.688 704
132.812 -281.25 839
132.812 -281.25 839
242.188 421.875 754
7.8125 -54.6875 769
-171.875 -70.3125 887
