ply
format ascii 1.0
comment Created by Open3D
element vertex 2383
property double x
property double y
property double z
end_header
273.438 -109.375 635
-78.125 -398.438 1333
257.812 -164.062 613
-234.375 15.625 875
281.25 -195.312 615
273.438 265.625 625
-62.5 -195.312 984
320.312 289.062 612
-367.188 -257.812 2579
171.875 226.562 649
414.062 343.75 584
-414.062 -437.5 3092
-343.75 234.375 1853
-203.125 -273.438 959
93.75 -398.438 2859
281.25 0 701
234.375 -85.9375 663
-320.312 -328.125 2859
109.375 -156.25 847
187.5 -23.4375 723
-23.4375 -273.438 946
273.438 -132.812 621
273.438 0 704
468.75 -304.688 717
-421.875 -453.125 2984
296.875 -85.9375 641
343.75 -78.125 627
-15.625 -156.25 843
289.062 46.875 720
156.25 -156.25 652
-31.25 -414.062 2933
-312.5 -328.125 2859
460.938 -187.5 687
-117.188 -93.75 815
195.312 -195.312 625
437.5 -242.188 747
218.75 -70.3125 682
-164.062 320.312 1489
250 -210.938 624
210.938 -148.438 635
398.438 328.125 589
218.75 242.188 638
492.188 359.375 567
375 -250 742
-171.875 -414.062 3010
-343.75 93.75 933
-31.25 359.375 1439
-85.9375 -101.562 815
-54.6875 -62.5 785
140.625 -414.062 2859
-304.688 -351.562 2883
39.0625 171.875 687
-31.25 -406.25 2908
109.375 -343.75 1223
390.625 -359.375 704
156.25 -468.75 2859
70.3125 375 769
-468.75 -421.875 2933
-429.688 -210.938 2598
351.562 -351.562 713
-421.875 -250 2701
359.375 304.688 601
0 -132.812 819
179.688 -39.0625 717
304.688 31.25 711
-351.562 -312.5 2835
273.438 -31.25 684
-320.312 -437.5 3092
257.812 -203.125 622
-234.375 -195.312 1134
-78.125 -93.75 809
367.188 -367.188 707
312.5 -195.312 614
-23.4375 -234.375 913
414.062 -203.125 851
-382.812 -429.688 2958
429.688 335.938 584
320.312 -78.125 636
-7.8125 -15.625 776
-179.688 -187.5 970
-46.875 -390.625 1312
320.312 23.4375 697
-390.625 -453.125 2883
195.312 234.375 644
398.438 -390.625 703
273.438 -203.125 620
382.812 343.75 588
39.0625 -367.188 1259
-210.938 -375 1312
-54.6875 -195.312 981
296.875 -195.312 615
23.4375 164.062 694
328.125 -101.562 619
445.312 343.75 580
-7.8125 -70.3125 998
265.625 0 708
164.062 218.75 653
382.812 -179.688 602
-500 -390.625 2701
-15.625 -62.5 992
320.312 -375 725
-179.688 31.25 819
312.5 31.25 707
304.688 -101.562 628
39.0625 -70.3125 794
-320.312 -289.062 2767
-437.5 -101.562 1080
-296.875 -312.5 2812
382.812 312.5 597
281.25 -226.562 635
-226.562 -242.188 1177
296.875 -398.438 741
85.9375 179.688 676
164.062 -398.438 2812
-367.188 -281.25 2767
-218.75 -218.75 925
289.062 -242.188 898
-359.375 -312.5 2835
390.625 320.312 594
-85.9375 23.4375 813
-351.562 -421.875 2984
-31.25 117.188 717
257.812 265.625 625
335.938 -46.875 647
-500 -7.8125 1038
460.938 -289.062 723
-367.188 85.9375 943
226.562 -164.062 621
132.812 203.125 663
351.562 -117.188 602
-242.188 85.9375 875
281.25 -242.188 898
-46.875 -187.5 975
289.062 23.4375 714
429.688 -234.375 754
-46.875 31.25 755
-226.562 -234.375 943
375 312.5 598
-421.875 -437.5 3064
250 -226.562 635
-70.3125 -7.8125 802
492.188 -109.375 638
-343.75 -328.125 2883
468.75 367.188 569
382.812 -171.875 598
210.938 -70.3125 683
304.688 -328.125 739
375 -109.375 601
-234.375 -148.438 862
351.562 -156.25 595
179.688 226.562 648
-398.438 -289.062 2659
242.188 320.312 664
367.188 -390.625 708
-226.562 -179.688 896
187.5 -421.875 2835
484.375 -171.875 704
468.75 -289.062 723
117.188 195.312 667
265.625 289.062 621
359.375 320.312 596
304.688 281.25 616
351.562 -398.438 713
156.25 -148.438 655
281.25 -203.125 620
-78.125 390.625 1410
0 -78.125 967
-382.812 -421.875 2984
476.562 -226.562 687
312.5 -359.375 730
117.188 -343.75 1219
296.875 -132.812 611
31.25 281.25 796
382.812 -164.062 596
453.125 -39.0625 680
-39.0625 -101.562 803
-93.75 382.812 1421
304.688 437.5 703
70.3125 437.5 1255
-46.875 109.375 723
-70.3125 101.562 728
265.625 265.625 625
312.5 -85.9375 636
320.312 304.688 606
328.125 289.062 611
171.875 -7.8125 747
-203.125 -265.625 959
242.188 250 635
257.812 15.625 722
296.875 -421.875 747
257.812 -132.812 628
312.5 437.5 703
437.5 343.75 580
-109.375 -46.875 805
453.125 -273.438 727
-210.938 -382.812 2984
273.438 -382.812 757
429.688 351.562 580
351.562 -23.4375 655
453.125 -125 662
-210.938 -257.812 956
-179.688 -406.25 3010
257.812 -210.938 625
-500 -117.188 1094
359.375 -218.75 624
234.375 -125 637
453.125 343.75 579
359.375 -265.625 738
-125 -39.0625 802
-304.688 218.75 1439
-437.5 398.438 1671
343.75 -406.25 719
-242.188 -156.25 1101
164.062 -93.75 690
-78.125 -7.8125 796
367.188 335.938 593
-15.625 -140.625 825
351.562 -210.938 624
304.688 -195.312 615
-460.938 -421.875 2958
289.062 273.438 621
468.75 -195.312 688
-351.562 -320.312 2859
62.5 171.875 682
-257.812 -117.188 835
250 -93.75 653
148.438 218.75 655
460.938 -351.562 706
328.125 296.875 608
-148.438 226.562 845
281.25 -320.312 759
-390.625 70.3125 962
476.562 359.375 570
-250 -109.375 833
-367.188 -250 2680
23.4375 320.312 781
257.812 257.812 629
257.812 -375 776
-7.8125 132.812 707
468.75 -54.6875 693
492.188 304.688 588
242.188 -210.938 625
-23.4375 -210.938 896
312.5 -414.062 733
-85.9375 -78.125 794
-148.438 -62.5 796
-257.812 -78.125 817
203.125 0 738
-320.312 -375 3010
-156.25 -289.062 964
-187.5 -281.25 1210
210.938 -54.6875 693
-257.812 -343.75 2859
-218.75 -62.5 807
250 -203.125 622
289.062 -7.8125 690
101.562 -148.438 837
-7.8125 -62.5 992
273.438 -195.312 618
23.4375 421.875 1292
-179.688 242.188 1044
414.062 -195.312 845
-62.5 7.8125 805
-23.4375 156.25 717
-250 -140.625 1084
445.312 -296.875 716
-78.125 117.188 727
265.625 -93.75 648
-468.75 7.8125 1010
375 -164.062 595
23.4375 -54.6875 790
-242.188 23.4375 871
484.375 359.375 570
-70.3125 -39.0625 803
171.875 250 649
-375 -304.688 2812
62.5 367.188 774
-7.8125 -429.688 2381
140.625 210.938 657
390.625 -203.125 610
-320.312 -453.125 3092
109.375 320.312 771
-312.5 -85.9375 1050
-437.5 -226.562 2659
-125 -31.25 798
140.625 -335.938 1206
437.5 -343.75 704
-70.3125 109.375 723
-23.4375 125 713
-242.188 78.125 878
296.875 281.25 618
460.938 367.188 570
296.875 -242.188 794
-226.562 -187.5 896
-132.812 -46.875 803
148.438 226.562 654
-46.875 -85.9375 796
406.25 -335.938 706
437.5 -320.312 707
335.938 -257.812 755
-226.562 -171.875 894
367.188 -132.812 591
351.562 7.8125 674
-234.375 -156.25 862
-93.75 -101.562 815
-164.062 -187.5 987
-390.625 -445.312 2908
437.5 335.938 584
-437.5 -218.75 2598
-148.438 -281.25 964
273.438 -187.5 614
-39.0625 -85.9375 800
-39.0625 23.4375 761
398.438 320.312 592
-218.75 85.9375 867
-171.875 -414.062 3010
54.6875 164.062 687
390.625 -335.938 706
468.75 351.562 574
-312.5 -296.875 2767
-226.562 101.562 878
0 -132.812 819
109.375 398.438 762
0 -125 819
-218.75 -265.625 1202
101.562 187.5 671
304.688 62.5 711
-7.8125 -156.25 829
-218.75 -234.375 943
335.938 39.0625 703
-203.125 101.562 839
-414.062 -421.875 3120
-23.4375 -117.188 811
476.562 54.6875 697
421.875 -226.562 766
0 -23.4375 780
-7.8125 398.438 1232
242.188 257.812 631
-312.5 281.25 1794
-406.25 54.6875 970
-117.188 125 817
-390.625 46.875 962
453.125 46.875 701
312.5 281.25 615
-250 -351.562 2883
0 148.438 701
382.812 -195.312 610
-484.375 273.438 1823
-320.312 -468.75 3037
-93.75 -70.3125 794
-484.375 -406.25 2933
-492.188 -406.25 2723
382.812 -390.625 704
-187.5 -78.125 805
187.5 234.375 646
-54.6875 39.0625 747
-414.062 54.6875 981
359.375 -78.125 621
-500 -406.25 2723
-226.562 -250 1189
-195.312 -140.625 920
-234.375 -203.125 1138
304.688 -203.125 619
-445.312 -437.5 2984
-226.562 -367.188 2908
343.75 296.875 607
-187.5 -70.3125 802
-31.25 -101.562 803
281.25 -195.312 615
156.25 -156.25 652
-320.312 -289.062 2767
281.25 -109.375 632
-218.75 -226.562 935
382.812 -187.5 607
445.312 -281.25 722
234.375 7.8125 727
304.688 -23.4375 676
-187.5 -140.625 935
-429.688 -242.188 2701
-242.188 54.6875 867
453.125 351.562 577
0 -117.188 813
-210.938 -46.875 805
62.5 -359.375 1250
250 -140.625 624
46.875 187.5 684
-78.125 31.25 811
-250 -117.188 835
7.8125 156.25 697
-492.188 -398.438 2723
421.875 328.125 587
328.125 23.4375 696
-289.062 -398.438 3092
-351.562 23.4375 973
156.25 218.75 654
-226.562 54.6875 864
-70.3125 -15.625 800
-39.0625 -445.312 3064
492.188 -328.125 719
250 -39.0625 687
335.938 23.4375 690
-500 -382.812 2701
281.25 54.6875 716
304.688 -210.938 622
335.938 437.5 701
-39.0625 -453.125 3092
195.312 -132.812 653
-414.062 15.625 984
-31.25 -117.188 813
-226.562 31.25 871
476.562 7.8125 717
-367.188 -289.062 2767
492.188 -320.312 720
296.875 15.625 703
117.188 375 749
281.25 -351.562 754
39.0625 156.25 693
54.6875 171.875 683
23.4375 265.625 805
-460.938 15.625 1007
-54.6875 117.188 720
210.938 15.625 741
460.938 -54.6875 704
234.375 -164.062 619
-343.75 -335.938 2883
460.938 -281.25 725
46.875 296.875 789
-70.3125 62.5 744
203.125 -46.875 703
234.375 -226.562 636
351.562 -226.562 627
437.5 -226.562 769
250 23.4375 731
304.688 109.375 690
-429.688 -257.812 2744
-273.438 -343.75 2883
476.562 39.0625 706
-312.5 -281.25 1227
70.3125 -109.375 815
250 -375 792
132.812 210.938 658
351.562 -39.0625 643
-367.188 -304.688 2812
-367.188 -273.438 2701
-15.625 -156.25 843
-179.688 -187.5 970
195.312 23.4375 738
-335.938 101.562 933
-414.062 31.25 975
93.75 -140.625 837
-23.4375 -250 935
-226.562 39.0625 864
54.6875 429.688 1292
367.188 304.688 601
351.562 -31.25 648
-39.0625 -460.938 3120
-421.875 -437.5 3064
85.9375 304.688 781
-85.9375 125 739
-125 -203.125 989
343.75 312.5 601
-31.25 242.188 821
-312.5 320.312 1757
31.25 -54.6875 790
289.062 -203.125 620
453.125 -414.062 707
398.438 -210.938 780
375 -148.438 592
7.8125 -78.125 967
289.062 39.0625 723
304.688 -195.312 615
-164.062 -195.312 987
-312.5 335.938 1731
289.062 -132.812 618
460.938 -7.8125 727
31.25 -62.5 790
-304.688 242.188 1489
-343.75 101.562 933
-398.438 -414.062 2958
265.625 -164.062 611
312.5 289.062 613
226.562 -218.75 632
-406.25 -414.062 3149
312.5 -429.688 742
-7.8125 -15.625 776
273.438 421.875 713
-406.25 39.0625 970
0 -78.125 967
-414.062 -289.062 2598
-125 -78.125 807
328.125 -429.688 730
-195.312 -15.625 803
187.5 367.188 744
281.25 -156.25 608
-203.125 -390.625 2984
492.188 -335.938 717
359.375 304.688 601
406.25 320.312 591
-85.9375 109.375 728
257.812 304.688 638
0 -125 819
-39.0625 -437.5 3037
-242.188 -164.062 891
250 -164.062 615
-226.562 46.875 864
328.125 -46.875 652
-93.75 -46.875 805
7.8125 140.625 703
437.5 -398.438 704
429.688 -296.875 716
367.188 -359.375 707
242.188 -226.562 635
335.938 -132.812 598
-210.938 -382.812 2984
-335.938 -343.75 2908
492.188 -132.812 676
320.312 -78.125 636
101.562 289.062 785
-93.75 -289.062 964
-351.562 179.688 1381
367.188 -218.75 623
250 -117.188 641
-234.375 -203.125 1138
289.062 -195.312 615
156.25 -140.625 661
-390.625 -429.688 2984
-304.688 -304.688 2767
414.062 -210.938 776
156.25 -437.5 2933
398.438 -390.625 703
54.6875 -359.375 1250
-421.875 -429.688 3092
257.812 0 711
0 273.438 803
-54.6875 -453.125 3092
-281.25 -468.75 3238
-164.062 -421.875 3064
-414.062 -429.688 3120
414.062 -398.438 703
-289.062 -382.812 3010
468.75 -281.25 727
-367.188 -312.5 2835
-234.375 -210.938 1145
312.5 -234.375 800
-179.688 -234.375 964
468.75 -226.562 771
492.188 -171.875 682
0 -132.812 819
0 -109.375 813
0 -85.9375 956
367.188 -70.3125 624
195.312 -46.875 707
289.062 23.4375 714
265.625 23.4375 725
-335.938 85.9375 933
-85.9375 226.562 833
351.562 304.688 602
125 304.688 780
382.812 312.5 597
-312.5 351.562 1713
296.875 -289.062 761
375 -101.562 610
210.938 0 734
195.312 0 741
-257.812 -125 1073
117.188 -335.938 1214
453.125 -273.438 727
-39.0625 296.875 805
-437.5 39.0625 989
-429.688 -218.75 2618
-78.125 15.625 809
-335.938 132.812 1161
-23.4375 -250 935
375 -156.25 593
0 156.25 700
335.938 -93.75 620
445.312 -265.625 731
429.688 -210.938 854
-250 -468.75 3333
187.5 -132.812 655
265.625 39.0625 727
-148.438 -93.75 819
109.375 195.312 667
367.188 453.125 693
-437.5 -234.375 2680
-320.312 -445.312 3092
367.188 -93.75 611
-46.875 31.25 755
460.938 343.75 578
492.188 -210.938 675
195.312 -421.875 2812
320.312 46.875 714
-328.125 -359.375 2958
23.4375 148.438 698
-23.4375 -171.875 867
-39.0625 -93.75 802
0 -93.75 954
140.625 -390.625 2789
-367.188 -250 2680
187.5 0 747
257.812 -203.125 622
-54.6875 -85.9375 796
281.25 273.438 622
-46.875 -39.0625 847
312.5 -7.8125 683
-156.25 -39.0625 803
-46.875 -93.75 800
203.125 -195.312 624
-312.5 289.062 1794
-234.375 273.438 1543
-257.812 -343.75 2859
156.25 -148.438 655
328.125 289.062 611
-375 -289.062 2767
-85.9375 78.125 736
460.938 -203.125 690
468.75 -273.438 730
218.75 242.188 638
-421.875 375 1705
257.812 -109.375 641
-437.5 -242.188 2701
-85.9375 -289.062 964
-85.9375 -15.625 794
-46.875 -289.062 954
125 203.125 664
148.438 -468.75 2859
-226.562 -257.812 1197
-257.812 289.062 1572
-117.188 -289.062 964
328.125 -62.5 642
242.188 -359.375 800
-109.375 -62.5 794
-492.188 -414.062 2701
148.438 210.938 657
-15.625 -468.75 2286
367.188 -382.812 707
476.562 351.562 574
414.062 328.125 588
-195.312 -156.25 920
273.438 265.625 625
-320.312 -382.812 3010
-250 -351.562 2883
-70.3125 -132.812 940
-445.312 -406.25 3010
398.438 -242.188 749
492.188 -398.438 716
375 -218.75 783
-500 -390.625 2701
335.938 -78.125 629
156.25 -125 671
437.5 351.562 578
218.75 -78.125 674
-210.938 -54.6875 805
343.75 -218.75 629
382.812 328.125 591
234.375 -242.188 644
156.25 226.562 652
-437.5 -445.312 2984
-109.375 -7.8125 794
445.312 335.938 582
-218.75 70.3125 858
476.562 -156.25 713
-46.875 -476.562 3178
-265.625 273.438 1564
-351.562 140.625 1177
156.25 -156.25 652
70.3125 171.875 682
265.625 -390.625 771
421.875 328.125 587
-500 -257.812 2767
375 -367.188 706
70.3125 187.5 676
-78.125 -78.125 794
-312.5 117.188 920
164.062 218.75 653
273.438 -367.188 759
492.188 -343.75 714
359.375 -156.25 594
15.625 328.125 783
445.312 -54.6875 698
-62.5 -85.9375 796
101.562 -195.312 1080
-312.5 171.875 1359
171.875 234.375 647
257.812 -328.125 785
-250 -101.562 827
460.938 -421.875 711
437.5 335.938 584
-54.6875 39.0625 747
289.062 -414.062 752
101.562 375 755
-218.75 7.8125 819
234.375 -187.5 618
-23.4375 -164.062 847
398.438 320.312 592
31.25 -109.375 1022
78.125 375 769
23.4375 -54.6875 790
304.688 -320.312 741
289.062 -226.562 632
320.312 -367.188 725
242.188 250 635
226.562 250 635
-343.75 -421.875 2984
289.062 -257.812 800
-62.5 -23.4375 800
-15.625 -453.125 2333
-15.625 -7.8125 771
171.875 -210.938 635
195.312 257.812 642
257.812 257.812 629
406.25 -398.438 703
242.188 -250 908
320.312 312.5 606
390.625 -382.812 704
257.812 -335.938 780
476.562 -242.188 684
0 -117.188 813
492.188 218.75 623
296.875 -195.312 615
70.3125 179.688 678
187.5 359.375 747
-54.6875 -117.188 821
-93.75 70.3125 809
-125 -39.0625 802
226.562 242.188 637
-210.938 85.9375 839
343.75 -101.562 613
-62.5 -7.8125 783
-312.5 312.5 1757
445.312 -328.125 707
250 -359.375 787
312.5 343.75 634
492.188 -382.812 713
-437.5 -250 2723
312.5 281.25 615
70.3125 195.312 678
281.25 -242.188 898
-187.5 -7.8125 800
320.312 -62.5 644
-242.188 -171.875 1115
343.75 -312.5 725
-39.0625 -210.938 975
218.75 -7.8125 722
0 -101.562 951
-101.562 125 825
117.188 -468.75 2984
445.312 343.75 580
476.562 -164.062 710
109.375 343.75 761
-54.6875 -281.25 956
-15.625 -445.312 2333
-125 -62.5 794
-109.375 250 829
445.312 -125 672
476.562 -234.375 687
304.688 -421.875 742
421.875 -343.75 704
289.062 273.438 621
289.062 -375 742
-164.062 -289.062 964
-70.3125 117.188 722
476.562 -218.75 698
218.75 -156.25 628
-445.312 -437.5 2984
-398.438 -460.938 2883
117.188 -171.875 851
390.625 312.5 595
-382.812 70.3125 956
-492.188 -23.4375 1028
-421.875 -445.312 3037
390.625 -23.4375 744
-257.812 -78.125 817
-62.5 -445.312 3092
406.25 335.938 586
-7.8125 -414.062 2415
-187.5 -273.438 959
453.125 -351.562 706
-7.8125 -460.938 2301
-187.5 -171.875 948
-31.25 -445.312 3064
-242.188 -359.375 2908
-273.438 281.25 1601
54.6875 -93.75 807
492.188 281.25 597
476.562 -250 684
226.562 429.688 713
-23.4375 0 766
-304.688 -304.688 2767
-39.0625 -85.9375 800
-453.125 23.4375 1007
-320.312 -328.125 2859
367.188 320.312 595
210.938 242.188 640
-476.562 -265.625 2744
-39.0625 -101.562 803
7.8125 -85.9375 956
492.188 -296.875 668
-289.062 132.812 903
390.625 320.312 594
328.125 -23.4375 666
320.312 23.4375 697
312.5 -101.562 624
281.25 265.625 624
265.625 265.625 625
-500 15.625 2184
367.188 -125 594
414.062 -257.812 734
-250 -93.75 823
382.812 -195.312 610
-250 -70.3125 811
-429.688 -460.938 2984
281.25 -226.562 635
429.688 -226.562 771
-234.375 -367.188 2883
429.688 -367.188 701
-234.375 -210.938 1145
-195.312 -398.438 2984
164.062 0 754
-39.0625 -265.625 954
-39.0625 -78.125 802
335.938 -164.062 598
492.188 -289.062 668
445.312 -398.438 704
-62.5 -15.625 785
-375 -296.875 2789
203.125 234.375 642
484.375 -320.312 714
171.875 -132.812 663
-437.5 -257.812 2744
304.688 -171.875 604
242.188 -125 636
460.938 351.562 575
-62.5 -78.125 794
0 -125 819
406.25 125 671
-453.125 39.0625 2143
359.375 -85.9375 615
367.188 -78.125 620
289.062 -203.125 620
-296.875 -312.5 2812
-85.9375 -101.562 815
-15.625 -437.5 2381
226.562 -54.6875 684
359.375 -351.562 711
296.875 -15.625 684
148.438 234.375 655
367.188 -54.6875 635
-31.25 250 817
-132.812 -203.125 989
453.125 62.5 694
234.375 -148.438 627
-250 46.875 867
-203.125 -390.625 2984
421.875 -203.125 849
273.438 -351.562 759
-187.5 -406.25 3010
460.938 -281.25 725
-421.875 -429.688 3092
117.188 328.125 767
-187.5 -23.4375 803
398.438 -375 701
382.812 -429.688 706
-39.0625 -414.062 2958
-367.188 -250 2680
484.375 359.375 570
234.375 -164.062 619
-414.062 -414.062 3092
375 -132.812 591
367.188 -140.625 591
312.5 -132.812 607
492.188 -46.875 630
-320.312 304.688 1757
85.9375 -132.812 1028
289.062 -367.188 742
-226.562 62.5 867
-414.062 -421.875 3120
-492.188 0 1022
304.688 15.625 700
359.375 15.625 674
468.75 -343.75 707
-210.938 -273.438 1210
-226.562 218.75 1572
468.75 -265.625 738
250 39.0625 725
-218.75 -242.188 943
-328.125 250 1823
125 195.312 667
187.5 226.562 647
-328.125 39.0625 964
382.812 -39.0625 754
-54.6875 -242.188 967
-250 296.875 1632
31.25 429.688 1333
406.25 328.125 589
382.812 -203.125 614
-351.562 -328.125 2883
-250 54.6875 867
-46.875 -460.938 3120
-367.188 -265.625 2598
-359.375 -320.312 2859
-109.375 109.375 821
429.688 -257.812 736
164.062 -437.5 2933
-453.125 -429.688 2984
281.25 -328.125 755
85.9375 179.688 676
-242.188 78.125 878
226.562 -226.562 637
257.812 -203.125 622
-62.5 46.875 746
218.75 -164.062 623
0 -109.375 813
125 -398.438 2835
46.875 -85.9375 807
-54.6875 -453.125 3092
343.75 31.25 690
-406.25 -273.438 2723
320.312 -429.688 736
398.438 -250 739
-289.062 -320.312 2859
171.875 -117.188 672
-46.875 -476.562 3178
-109.375 -78.125 796
265.625 406.25 722
-179.688 -46.875 811
195.312 234.375 644
328.125 -93.75 623
-39.0625 -226.562 908
46.875 156.25 691
-382.812 62.5 954
-437.5 -210.938 2598
164.062 -453.125 2958
0 -93.75 954
-250 265.625 1550
-234.375 -218.75 1157
429.688 -382.812 703
335.938 289.062 609
367.188 304.688 601
-250 -148.438 1090
-429.688 -445.312 2984
-320.312 -460.938 3064
148.438 -460.938 2883
460.938 -304.688 714
-15.625 -460.938 2301
-437.5 -250 2723
109.375 187.5 671
320.312 -351.562 727
-218.75 -250 954
468.75 343.75 578
-390.625 -421.875 2958
-101.562 -70.3125 794
195.312 -398.438 2812
414.062 -304.688 713
484.375 -218.75 690
312.5 -85.9375 636
289.062 -195.312 615
-320.312 273.438 1794
-281.25 273.438 1594
250 54.6875 717
-242.188 -171.875 1115
476.562 -273.438 670
-375 -273.438 2744
-125 -46.875 805
132.812 203.125 663
-492.188 335.938 1748
429.688 328.125 586
156.25 -117.188 675
218.75 -242.188 649
304.688 421.875 711
437.5 -46.875 701
-500 335.938 1748
-226.562 -187.5 896
492.188 -132.812 676
-453.125 -406.25 2958
-296.875 226.562 1452
171.875 218.75 652
250 -250 903
-312.5 328.125 1739
-226.562 -195.312 896
-132.812 -195.312 989
296.875 273.438 620
265.625 273.438 622
226.562 -148.438 629
-54.6875 -476.562 3208
484.375 -406.25 713
210.938 -195.312 623
15.625 -46.875 785
265.625 -179.688 612
296.875 -109.375 627
304.688 -312.5 744
304.688 -312.5 744
-359.375 -257.812 2579
-85.9375 -109.375 817
273.438 -179.688 611
382.812 312.5 597
453.125 -46.875 686
476.562 375 565
156.25 210.938 657
117.188 218.75 664
-62.5 -62.5 790
421.875 328.125 587
328.125 335.938 615
265.625 257.812 628
-85.9375 -85.9375 805
-179.688 -414.062 3010
453.125 -179.688 686
-265.625 -93.75 827
-265.625 289.062 1586
406.25 320.312 591
93.75 179.688 676
226.562 -164.062 621
-312.5 289.062 1794
-187.5 -281.25 1210
156.25 -132.812 666
46.875 343.75 761
156.25 -140.625 661
351.562 -414.062 716
429.688 335.938 584
-156.25 -281.25 964
-93.75 -54.6875 807
250 0 716
343.75 23.4375 688
320.312 359.375 648
-125 -54.6875 794
-500 -414.062 2701
-312.5 234.375 1470
421.875 335.938 585
281.25 281.25 619
367.188 -156.25 593
78.125 179.688 676
-226.562 -375 2908
140.625 390.625 741
398.438 -382.812 703
-234.375 210.938 1094
296.875 -218.75 629
445.312 375 571
468.75 -273.438 730
187.5 -414.062 2835
320.312 31.25 703
210.938 250 636
398.438 -398.438 703
-398.438 -273.438 2723
0 -117.188 813
-445.312 46.875 1177
265.625 281.25 621
382.812 -218.75 780
-312.5 359.375 1705
-492.188 -398.438 2723
304.688 -351.562 733
-132.812 -39.0625 802
242.188 -250 908
-85.9375 -437.5 3064
234.375 -226.562 636
460.938 343.75 578
226.562 7.8125 730
242.188 -210.938 625
476.562 -226.562 687
-31.25 -281.25 954
62.5 171.875 682
289.062 -226.562 632
-156.25 -171.875 981
-218.75 -226.562 935
335.938 -31.25 658
-31.25 -54.6875 989
-226.562 78.125 867
156.25 -125 671
-281.25 -328.125 2859
93.75 187.5 671
234.375 -31.25 700
-390.625 -203.125 1161
-398.438 -437.5 2908
-226.562 -203.125 915
-234.375 -367.188 2883
-375 -468.75 2883
343.75 -242.188 762
0 -242.188 928
187.5 304.688 701
226.562 -226.562 637
-62.5 -31.25 802
484.375 351.562 574
-250 -125 835
31.25 -132.812 1038
-218.75 31.25 862
320.312 281.25 615
335.938 -62.5 640
140.625 -421.875 2859
343.75 -226.562 629
-257.812 -125 1073
-31.25 -109.375 805
-476.562 7.8125 1010
390.625 328.125 590
203.125 7.8125 742
414.062 328.125 588
-273.438 265.625 1550
-31.25 -234.375 908
460.938 -289.062 723
-70.3125 -109.375 817
250 -242.188 637
140.625 203.125 661
-289.062 242.188 1483
-85.9375 -70.3125 794
257.812 -117.188 637
23.4375 328.125 781
-328.125 -437.5 3010
-453.125 390.625 1680
39.0625 156.25 693
242.188 -187.5 616
-117.188 -203.125 989
453.125 -281.25 723
-93.75 -117.188 819
-226.562 101.562 878
-70.3125 -78.125 794
-234.375 -226.562 1161
-242.188 -179.688 1119
-250 54.6875 867
-320.312 164.062 1333
-335.938 -429.688 2984
-500 -7.8125 1038
296.875 -132.812 611
-429.688 46.875 984
-476.562 -7.8125 1013
-453.125 7.8125 998
375 312.5 598
-375 -257.812 2680
484.375 -140.625 654
-226.562 281.25 1536
-195.312 -164.062 920
-70.3125 -93.75 809
453.125 -218.75 858
281.25 -109.375 632
281.25 -7.8125 694
375 -140.625 591
-351.562 93.75 940
-390.625 -437.5 2908
242.188 -54.6875 679
453.125 359.375 574
406.25 -210.938 778
382.812 453.125 691
-453.125 -234.375 2680
-234.375 -156.25 862
156.25 250 661
-398.438 -414.062 2958
492.188 -375 713
-406.25 -414.062 3149
0 -101.562 951
312.5 -101.562 624
492.188 -289.062 668
320.312 39.0625 710
351.562 296.875 606
0 -46.875 981
-445.312 -453.125 2933
390.625 -320.312 710
421.875 -375 703
-31.25 -195.312 887
-351.562 -265.625 2579
-343.75 242.188 1833
312.5 31.25 707
-226.562 109.375 908
257.812 -250 903
-398.438 -445.312 2908
-31.25 -101.562 803
-437.5 -265.625 2767
-210.938 226.562 1108
-367.188 -250 2680
460.938 15.625 717
39.0625 -78.125 1001
320.312 289.062 612
109.375 -164.062 1054
0 -85.9375 956
-437.5 -421.875 3037
23.4375 429.688 1328
-210.938 93.75 875
-23.4375 -476.562 2286
-328.125 -453.125 3064
257.812 257.812 629
-437.5 -414.062 3064
468.75 -265.625 738
-421.875 -437.5 3064
210.938 -125 649
-39.0625 414.062 1398
468.75 -281.25 727
328.125 -250 764
-7.8125 140.625 704
359.375 -93.75 612
-39.0625 -257.812 956
7.8125 148.438 698
390.625 312.5 595
-492.188 -265.625 2744
-500 -421.875 2680
-468.75 -414.062 2958
312.5 -203.125 619
-226.562 70.3125 867
-101.562 70.3125 807
-171.875 -398.438 1343
484.375 -414.062 716
-421.875 -421.875 3092
296.875 -93.75 636
-125 -445.312 3120
-429.688 -437.5 2984
-492.188 -257.812 2767
-31.25 7.8125 762
-375 -421.875 2984
367.188 -62.5 632
437.5 -273.438 722
-453.125 -460.938 2933
242.188 7.8125 723
351.562 31.25 717
203.125 234.375 642
-125 -195.312 992
-500 -242.188 2701
-484.375 -406.25 2933
-179.688 -414.062 3010
-31.25 -140.625 825
-414.062 -414.062 3092
-265.625 -101.562 1057
-31.25 -226.562 908
390.625 -312.5 711
-335.938 -460.938 3010
-70.3125 -46.875 807
273.438 15.625 714
-62.5 -46.875 809
171.875 -468.75 2883
-296.875 -312.5 2812
62.5 -101.562 815
250 -250 903
-70.3125 0 803
468.75 -46.875 698
492.188 -281.25 667
-328.125 93.75 925
476.562 15.625 714
265.625 15.625 717
476.562 367.188 568
78.125 -125 1028
-31.25 -210.938 891
-359.375 0 989
-31.25 -203.125 891
-31.25 -148.438 831
468.75 351.562 574
203.125 367.188 742
-242.188 93.75 918
-31.25 -257.812 954
-31.25 -132.812 819
156.25 -93.75 690
-328.125 -445.312 3010
-359.375 -171.875 1126
179.688 -265.625 1141
101.562 -468.75 3092
-468.75 -273.438 2789
390.625 -351.562 706
-250 -148.438 1090
-390.625 -468.75 2859
437.5 -265.625 731
187.5 226.562 647
179.688 -164.062 642
-39.0625 -93.75 802
-226.562 78.125 867
242.188 250 635
179.688 226.562 648
-437.5 -210.938 2598
250 257.812 629
-437.5 -460.938 2984
351.562 -46.875 640
125 210.938 661
359.375 304.688 601
445.312 -273.438 727
-15.625 -429.688 2398
421.875 -312.5 708
-343.75 -320.312 2859
375 -398.438 706
-46.875 -460.938 3120
242.188 382.812 733
-7.8125 -156.25 829
-125 -93.75 815
-367.188 -414.062 2984
375 -343.75 707
-85.9375 -31.25 796
-132.812 -414.062 1365
-312.5 -382.812 3037
-15.625 -54.6875 989
304.688 -218.75 627
-31.25 -234.375 908
-242.188 -359.375 2908
-460.938 -429.688 2908
-70.3125 -453.125 3120
-46.875 -453.125 3092
281.25 265.625 624
367.188 -289.062 723
-250 70.3125 869
-226.562 -375 2908
367.188 -421.875 710
304.688 281.25 616
-265.625 -85.9375 1044
-234.375 101.562 913
492.188 -359.375 713
-453.125 31.25 1007
-406.25 -453.125 2883
-31.25 -218.75 903
-429.688 -226.562 2639
375 -226.562 618
242.188 15.625 731
-31.25 -250 925
148.438 273.438 706
210.938 -70.3125 687
492.188 -70.3125 629
-281.25 -328.125 2835
171.875 -140.625 657
-242.188 -179.688 1112
-218.75 203.125 878
-343.75 -273.438 2723
-375 -289.062 2767
-351.562 -273.438 2723
320.312 -93.75 629
-39.0625 -398.438 1307
468.75 -398.438 707
453.125 -195.312 687
359.375 -101.562 611
-218.75 -382.812 2958
-31.25 -125 813
-234.375 -164.062 878
-7.8125 -78.125 959
328.125 39.0625 710
375 -179.688 597
218.75 -78.125 678
-375 -304.688 2812
-210.938 -265.625 959
-218.75 -257.812 956
437.5 -328.125 707
-453.125 328.125 1757
-234.375 -179.688 894
382.812 320.312 591
382.812 -203.125 607
320.312 7.8125 694
171.875 289.062 701
-289.062 265.625 1550
-312.5 320.312 1757
-335.938 -359.375 2958
-7.8125 -140.625 817
-445.312 31.25 995
-62.5 -460.938 3120
-46.875 -109.375 807
-500 335.938 1748
-23.4375 -468.75 2226
-171.875 -421.875 3037
-31.25 -187.5 873
-242.188 210.938 1119
-312.5 179.688 1365
296.875 429.688 706
335.938 -328.125 723
-476.562 15.625 1019
476.562 -375 707
296.875 23.4375 716
-484.375 335.938 1748
-46.875 -445.312 3064
-328.125 257.812 1823
-320.312 273.438 1794
414.062 320.312 588
-31.25 257.812 811
250 250 631
312.5 -62.5 652
-31.25 -242.188 913
-54.6875 39.0625 744
375 -164.062 593
125 -445.312 2958
492.188 -382.812 714
210.938 -156.25 631
-31.25 -117.188 807
-31.25 -273.438 946
460.938 -289.062 725
375 304.688 597
-226.562 101.562 910
-242.188 164.062 885
351.562 -39.0625 648
359.375 -398.438 707
-437.5 -234.375 2639
156.25 -78.125 698
187.5 -132.812 657
-492.188 335.938 1748
328.125 0 683
-234.375 -234.375 1165
382.812 -398.438 703
468.75 -234.375 690
-39.0625 367.188 1427
-31.25 -265.625 943
-437.5 -250 2701
351.562 -257.812 750
-257.812 -132.812 1080
226.562 242.188 635
398.438 -367.188 701
265.625 -375 759
468.75 -257.812 767
460.938 359.375 570
-226.562 -226.562 928
234.375 -210.938 622
-7.8125 -148.438 827
-31.25 -257.812 943
-242.188 -62.5 809
492.188 -156.25 682
-257.812 203.125 1503
296.875 -203.125 614
-164.062 -421.875 3064
-234.375 210.938 998
429.688 -375 701
468.75 359.375 570
-429.688 -445.312 2984
-320.312 -351.562 2908
312.5 281.25 613
-468.75 328.125 1748
-320.312 218.75 1410
171.875 -203.125 629
-31.25 -156.25 835
492.188 -187.5 679
351.562 -226.562 623
-210.938 70.3125 841
-31.25 -226.562 906
-78.125 -398.438 1322
-250 54.6875 867
-23.4375 -460.938 2226
468.75 343.75 575
-296.875 257.812 1536
78.125 -367.188 2744
-210.938 78.125 841
-101.562 85.9375 811
375 -171.875 595
304.688 273.438 618
-234.375 -109.375 831
-242.188 93.75 873
328.125 -359.375 720
-351.562 -320.312 2812
-46.875 -390.625 1307
-31.25 -195.312 878
-23.4375 0 766
398.438 312.5 593
-242.188 -187.5 1115
492.188 351.562 568
-421.875 31.25 975
367.188 -117.188 598
265.625 -93.75 650
492.188 367.188 563
-500 0 1038
-335.938 -281.25 2723
476.562 -281.25 682
-250 31.25 871
-398.438 -281.25 2767
484.375 -398.438 711
164.062 218.75 652
429.688 -242.188 752
-250 -117.188 833
460.938 -312.5 717
250 -101.562 650
-85.9375 0 794
-31.25 -226.562 906
343.75 -414.062 714
-210.938 132.812 891
437.5 -304.688 713
382.812 -210.938 618
328.125 31.25 704
445.312 -304.688 714
156.25 -85.9375 693
250 -312.5 794
312.5 -85.9375 640
-500 -398.438 2723
-390.625 -414.062 2958
-320.312 226.562 1452
242.188 -234.375 634
-500 -210.938 2639
-195.312 46.875 815
398.438 320.312 590
-453.125 -210.938 2618
-406.25 -445.312 2883
-234.375 -195.312 908
171.875 -132.812 664
-218.75 -210.938 915
-250 70.3125 867
-351.562 218.75 1863
-46.875 -437.5 3037
257.812 -359.375 766
281.25 -359.375 746
-242.188 257.812 1557
-257.812 257.812 1536
-226.562 -210.938 915
242.188 -148.438 623
-218.75 -234.375 935
-62.5 -39.0625 805
-359.375 -257.812 1206
265.625 -328.125 766
-179.688 312.5 1496
-195.312 -7.8125 800
-453.125 -445.312 2933
-164.062 93.75 817
289.062 351.562 674
289.062 -109.375 632
-93.75 -23.4375 792
421.875 -218.75 854
359.375 296.875 602
-54.6875 296.875 813
367.188 -250 752
335.938 -78.125 632
492.188 -281.25 653
-31.25 -132.812 815
-328.125 -460.938 3064
429.688 -132.812 746
171.875 296.875 716
-226.562 78.125 864
445.312 -289.062 722
-421.875 -429.688 3092
296.875 -367.188 734
-468.75 -242.188 2701
117.188 -367.188 2744
-23.4375 -164.062 841
429.688 328.125 584
-375 -429.688 2984
-140.625 -78.125 805
-85.9375 -23.4375 794
-398.438 -429.688 2933
367.188 304.688 598
-476.562 -242.188 2701
-234.375 101.562 910
-23.4375 -453.125 2226
-54.6875 -195.312 978
382.812 -367.188 703
-218.75 93.75 871
367.188 328.125 594
-148.438 265.625 1063
-46.875 -429.688 3010
335.938 289.062 607
453.125 335.938 578
-101.562 -406.25 1338
93.75 -406.25 2835
-250 39.0625 867
257.812 -93.75 652
-31.25 -203.125 887
382.812 -328.125 708
-445.312 -218.75 2639
492.188 -273.438 653
304.688 -414.062 731
-265.625 -85.9375 819
445.312 -218.75 854
367.188 -85.9375 618
250 -187.5 614
375 -187.5 601
-210.938 304.688 1509
-15.625 -85.9375 956
382.812 -187.5 601
-31.25 -148.438 827
210.938 -132.812 647
-179.688 -414.062 3010
-39.0625 15.625 755
-234.375 -242.188 1169
320.312 296.875 607
-226.562 -218.75 923
-312.5 -335.938 2859
-359.375 351.562 1713
-453.125 382.812 1688
484.375 -312.5 723
-359.375 296.875 1776
-31.25 -179.688 869
-7.8125 -148.438 827
-429.688 -437.5 3010
-476.562 335.938 1748
281.25 -320.312 754
-484.375 335.938 1748
-445.312 -234.375 2680
-335.938 -367.188 2958
0 335.938 1070
-7.8125 -156.25 835
195.312 273.438 661
484.375 -140.625 646
-390.625 70.3125 964
-265.625 257.812 1523
-468.75 23.4375 998
-85.9375 7.8125 819
460.938 -210.938 688
-39.0625 250 815
484.375 -328.125 717
-328.125 296.875 1776
-421.875 -265.625 2744
-398.438 -437.5 2908
351.562 -78.125 627
-421.875 -421.875 3092
343.75 7.8125 682
-210.938 257.812 1557
-132.812 -78.125 800
195.312 382.812 734
117.188 195.312 663
367.188 -398.438 706
257.812 -250 638
265.625 -203.125 615
-31.25 -218.75 898
-460.938 23.4375 998
359.375 -109.375 607
437.5 -351.562 703
281.25 -179.688 607
-359.375 93.75 946
-445.312 -242.188 2701
289.062 -312.5 750
-242.188 -62.5 809
-109.375 -406.25 1338
-429.688 -429.688 3064
148.438 335.938 761
-398.438 54.6875 962
367.188 -164.062 591
-7.8125 -140.625 817
-78.125 234.375 825
-187.5 242.188 1101
257.812 -179.688 611
-70.3125 7.8125 803
-195.312 93.75 831
-234.375 15.625 875
-15.625 -62.5 989
-421.875 -414.062 3092
-54.6875 -476.562 3149
-453.125 250 1843
367.188 -132.812 591
453.125 -296.875 720
-62.5 46.875 742
390.625 -328.125 707
-304.688 -367.188 2958
-460.938 328.125 1757
492.188 -148.438 680
-351.562 101.562 940
-218.75 -7.8125 807
429.688 -218.75 854
-367.188 -421.875 2984
-218.75 -382.812 2958
367.188 -101.562 610
203.125 -54.6875 698
-375 -273.438 2744
-46.875 23.4375 754
-31.25 -140.625 821
-445.312 39.0625 987
-187.5 -39.0625 805
273.438 39.0625 720
-484.375 -257.812 2723
468.75 -265.625 744
421.875 70.3125 690
-492.188 -15.625 1022
484.375 382.812 563
156.25 382.812 736
476.562 -312.5 720
31.25 -70.3125 790
-203.125 203.125 869
484.375 -320.312 719
-476.562 -23.4375 1019
-445.312 -429.688 3010
281.25 312.5 640
-320.312 117.188 920
-234.375 -171.875 878
-187.5 -31.25 802
-429.688 -203.125 2598
390.625 -398.438 701
-70.3125 -195.312 978
101.562 -156.25 1047
257.812 -398.438 773
-242.188 -195.312 1130
-31.25 -187.5 873
-164.062 257.812 1063
-328.125 304.688 1766
-445.312 -226.562 2659
492.188 296.875 588
7.8125 -375 1268
476.562 343.75 574
-218.75 289.062 1529
-210.938 -421.875 3037
-265.625 -109.375 1050
-226.562 -242.188 943
-398.438 -421.875 2958
375 -265.625 736
382.812 -351.562 706
-218.75 -39.0625 815
-226.562 15.625 873
-250 257.812 1557
-125 281.25 1067
460.938 23.4375 707
62.5 -359.375 1250
320.312 281.25 612
-257.812 195.312 1105
375 320.312 592
390.625 -210.938 607
-312.5 335.938 1731
-62.5 -46.875 807
382.812 304.688 597
-218.75 101.562 875
468.75 -390.625 706
-218.75 -15.625 809
390.625 312.5 593
156.25 210.938 654
-281.25 257.812 1516
359.375 312.5 597
-54.6875 -468.75 3149
164.062 -39.0625 730
304.688 -367.188 731
-210.938 93.75 837
468.75 -226.562 696
-203.125 296.875 1516
-398.438 70.3125 962
-218.75 179.688 873
-46.875 -289.062 954
-429.688 62.5 984
437.5 328.125 583
390.625 -367.188 703
320.312 -250 776
421.875 -257.812 739
296.875 273.438 618
-226.562 101.562 910
0 -109.375 948
-296.875 -343.75 2883
-367.188 -257.812 2639
140.625 -359.375 2723
234.375 242.188 635
-218.75 0 807
171.875 218.75 650
-171.875 -421.875 3037
-265.625 -343.75 2883
-39.0625 -109.375 802
-250 62.5 867
-304.688 226.562 1452
-23.4375 -382.812 1288
484.375 -406.25 713
-265.625 -101.562 819
328.125 -328.125 725
-257.812 156.25 894
-500 218.75 1894
375 445.312 691
-187.5 31.25 817
-382.812 78.125 964
-109.375 -406.25 1338
-296.875 234.375 1458
351.562 -54.6875 641
257.812 -234.375 635
7.8125 -93.75 956
-93.75 328.125 1464
-7.8125 -148.438 827
320.312 -125 610
-218.75 93.75 871
-234.375 -250 1181
-54.6875 -460.938 3120
-320.312 -359.375 2908
296.875 -335.938 739
70.3125 -117.188 815
398.438 328.125 586
-343.75 101.562 930
-281.25 265.625 1550
156.25 -117.188 671
-460.938 7.8125 998
437.5 -62.5 701
-250 -156.25 1097
-31.25 -156.25 835
-250 39.0625 867
265.625 257.812 627
156.25 -429.688 2908
398.438 312.5 593
187.5 -31.25 723
-234.375 -187.5 903
460.938 -226.562 696
234.375 250 631
-406.25 390.625 1680
437.5 335.938 581
-414.062 54.6875 973
-234.375 320.312 1705
-250 -93.75 819
257.812 -164.062 613
-156.25 328.125 1477
-437.5 -445.312 2984
382.812 312.5 594
-250 -109.375 829
-445.312 -210.938 2618
398.438 390.625 628
-226.562 -265.625 1197
382.812 -265.625 736
351.562 -273.438 738
312.5 -281.25 752
359.375 -343.75 711
-335.938 250 1823
421.875 -375 701
-320.312 296.875 1776
476.562 -148.438 653
460.938 -179.688 684
-148.438 117.188 823
351.562 296.875 603
-226.562 210.938 998
453.125 351.562 574
234.375 320.312 690
-46.875 -390.625 1307
289.062 -15.625 691
62.5 -109.375 815
-328.125 218.75 1433
-367.188 85.9375 940
-234.375 -242.188 1169
-125 132.812 817
-351.562 132.812 1169
-203.125 93.75 833
-218.75 -101.562 827
-500 226.562 1883
-250 265.625 1550
-93.75 -101.562 811
-453.125 -437.5 2984
312.5 -250 780
304.688 -7.8125 690
-242.188 -195.312 1130
250 -195.312 615
-7.8125 -382.812 1283
-500 -250 2744
-468.75 -421.875 2908
-312.5 210.938 1410
429.688 -351.562 703
-203.125 234.375 1077
250 -375 774
101.562 210.938 670
-234.375 171.875 882
468.75 -257.812 767
187.5 226.562 644
-250 70.3125 867
-390.625 78.125 975
492.188 -367.188 717
-78.125 15.625 811
-351.562 -265.625 2659
-226.562 -250 954
-484.375 -7.8125 1016
375 -429.688 707
7.8125 -375 1268
-375 -414.062 2883
-23.4375 -429.688 2398
-242.188 -203.125 1138
-335.938 171.875 1328
-242.188 210.938 1119
242.188 -171.875 614
0 -390.625 2450
421.875 320.312 588
304.688 -171.875 601
257.812 273.438 623
-195.312 23.4375 823
242.188 -234.375 634
-218.75 -23.4375 809
257.812 -406.25 774
-500 234.375 1873
-117.188 117.188 817
-445.312 -242.188 2701
156.25 -62.5 783
429.688 343.75 579
-250 -101.562 819
453.125 -210.938 687
203.125 -132.812 652
-93.75 -93.75 807
-335.938 -445.312 3010
-375 -257.812 2639
-257.812 296.875 1594
156.25 -93.75 691
-85.9375 101.562 727
-70.3125 109.375 722
-328.125 109.375 925
-218.75 -54.6875 805
343.75 -62.5 638
-31.25 -250 925
468.75 -218.75 690
375 -148.438 584
-7.8125 -140.625 817
-437.5 -203.125 2598
281.25 265.625 622
-250 31.25 871
195.312 -62.5 698
273.438 406.25 719
257.812 46.875 719
335.938 31.25 698
-257.812 -70.3125 819
398.438 -257.812 738
-210.938 -390.625 2984
296.875 31.25 719
-7.8125 -132.812 815
-203.125 132.812 889
-210.938 101.562 835
484.375 -335.938 714
-46.875 -273.438 951
-484.375 -203.125 2618
-218.75 -437.5 3149
-265.625 -78.125 819
-453.125 -421.875 3010
-203.125 -70.3125 802
-23.4375 -437.5 2365
226.562 -226.562 631
414.062 -226.562 766
-476.562 0 1007
-23.4375 -445.312 2349
54.6875 -132.812 1028
296.875 -242.188 629
-500 0 1038
375 -156.25 590
-31.25 -164.062 841
289.062 -304.688 755
-257.812 265.625 1543
-335.938 -468.75 3037
-492.188 -242.188 2701
-234.375 210.938 998
320.312 -171.875 599
-492.188 -406.25 2723
-312.5 367.188 1688
437.5 -304.688 713
-54.6875 117.188 717
492.188 -265.625 663
382.812 -218.75 618
-250 210.938 1509
328.125 281.25 611
-109.375 -78.125 794
-351.562 -320.312 2812
-78.125 -289.062 959
-382.812 -273.438 2744
-7.8125 -23.4375 773
-15.625 -125 811
-203.125 210.938 1004
-179.688 109.375 829
257.812 -312.5 783
-226.562 -62.5 805
-187.5 -125 940
343.75 15.625 687
-343.75 -468.75 3010
-476.562 -62.5 1054
289.062 -179.688 606
265.625 -78.125 659
273.438 15.625 719
375 304.688 597
-367.188 93.75 951
39.0625 -78.125 796
-320.312 281.25 1785
-445.312 -250 2701
-226.562 -375 2958
351.562 -46.875 644
-15.625 171.875 730
304.688 -210.938 616
359.375 -375 707
-476.562 -414.062 2908
-304.688 179.688 1376
-226.562 281.25 1536
-218.75 -62.5 803
-62.5 -101.562 805
460.938 343.75 576
468.75 -351.562 707
367.188 -140.625 589
-195.312 -429.688 3092
304.688 23.4375 710
359.375 -46.875 641
-109.375 109.375 817
-23.4375 -382.812 1288
-304.688 250 1516
-328.125 -460.938 3064
-218.75 226.562 1001
421.875 328.125 585
-265.625 148.438 894
-101.562 -351.562 1268
492.188 351.562 568
-54.6875 -179.688 967
62.5 -359.375 1250
-226.562 226.562 1001
429.688 -328.125 707
382.812 -328.125 708
382.812 -210.938 618
-101.562 -62.5 789
429.688 -250 749
-312.5 218.75 1427
-46.875 -250 959
-429.688 -421.875 3064
406.25 -328.125 706
-218.75 -31.25 811
-257.812 -351.562 2883
218.75 375 734
125 -187.5 851
-85.9375 109.375 727
-421.875 -414.062 3092
-445.312 62.5 2103
367.188 -375 704
304.688 54.6875 710
-54.6875 -445.312 3064
257.812 -367.188 766
117.188 -359.375 2744
-375 -179.688 1138
-179.688 -367.188 1307
-70.3125 -54.6875 809
-359.375 -328.125 2859
156.25 -70.3125 708
-54.6875 -390.625 1307
312.5 15.625 700
-46.875 -257.812 956
-140.625 273.438 1070
-382.812 -257.812 2701
-179.688 101.562 825
-468.75 335.938 1739
164.062 398.438 734
-281.25 140.625 898
-85.9375 -289.062 959
312.5 -85.9375 640
-46.875 -406.25 2933
-250 62.5 867
-195.312 304.688 1509
-265.625 -117.188 1057
-500 -265.625 2744
-257.812 -359.375 2908
-23.4375 -46.875 981
445.312 -281.25 725
-203.125 101.562 835
-70.3125 -39.0625 800
-250 78.125 869
-312.5 164.062 1354
187.5 93.75 701
226.562 -31.25 706
70.3125 304.688 780
-406.25 -226.562 2618
-187.5 -46.875 811
85.9375 -351.562 1232
-85.9375 -398.438 1322
-54.6875 -453.125 3092
-382.812 -265.625 2723
375 -179.688 597
429.688 -265.625 736
93.75 -148.438 1041
-351.562 31.25 964
-226.562 85.9375 869
-179.688 250 1080
-320.312 46.875 956
-437.5 -265.625 2744
-218.75 85.9375 860
-46.875 -218.75 970
-273.438 -335.938 2859
-437.5 -437.5 3010
-476.562 23.4375 1019
7.8125 -39.0625 776
335.938 -140.625 597
-226.562 -101.562 827
265.625 -101.562 647
-203.125 -46.875 817
-203.125 -46.875 817
-226.562 -218.75 923
-226.562 -54.6875 805
-210.938 101.562 835
-140.625 7.8125 792
-156.25 -187.5 987
-460.938 335.938 1739
-429.688 -414.062 3092
460.938 -289.062 725
-218.75 187.5 873
289.062 273.438 618
-343.75 250 1823
-46.875 -203.125 975
-453.125 398.438 1671
-335.938 218.75 1853
492.188 -203.125 678
-31.25 -171.875 860
304.688 -109.375 624
-85.9375 15.625 815
468.75 -234.375 690
-406.25 70.3125 970
218.75 15.625 734
296.875 -328.125 741
-117.188 -78.125 802
484.375 -390.625 711
-414.062 -453.125 2883
-46.875 -414.062 2933
-429.688 -203.125 2598
-218.75 203.125 878
-242.188 -203.125 1138
125 -437.5 2958
-54.6875 -390.625 1307
-335.938 -445.312 3010
-250 -62.5 1022
-85.9375 101.562 727
-460.938 328.125 1757
-429.688 -429.688 3064
-85.9375 -398.438 1322
-335.938 -460.938 3010
-78.125 -93.75 807
250 250 631
-210.938 -93.75 819
437.5 -273.438 728
-273.438 289.062 1601
414.062 320.312 588
-195.312 -132.812 930
-359.375 242.188 1833
476.562 -320.312 717
359.375 -117.188 603
-7.8125 -117.188 809
437.5 -289.062 720
156.25 -46.875 727
-257.812 289.062 1594
273.438 -226.562 628
195.312 242.188 641
-250 210.938 1509
156.25 -31.25 766
-437.5 -429.688 3037
-320.312 312.5 1757
-242.188 101.562 913
109.375 -343.75 1219
-445.312 -460.938 2958
-62.5 -289.062 956
-203.125 -398.438 2984
-351.562 242.188 1833
-156.25 -281.25 964
453.125 -218.75 854
-46.875 -210.938 975
-31.25 -179.688 869
-31.25 -468.75 2226
406.25 320.312 589
-257.812 -93.75 819
-335.938 109.375 928
-406.25 -437.5 2908
429.688 -156.25 688
257.812 296.875 638
-242.188 -210.938 1145
-39.0625 125 711
328.125 -406.25 717
-250 -164.062 1101
304.688 -203.125 614
54.6875 343.75 771
-289.062 250 1509
125 296.875 754
-375 85.9375 956
-148.438 125 827
-445.312 23.4375 989
54.6875 -359.375 1250
476.562 -179.688 704
281.25 -257.812 794
-265.625 -78.125 819
406.25 312.5 593
375 -242.188 759
359.375 296.875 602
-179.688 328.125 1496
218.75 7.8125 739
421.875 -382.812 701
343.75 -164.062 595
-429.688 46.875 981
460.938 -304.688 719
-218.75 78.125 858
-281.25 54.6875 946
-421.875 46.875 975
367.188 304.688 598
-250 62.5 867
-429.688 54.6875 984
359.375 -31.25 652
-210.938 -62.5 802
421.875 -242.188 757
-218.75 -39.0625 815
-460.938 -453.125 2933
375 -328.125 711
-500 343.75 1748
-242.188 85.9375 869
-234.375 218.75 1001
85.9375 -351.562 1232
-179.688 85.9375 819
-218.75 226.562 1001
-445.312 -257.812 2723
-39.0625 -406.25 2933
-335.938 -437.5 3010
476.562 -414.062 713
476.562 343.75 574
-234.375 179.688 885
304.688 273.438 618
-54.6875 -437.5 3037
-242.188 -70.3125 809
-210.938 296.875 1516
-226.562 85.9375 869
-15.625 273.438 800
-226.562 70.3125 862
-234.375 281.25 1536
140.625 210.938 655
382.812 320.312 591
-164.062 320.312 1489
453.125 -289.062 725
429.688 -406.25 701
-218.75 -46.875 805
-54.6875 117.188 717
406.25 -203.125 841
164.062 -195.312 630
-406.25 -289.062 2639
-320.312 281.25 1785
179.688 -140.625 655
-281.25 218.75 1458
-39.0625 -281.25 948
-445.312 -210.938 2618
460.938 -281.25 731
296.875 0 698
-187.5 109.375 831
-203.125 93.75 833
-226.562 -234.375 935
-54.6875 -281.25 954
406.25 -218.75 856
-421.875 -460.938 2883
468.75 31.25 704
-7.8125 -125 811
265.625 -281.25 800
-265.625 281.25 1579
359.375 -125 598
-70.3125 -46.875 803
0 -375 1273
265.625 312.5 650
-78.125 101.562 723
-250 164.062 887
-460.938 31.25 998
78.125 -468.75 3037
-398.438 -414.062 2958
-492.188 7.8125 1019
320.312 281.25 612
-382.812 85.9375 964
-351.562 85.9375 933
-500 312.5 1776
-226.562 -54.6875 805
-70.3125 117.188 722
-390.625 125 1268
484.375 -343.75 713
-15.625 -156.25 835
257.812 -296.875 792
-453.125 390.625 1680
367.188 -125 597
289.062 -390.625 738
-78.125 23.4375 811
484.375 343.75 574
-234.375 -257.812 1189
304.688 -359.375 731
-335.938 -359.375 2958
-218.75 -54.6875 805
-226.562 78.125 864
-484.375 -250 2723
-343.75 109.375 928
-320.312 171.875 1338
-445.312 -203.125 2598
-445.312 -453.125 2984
-437.5 39.0625 987
-382.812 -250 2680
210.938 -164.062 628
476.562 -70.3125 679
-460.938 -429.688 2984
359.375 -101.562 611
-390.625 -468.75 2835
-117.188 39.0625 809
453.125 -359.375 704
-484.375 15.625 1019
-218.75 -62.5 803
-453.125 39.0625 1007
-312.5 242.188 1516
-375 117.188 1214
-437.5 31.25 984
-335.938 93.75 925
437.5 -281.25 723
-39.0625 -101.562 800
226.562 -125 646
-281.25 -289.062 1236
320.312 -101.562 624
460.938 335.938 578
-187.5 203.125 860
-54.6875 -429.688 2984
-156.25 -414.062 1354
226.562 -226.562 624
445.312 -226.562 851
-93.75 -289.062 956
-375 78.125 940
-328.125 273.438 1794
398.438 312.5 592
-234.375 -101.562 823
-70.3125 -156.25 946
445.312 398.438 607
-210.938 187.5 867
-320.312 234.375 1445
-257.812 265.625 1543
-31.25 -46.875 978
-359.375 93.75 935
335.938 -351.562 716
-164.062 257.812 1060
-351.562 195.312 1404
-46.875 -117.188 807
-242.188 218.75 1536
-250 156.25 882
-312.5 187.5 1370
-382.812 -273.438 2723
179.688 187.5 657
-78.125 -23.4375 792
-234.375 226.562 1572
-171.875 320.312 1489
-281.25 62.5 935
-7.8125 -132.812 813
-414.062 62.5 973
-351.562 226.562 1853
343.75 -7.8125 674
359.375 -257.812 749
-500 7.8125 1019
-273.438 148.438 894
-218.75 -93.75 817
492.188 -273.438 662
-210.938 109.375 835
-351.562 242.188 1833
-31.25 -382.812 1283
-187.5 85.9375 821
0 -140.625 951
-31.25 -156.25 827
-195.312 93.75 827
-335.938 -351.562 2883
-320.312 -140.625 1087
85.9375 -140.625 825
-203.125 -156.25 915
437.5 328.125 581
414.062 -218.75 847
-203.125 39.0625 819
187.5 -164.062 640
218.75 -164.062 627
-437.5 -453.125 2908
-109.375 -85.9375 802
-437.5 46.875 978
-187.5 101.562 825
-296.875 -351.562 2908
-468.75 31.25 1004
-15.625 125 706
-70.3125 -289.062 951
484.375 -304.688 666
-156.25 265.625 1060
0 132.812 700
-421.875 62.5 973
-242.188 101.562 906
54.6875 -359.375 1236
359.375 -390.625 704
257.812 -289.062 798
281.25 -367.188 741
414.062 -109.375 733
476.562 -242.188 686
-31.25 -445.312 2349
-289.062 140.625 903
359.375 -109.375 611
-109.375 109.375 817
492.188 390.625 561
-234.375 -54.6875 803
-218.75 320.312 1516
-54.6875 -187.5 967
-492.188 -390.625 2744
-414.062 -445.312 2883
-492.188 -226.562 2680
-78.125 -31.25 794
-304.688 171.875 1370
-406.25 -429.688 2883
484.375 -367.188 714
-226.562 117.188 896
-156.25 -445.312 3092
-70.3125 -195.312 975
-7.8125 140.625 700
-250 304.688 1647
218.75 -195.312 618
-132.812 -203.125 987
-492.188 343.75 1739
-234.375 -62.5 803
-250 -164.062 880
-242.188 312.5 1671
-46.875 -62.5 796
-328.125 312.5 1757
-148.438 335.938 1464
-226.562 -242.188 935
-195.312 312.5 1503
-429.688 -421.875 3092
-195.312 -46.875 807
-375 -421.875 2984
-312.5 -140.625 1087
-250 -125 833
-195.312 -54.6875 798
-195.312 242.188 1090
-218.75 109.375 903
-23.4375 132.812 706
273.438 -140.625 621
-335.938 218.75 1433
-23.4375 -156.25 827
460.938 -289.062 683
460.938 -296.875 683
-218.75 -375 1307
-132.812 -195.312 987
359.375 -39.0625 650
-62.5 109.375 716
109.375 -343.75 1214
460.938 -218.75 687
-54.6875 -289.062 948
398.438 -125 789
-164.062 101.562 819
351.562 -109.375 611
265.625 -406.25 754
-437.5 -421.875 3092
-250 -62.5 802
23.4375 -367.188 1255
-234.375 -195.312 891
-7.8125 -117.188 948
265.625 -210.938 614
421.875 320.312 585
-289.062 273.438 1557
492.188 -281.25 655
