ply
format ascii 1.0
comment Created by Open3D
element vertex 2405
property double x
property double y
property double z
end_header
-210.938 0 854
109.375 -156.25 647
312.5 7.8125 757
-39.0625 -203.125 915
218.75 -31.25 662
0 -125 1060
-125 54.6875 762
250 -257.812 774
-132.812 101.562 739
-226.562 23.4375 843
210.938 367.188 602
437.5 -210.938 674
-429.688 -406.25 2984
0 -54.6875 813
179.688 -78.125 653
-468.75 312.5 1757
203.125 -437.5 2908
-109.375 39.0625 769
156.25 -117.188 643
476.562 -242.188 757
-70.3125 148.438 711
296.875 -359.375 728
-242.188 78.125 862
-218.75 -226.562 956
101.562 -335.938 1255
-132.812 23.4375 780
429.688 -46.875 638
125 -203.125 649
109.375 -46.875 714
-304.688 23.4375 978
-468.75 -382.812 2958
281.25 382.812 589
46.875 -101.562 837
-273.438 46.875 891
-460.938 265.625 1823
203.125 -203.125 646
-109.375 -195.312 1007
265.625 -281.25 752
-265.625 289.062 1722
320.312 406.25 578
46.875 -93.75 831
265.625 -304.688 749
-359.375 382.812 1680
15.625 203.125 682
-273.438 -109.375 843
-343.75 375 1688
-187.5 304.688 1516
414.062 -148.438 696
-39.0625 179.688 696
-476.562 382.812 1680
273.438 -406.25 762
0 382.812 766
-242.188 -156.25 903
421.875 -125 710
257.812 -156.25 618
460.938 242.188 606
328.125 -171.875 790
296.875 406.25 579
-210.938 -242.188 967
437.5 351.562 563
-117.188 -31.25 860
39.0625 421.875 754
296.875 54.6875 734
273.438 62.5 731
437.5 250 611
46.875 250 662
-125 273.438 821
421.875 -93.75 690
-476.562 398.438 1655
-31.25 -171.875 1019
-273.438 -117.188 849
304.688 -218.75 762
359.375 445.312 562
132.812 -335.938 2789
7.8125 437.5 1288
289.062 -101.562 603
-117.188 109.375 734
265.625 -398.438 761
-226.562 -187.5 933
-46.875 -398.438 1349
-226.562 210.938 885
125 281.25 640
-140.625 117.188 741
-453.125 -179.688 1161
218.75 343.75 609
-70.3125 -101.562 831
-375 -234.375 1210
-70.3125 320.312 796
187.5 -101.562 636
46.875 -23.4375 790
-101.562 -414.062 1387
445.312 0 632
476.562 304.688 574
437.5 -195.312 675
382.812 453.125 557
296.875 398.438 583
31.25 -78.125 825
468.75 -195.312 671
421.875 -85.9375 693
-234.375 -15.625 869
171.875 328.125 618
-406.25 343.75 1722
460.938 -39.0625 627
351.562 429.688 566
421.875 367.188 561
476.562 -109.375 717
148.438 296.875 630
328.125 -132.812 839
-218.75 -398.438 3037
437.5 -132.812 684
-23.4375 -203.125 925
-203.125 -117.188 851
-343.75 390.625 1655
343.75 -257.812 725
117.188 281.25 640
54.6875 -460.938 2317
109.375 -54.6875 707
335.938 -132.812 839
-210.938 -78.125 825
390.625 335.938 571
-54.6875 -15.625 794
117.188 -101.562 676
257.812 -31.25 643
-218.75 -218.75 951
484.375 -273.438 746
476.562 -140.625 703
-117.188 46.875 766
-257.812 -148.438 878
492.188 -125 686
234.375 -93.75 620
7.8125 445.312 1307
164.062 7.8125 713
476.562 -195.312 675
429.688 343.75 573
-54.6875 -54.6875 1010
-226.562 -390.625 3037
-93.75 -54.6875 871
179.688 -179.688 632
-492.188 7.8125 2198
335.938 -281.25 719
437.5 -218.75 674
117.188 273.438 644
-132.812 -70.3125 835
-273.438 23.4375 891
445.312 -132.812 683
-164.062 85.9375 750
-218.75 218.75 885
335.938 -156.25 856
343.75 23.4375 746
265.625 -234.375 780
437.5 -156.25 682
-390.625 -289.062 2789
382.812 351.562 595
-218.75 125 908
242.188 -335.938 764
-328.125 -203.125 1165
226.562 351.562 604
460.938 328.125 579
-351.562 -312.5 2723
-218.75 140.625 896
-328.125 312.5 1757
-468.75 382.812 1680
-46.875 -125 973
-156.25 -46.875 825
-23.4375 -210.938 925
-62.5 0 789
-148.438 -54.6875 827
-296.875 210.938 1543
109.375 -39.0625 717
195.312 328.125 616
437.5 257.812 627
-101.562 -54.6875 871
0 195.312 687
453.125 375 552
-203.125 234.375 867
250 -31.25 648
304.688 406.25 580
484.375 -70.3125 700
-234.375 -7.8125 858
-70.3125 7.8125 781
-273.438 46.875 891
335.938 -429.688 707
-109.375 140.625 727
23.4375 210.938 676
-156.25 46.875 767
54.6875 250 661
-7.8125 421.875 1268
156.25 328.125 623
-273.438 39.0625 889
-117.188 -78.125 819
-31.25 -179.688 1013
-31.25 195.312 693
-406.25 328.125 1748
226.562 70.3125 722
210.938 335.938 611
-398.438 257.812 1823
468.75 -54.6875 674
-156.25 93.75 747
437.5 -148.438 683
-429.688 -195.312 1177
484.375 -210.938 671
445.312 -62.5 683
140.625 296.875 631
234.375 -273.438 785
492.188 -210.938 667
289.062 390.625 585
-343.75 179.688 1516
414.062 -78.125 647
320.312 -39.0625 781
-234.375 85.9375 858
445.312 -101.562 684
335.938 421.875 570
-70.3125 265.625 821
23.4375 -85.9375 829
476.562 -187.5 682
-85.9375 -62.5 933
304.688 -85.9375 630
-23.4375 -31.25 800
453.125 226.562 606
273.438 -273.438 750
15.625 210.938 678
367.188 -296.875 713
-265.625 281.25 1722
-23.4375 281.25 811
-359.375 -453.125 3120
-281.25 -335.938 2859
187.5 320.312 619
-78.125 0 787
-226.562 -203.125 935
109.375 -23.4375 728
-382.812 -289.062 2789
-203.125 -265.625 984
-265.625 -93.75 837
-250 -140.625 875
-23.4375 203.125 691
-468.75 304.688 1785
-460.938 -31.25 1041
-46.875 382.812 1214
429.688 -281.25 716
187.5 54.6875 734
-210.938 -343.75 1312
-179.688 171.875 875
-265.625 -171.875 885
117.188 23.4375 759
195.312 -187.5 636
-335.938 351.562 1705
109.375 -70.3125 698
-15.625 -265.625 964
179.688 -46.875 671
367.188 23.4375 676
109.375 -62.5 703
-7.8125 203.125 683
-7.8125 -62.5 819
242.188 -359.375 764
281.25 -429.688 767
-164.062 -62.5 829
-148.438 359.375 1464
-140.625 -70.3125 829
39.0625 226.562 668
-492.188 -351.562 2659
-156.25 -70.3125 825
281.25 -210.938 785
304.688 -210.938 767
281.25 390.625 586
-273.438 -359.375 2984
-460.938 -23.4375 1044
171.875 312.5 623
-31.25 -234.375 935
46.875 -359.375 1297
148.438 -31.25 700
0 -101.562 1041
367.188 445.312 562
-7.8125 -140.625 1070
-39.0625 164.062 704
257.812 367.188 596
-476.562 -7.8125 2212
62.5 429.688 739
234.375 -328.125 771
445.312 -203.125 674
-93.75 242.188 833
-187.5 -359.375 1328
-46.875 187.5 701
0 -78.125 827
0 -93.75 829
-117.188 101.562 738
164.062 445.312 720
-203.125 -234.375 981
-250 7.8125 849
187.5 328.125 616
-46.875 -187.5 896
-39.0625 398.438 1264
210.938 -117.188 619
226.562 -101.562 619
-140.625 -289.062 998
46.875 226.562 667
-46.875 -117.188 973
15.625 320.312 789
-125 54.6875 762
-132.812 -203.125 1019
492.188 -54.6875 686
140.625 -218.75 657
476.562 -203.125 664
125 -203.125 649
-46.875 15.625 778
-234.375 -179.688 920
-242.188 171.875 885
-78.125 15.625 780
-265.625 70.3125 867
-281.25 -125 851
257.812 -148.438 614
-328.125 226.562 1853
265.625 375 593
-140.625 85.9375 749
-46.875 343.75 787
484.375 -203.125 671
-15.625 187.5 688
-468.75 265.625 1823
132.812 -210.938 653
421.875 -117.188 713
421.875 -210.938 690
273.438 -109.375 601
312.5 421.875 572
-15.625 -54.6875 813
109.375 -15.625 736
265.625 62.5 701
-195.312 414.062 1632
234.375 351.562 604
-476.562 406.25 1647
78.125 250 655
-335.938 257.812 1823
421.875 257.812 628
-15.625 -234.375 1157
0 -85.9375 829
-46.875 164.062 704
-250 -148.438 885
-179.688 -179.688 1004
-15.625 -242.188 948
-156.25 -39.0625 823
-62.5 273.438 813
312.5 15.625 754
-257.812 93.75 925
109.375 0 746
-85.9375 296.875 803
-15.625 -148.438 987
304.688 -367.188 727
-312.5 203.125 1536
476.562 -210.938 663
-23.4375 304.688 798
210.938 -164.062 622
-273.438 296.875 1776
476.562 -218.75 662
-468.75 320.312 1748
-93.75 125 727
-54.6875 359.375 790
-70.3125 140.625 716
-132.812 62.5 759
-117.188 -31.25 860
289.062 -437.5 759
-273.438 46.875 891
101.562 265.625 647
-257.812 -85.9375 833
460.938 289.062 580
156.25 70.3125 731
-62.5 -54.6875 1010
-39.0625 -140.625 978
429.688 -78.125 693
273.438 -296.875 746
-15.625 -39.0625 805
-328.125 304.688 1757
390.625 31.25 666
-234.375 7.8125 847
-93.75 -15.625 789
265.625 -390.625 757
-242.188 304.688 1766
-476.562 -375 2908
476.562 -226.562 662
242.188 -171.875 625
-101.562 -31.25 869
-78.125 -54.6875 935
-125 -62.5 835
-54.6875 148.438 711
312.5 -320.312 722
-39.0625 -78.125 981
148.438 23.4375 736
109.375 -54.6875 707
453.125 -171.875 678
-250 62.5 860
453.125 -164.062 679
484.375 -78.125 700
273.438 -289.062 744
179.688 46.875 734
93.75 445.312 727
-23.4375 -164.062 1025
406.25 312.5 578
-54.6875 179.688 703
-54.6875 -109.375 975
23.4375 226.562 672
-421.875 -226.562 1189
-109.375 -15.625 856
-70.3125 -109.375 833
156.25 -31.25 694
-296.875 -289.062 1264
-296.875 -289.062 1264
-62.5 -70.3125 1022
-39.0625 -195.312 908
-15.625 179.688 694
164.062 -109.375 642
289.062 23.4375 749
289.062 -429.688 750
421.875 -109.375 717
-351.562 -250 1219
453.125 -179.688 678
-148.438 390.625 1655
-70.3125 -15.625 794
210.938 62.5 727
101.562 -195.312 647
-187.5 -140.625 975
109.375 -93.75 683
-54.6875 -93.75 978
281.25 62.5 731
484.375 -242.188 757
-39.0625 203.125 710
-484.375 -62.5 1063
328.125 -78.125 805
-343.75 -257.812 1223
460.938 -375 731
-242.188 -78.125 833
257.812 375 594
250 -375 764
109.375 -46.875 714
437.5 -62.5 684
-218.75 23.4375 843
-484.375 0 2198
390.625 343.75 571
15.625 203.125 682
281.25 85.9375 719
-218.75 132.812 901
54.6875 -468.75 2286
-398.438 23.4375 989
398.438 -328.125 707
39.0625 351.562 773
187.5 343.75 612
23.4375 -70.3125 821
-406.25 -210.938 1189
234.375 -320.312 769
70.3125 242.188 658
-304.688 -70.3125 1047
-257.812 242.188 1579
109.375 -7.8125 742
445.312 -54.6875 683
62.5 242.188 659
445.312 382.812 552
492.188 -109.375 690
312.5 -85.9375 811
250 -257.812 774
109.375 -85.9375 687
-343.75 -85.9375 1060
-62.5 335.938 792
320.312 -179.688 794
484.375 -218.75 662
-226.562 -7.8125 856
437.5 265.625 624
460.938 -179.688 678
-242.188 70.3125 858
390.625 -226.562 733
-296.875 226.562 1586
437.5 -125 684
78.125 -179.688 650
-101.562 320.312 1483
39.0625 218.75 671
-7.8125 187.5 688
468.75 -39.0625 624
289.062 -179.688 625
414.062 398.438 575
-85.9375 -46.875 878
328.125 -15.625 769
-179.688 226.562 851
78.125 -117.188 686
398.438 -304.688 710
476.562 -93.75 731
-54.6875 -125 835
226.562 -328.125 778
320.312 -23.4375 773
484.375 -210.938 671
-382.812 39.0625 975
-125 -398.438 1376
203.125 -117.188 621
109.375 -117.188 667
460.938 312.5 578
484.375 289.062 575
226.562 -62.5 640
-148.438 39.0625 771
429.688 -304.688 713
-164.062 343.75 1477
289.062 -398.438 744
-265.625 304.688 1766
203.125 343.75 609
195.312 54.6875 730
-445.312 -398.438 2984
218.75 343.75 609
-382.812 -437.5 3092
-39.0625 335.938 783
460.938 335.938 576
226.562 -179.688 629
-140.625 70.3125 757
335.938 -125 835
320.312 -406.25 723
453.125 -195.312 674
-304.688 -281.25 1250
-62.5 148.438 711
-343.75 398.438 1655
-398.438 -421.875 3064
-328.125 -265.625 1227
468.75 281.25 580
109.375 -132.812 659
179.688 -171.875 630
109.375 15.625 761
273.438 46.875 693
0 -132.812 1063
-78.125 15.625 780
-437.5 -406.25 2984
367.188 437.5 563
15.625 218.75 676
492.188 -101.562 691
-234.375 -54.6875 833
109.375 -31.25 723
-257.812 156.25 894
109.375 -70.3125 698
-273.438 257.812 1579
125 54.6875 742
492.188 -93.75 694
421.875 -93.75 690
109.375 -125 663
-226.562 -195.312 933
484.375 -203.125 671
265.625 7.8125 667
109.375 -39.0625 717
320.312 -195.312 773
250 -210.938 901
54.6875 -445.312 2365
-460.938 -171.875 1157
304.688 -335.938 723
421.875 -179.688 693
132.812 -164.062 636
296.875 -406.25 742
343.75 -289.062 717
-445.312 -23.4375 1025
-70.3125 7.8125 781
-328.125 312.5 1757
250 -320.312 755
-265.625 234.375 1594
-468.75 328.125 1748
0 328.125 785
-46.875 156.25 707
109.375 -109.375 676
281.25 -414.062 762
320.312 -437.5 720
320.312 -320.312 719
-500 -140.625 1126
-78.125 140.625 717
406.25 398.438 576
-218.75 93.75 858
46.875 429.688 749
-265.625 -117.188 849
453.125 -289.062 722
476.562 -54.6875 690
375 437.5 563
0 -117.188 1054
-85.9375 -39.0625 880
15.625 -93.75 835
-85.9375 23.4375 776
390.625 312.5 578
164.062 -117.188 638
390.625 445.312 559
-476.562 390.625 1663
-46.875 -85.9375 981
-140.625 93.75 746
-273.438 234.375 1594
-281.25 -296.875 1268
-234.375 203.125 875
-210.938 -39.0625 825
-46.875 335.938 787
7.8125 203.125 682
117.188 273.438 644
-328.125 210.938 1579
429.688 -132.812 687
-234.375 78.125 860
328.125 -70.3125 798
148.438 296.875 630
-296.875 -125 856
226.562 -460.938 2812
-460.938 273.438 1813
101.562 265.625 647
54.6875 257.812 661
234.375 -460.938 2835
-101.562 117.188 730
-468.75 -164.062 1153
453.125 -179.688 678
-203.125 -62.5 833
296.875 390.625 585
-109.375 117.188 730
-23.4375 -265.625 964
343.75 429.688 567
-179.688 -46.875 823
351.562 429.688 566
-390.625 78.125 1328
-70.3125 -70.3125 913
328.125 -117.188 831
304.688 398.438 582
-132.812 62.5 759
-132.812 93.75 744
-281.25 226.562 1594
-265.625 70.3125 867
-101.562 7.8125 787
289.062 62.5 731
281.25 70.3125 727
-164.062 -375 1349
140.625 -218.75 657
-46.875 -101.562 975
468.75 -210.938 663
-265.625 156.25 896
453.125 343.75 574
132.812 -210.938 653
-78.125 -39.0625 880
-54.6875 -117.188 833
281.25 -257.812 749
437.5 -226.562 672
406.25 460.938 552
109.375 -101.562 679
-265.625 7.8125 891
281.25 -265.625 747
-242.188 187.5 891
-343.75 -289.062 2767
-328.125 320.312 1739
328.125 -125 835
437.5 -23.4375 631
-218.75 218.75 885
-109.375 -70.3125 819
484.375 -234.375 908
492.188 -85.9375 698
-210.938 281.25 1536
-437.5 -7.8125 1019
234.375 -312.5 769
335.938 -421.875 708
0 -125 1060
484.375 -15.625 621
-179.688 -210.938 1013
-93.75 31.25 773
460.938 320.312 578
234.375 -273.438 785
-23.4375 171.875 698
-296.875 46.875 959
85.9375 382.812 754
289.062 -210.938 776
-210.938 -23.4375 825
468.75 -234.375 663
492.188 -117.188 690
-226.562 -70.3125 839
-468.75 312.5 1757
328.125 -421.875 713
421.875 -312.5 711
429.688 343.75 573
421.875 -398.438 722
398.438 31.25 663
-203.125 -242.188 981
250 -171.875 625
-281.25 250 1594
218.75 -109.375 618
437.5 -70.3125 688
-164.062 109.375 764
476.562 -148.438 696
109.375 -93.75 683
312.5 406.25 578
320.312 -15.625 769
-31.25 -23.4375 798
-335.938 359.375 1696
-125 101.562 739
-93.75 -93.75 819
312.5 -265.625 731
187.5 -164.062 625
-85.9375 132.812 720
257.812 54.6875 697
-117.188 382.812 1433
453.125 398.438 572
226.562 -85.9375 625
-265.625 93.75 925
296.875 398.438 583
78.125 250 655
-93.75 140.625 720
125 15.625 749
320.312 406.25 578
101.562 -335.938 1255
-468.75 289.062 1785
109.375 -140.625 657
-468.75 343.75 1722
-234.375 -179.688 920
62.5 -351.562 1283
-171.875 -234.375 1010
15.625 -62.5 815
-101.562 125 727
-390.625 31.25 984
484.375 -31.25 612
289.062 15.625 755
484.375 242.188 601
234.375 31.25 691
-351.562 -250 1219
-132.812 351.562 1464
-210.938 -343.75 1312
242.188 31.25 686
-156.25 -31.25 821
140.625 289.062 634
210.938 335.938 611
140.625 304.688 629
320.312 414.062 575
171.875 -148.438 624
179.688 453.125 716
250 -343.75 755
-15.625 -226.562 1149
492.188 -242.188 908
453.125 -164.062 679
93.75 289.062 647
281.25 382.812 589
382.812 -281.25 713
453.125 -203.125 674
-468.75 335.938 1731
312.5 31.25 744
468.75 335.938 576
203.125 335.938 612
85.9375 -343.75 1268
85.9375 257.812 653
-257.812 7.8125 854
-39.0625 343.75 783
304.688 -281.25 731
0 -70.3125 821
-343.75 179.688 1516
-23.4375 -148.438 987
335.938 -140.625 845
109.375 -125 663
-203.125 304.688 1516
-421.875 -203.125 1185
320.312 -31.25 778
-265.625 15.625 862
7.8125 -101.562 835
125 281.25 640
304.688 -101.562 627
-320.312 281.25 1785
-367.188 359.375 1705
54.6875 437.5 746
289.062 406.25 580
-39.0625 -140.625 978
453.125 -195.312 674
429.688 -312.5 711
-62.5 -93.75 908
328.125 414.062 575
265.625 390.625 587
109.375 -132.812 659
-109.375 234.375 837
265.625 78.125 723
453.125 -187.5 675
-132.812 109.375 738
148.438 312.5 627
23.4375 -70.3125 821
7.8125 195.312 686
15.625 312.5 792
406.25 23.4375 657
-140.625 70.3125 757
492.188 -265.625 750
289.062 7.8125 759
-335.938 203.125 1873
257.812 -164.062 622
-484.375 -156.25 1145
109.375 -109.375 676
-210.938 -234.375 964
304.688 -39.0625 783
179.688 -164.062 625
382.812 445.312 560
257.812 46.875 694
476.562 -101.562 727
164.062 304.688 627
-7.8125 -93.75 978
-46.875 164.062 704
281.25 54.6875 736
187.5 320.312 619
-132.812 85.9375 747
23.4375 210.938 676
46.875 226.562 667
-187.5 -359.375 1328
-62.5 -406.25 1370
242.188 359.375 601
-195.312 -125 849
-242.188 -164.062 903
-117.188 -406.25 1387
273.438 375 592
226.562 -335.938 781
-31.25 171.875 698
-250 -125 860
210.938 -156.25 619
70.3125 242.188 658
273.438 54.6875 693
203.125 351.562 607
273.438 -7.8125 654
-468.75 -46.875 1047
414.062 -85.9375 658
-320.312 234.375 1833
0 -78.125 827
-437.5 382.812 1680
-93.75 296.875 807
437.5 -257.812 725
109.375 -85.9375 687
398.438 -203.125 750
-15.625 179.688 694
484.375 -195.312 672
226.562 343.75 609
-210.938 296.875 1523
328.125 -156.25 858
312.5 -78.125 805
312.5 -335.938 720
343.75 421.875 570
93.75 257.812 650
296.875 -421.875 746
-78.125 312.5 798
257.812 414.062 596
-156.25 296.875 1516
-23.4375 179.688 694
-257.812 -7.8125 858
468.75 -203.125 664
281.25 85.9375 719
-406.25 54.6875 1297
-250 -156.25 891
-242.188 -7.8125 858
242.188 -351.562 761
-328.125 -312.5 2835
195.312 328.125 616
-406.25 -421.875 3064
257.812 -156.25 618
-257.812 -125 860
-148.438 -15.625 827
-500 15.625 2170
453.125 -171.875 678
242.188 -273.438 774
-343.75 390.625 1655
421.875 -289.062 713
445.312 -164.062 679
156.25 375 674
-125 -54.6875 833
460.938 -46.875 674
296.875 -343.75 727
351.562 -382.812 713
132.812 289.062 635
101.562 398.438 746
164.062 -39.0625 688
-46.875 -109.375 973
-78.125 15.625 780
250 359.375 599
-210.938 195.312 867
31.25 218.75 672
203.125 -460.938 2859
0 -140.625 1070
429.688 273.438 622
-210.938 -54.6875 831
-148.438 -382.812 1354
289.062 -390.625 739
156.25 -23.4375 700
-70.3125 -23.4375 798
421.875 -101.562 723
257.812 -250 773
-437.5 -187.5 1165
218.75 -132.812 612
-351.562 -281.25 2744
-7.8125 257.812 746
453.125 -210.938 674
203.125 328.125 615
-257.812 -382.812 3010
0 -85.9375 829
234.375 351.562 604
-31.25 -226.562 933
-101.562 132.812 722
-7.8125 -257.812 1181
468.75 -23.4375 623
164.062 39.0625 741
-218.75 -187.5 951
195.312 -125 621
-109.375 -85.9375 821
390.625 453.125 555
-437.5 -15.625 1019
382.812 -304.688 710
359.375 429.688 566
-7.8125 -62.5 819
0 -109.375 1047
-234.375 -328.125 1297
328.125 7.8125 755
-93.75 -7.8125 789
-46.875 -7.8125 790
-109.375 218.75 849
312.5 398.438 581
-492.188 -70.3125 1070
429.688 -78.125 693
-226.562 -70.3125 839
-382.812 -226.562 1202
-218.75 273.438 1543
-187.5 -132.812 970
-226.562 -195.312 933
62.5 234.375 663
437.5 -70.3125 688
179.688 320.312 619
335.938 -156.25 856
359.375 -234.375 731
125 -203.125 649
335.938 -109.375 825
445.312 -156.25 680
335.938 -117.188 829
156.25 304.688 628
-23.4375 -390.625 1343
234.375 367.188 598
-242.188 -406.25 3120
-281.25 359.375 1705
320.312 -429.688 722
-46.875 -93.75 978
109.375 -164.062 642
-187.5 93.75 761
265.625 70.3125 725
226.562 -101.562 619
-85.9375 125 723
-210.938 -210.938 959
-179.688 -54.6875 825
109.375 -156.25 647
0 -93.75 829
-93.75 31.25 773
125 46.875 747
31.25 210.938 676
70.3125 0 776
375 -296.875 711
-273.438 39.0625 889
250 -54.6875 632
-226.562 0 849
265.625 85.9375 719
-171.875 93.75 754
-101.562 -23.4375 864
171.875 -39.0625 683
-265.625 15.625 862
226.562 -296.875 789
-281.25 -312.5 1288
476.562 -54.6875 690
-328.125 296.875 1766
-7.8125 250 725
-328.125 320.312 1739
-109.375 109.375 734
-132.812 101.562 739
359.375 -210.938 744
-218.75 -210.938 948
-367.188 -304.688 2835
109.375 -101.562 679
109.375 -140.625 657
304.688 -54.6875 792
257.812 39.0625 686
-265.625 148.438 896
-234.375 203.125 875
-234.375 257.812 1564
-78.125 132.812 720
460.938 234.375 606
-226.562 187.5 873
-476.562 406.25 1647
62.5 -101.562 837
187.5 -7.8125 691
164.062 -85.9375 658
-242.188 195.312 875
-101.562 0 789
-500 -140.625 1126
-250 -359.375 2958
421.875 375 558
460.938 -85.9375 683
210.938 -164.062 622
437.5 -273.438 719
-85.9375 23.4375 776
187.5 335.938 613
7.8125 -54.6875 813
-70.3125 289.062 807
453.125 -78.125 683
-132.812 -54.6875 831
-281.25 -296.875 1268
492.188 -54.6875 686
476.562 351.562 589
-320.312 -320.312 2859
109.375 -132.812 659
242.188 429.688 635
109.375 -148.438 650
359.375 -54.6875 746
-93.75 335.938 1112
179.688 -179.688 632
-250 78.125 864
-78.125 414.062 1398
234.375 -359.375 774
-117.188 7.8125 787
429.688 -85.9375 693
70.3125 257.812 654
85.9375 265.625 649
-328.125 -265.625 1227
125 23.4375 755
-7.8125 375 769
-343.75 -460.938 3149
-226.562 210.938 885
-15.625 -226.562 1149
-390.625 70.3125 1288
-203.125 -257.812 981
78.125 -343.75 1268
375 367.188 589
-195.312 -257.812 995
468.75 -367.188 731
476.562 359.375 585
-62.5 -7.8125 790
250 367.188 597
-500 7.8125 2184
-250 -351.562 2958
476.562 -85.9375 731
234.375 -125 609
335.938 -101.562 819
312.5 -109.375 631
-328.125 328.125 1731
-179.688 -289.062 995
328.125 -382.812 720
-195.312 156.25 887
476.562 -226.562 662
273.438 -226.562 774
-265.625 -125 856
328.125 -62.5 794
484.375 -328.125 742
312.5 406.25 578
-78.125 140.625 717
-312.5 -468.75 3010
-39.0625 -15.625 794
-31.25 -125 975
-46.875 -101.562 975
484.375 -203.125 671
-226.562 15.625 843
7.8125 -109.375 1047
304.688 -437.5 750
492.188 273.438 579
453.125 31.25 629
367.188 -320.312 710
-250 15.625 849
445.312 -62.5 683
-54.6875 156.25 708
-23.4375 -125 975
453.125 320.312 582
-242.188 -31.25 831
15.625 203.125 682
-265.625 0 858
-101.562 39.0625 769
-7.8125 -46.875 809
414.062 320.312 573
109.375 -171.875 642
-39.0625 164.062 704
-210.938 31.25 839
-437.5 414.062 1647
70.3125 398.438 747
226.562 -62.5 640
-414.062 -203.125 1181
-335.938 359.375 1696
93.75 257.812 650
-54.6875 351.562 790
445.312 -78.125 687
-335.938 367.188 1688
-226.562 -171.875 928
445.312 -382.812 727
414.062 382.812 562
476.562 -335.938 736
62.5 250 657
210.938 -203.125 644
429.688 -125 687
187.5 -78.125 649
-171.875 -281.25 998
367.188 406.25 575
-367.188 78.125 973
289.062 -195.312 805
484.375 -187.5 674
-429.688 -203.125 1181
-250 -7.8125 858
359.375 437.5 564
-312.5 179.688 1483
296.875 390.625 585
-70.3125 328.125 796
343.75 54.6875 730
179.688 46.875 734
453.125 281.25 586
390.625 -304.688 710
-109.375 -78.125 819
-210.938 -15.625 825
187.5 328.125 616
281.25 15.625 684
-312.5 414.062 1632
-54.6875 -109.375 975
109.375 -164.062 642
-179.688 328.125 1489
-31.25 -218.75 928
234.375 -156.25 619
468.75 242.188 604
140.625 -164.062 632
140.625 429.688 728
-101.562 242.188 833
-242.188 -164.062 903
-93.75 250 829
-273.438 140.625 903
171.875 -164.062 627
78.125 250 655
-351.562 140.625 1398
-54.6875 328.125 789
453.125 265.625 593
0 187.5 688
484.375 -195.312 672
-343.75 406.25 1647
-109.375 46.875 766
117.188 273.438 644
460.938 390.625 574
492.188 335.938 576
-226.562 406.25 1647
46.875 414.062 746
-23.4375 359.375 774
-257.812 -453.125 3120
140.625 -195.312 643
132.812 62.5 739
429.688 -320.312 711
-171.875 -367.188 1343
-203.125 -250 981
398.438 460.938 552
-125 -289.062 989
-140.625 343.75 1464
-250 23.4375 849
-265.625 -335.938 2908
367.188 -328.125 708
-367.188 -289.062 2789
195.312 -140.625 619
-343.75 125 1381
-85.9375 -31.25 880
460.938 -46.875 674
265.625 -234.375 780
-242.188 54.6875 849
289.062 -351.562 731
375 460.938 554
-242.188 70.3125 858
-125 7.8125 783
390.625 -31.25 653
460.938 -101.562 719
0 195.312 687
54.6875 -93.75 831
15.625 390.625 761
296.875 0 762
-273.438 -328.125 1283
46.875 -359.375 1297
-320.312 281.25 1785
-109.375 -289.062 989
304.688 -46.875 789
-93.75 -39.0625 875
-429.688 0 1016
-304.688 -453.125 3010
-429.688 -406.25 2984
250 -382.812 769
320.312 -296.875 722
429.688 -171.875 686
320.312 -7.8125 764
-250 54.6875 856
257.812 -375 755
484.375 -31.25 612
62.5 234.375 663
-328.125 -7.8125 998
-250 -39.0625 837
70.3125 351.562 771
-304.688 -132.812 1101
195.312 0 693
437.5 -242.188 672
312.5 -179.688 787
484.375 -93.75 730
210.938 -117.188 619
312.5 39.0625 741
109.375 -148.438 650
343.75 -320.312 713
-257.812 0 856
289.062 -296.875 734
234.375 -101.562 616
140.625 39.0625 750
-140.625 -281.25 998
250 78.125 716
453.125 -93.75 684
320.312 406.25 578
-140.625 93.75 746
437.5 -70.3125 688
109.375 -156.25 647
-54.6875 0 787
125 -148.438 641
343.75 -390.625 713
476.562 -93.75 731
460.938 226.562 606
-140.625 257.812 829
195.312 -46.875 664
-359.375 -242.188 1214
429.688 -242.188 676
492.188 -93.75 694
445.312 257.812 627
171.875 -156.25 625
140.625 31.25 750
-23.4375 -187.5 1013
320.312 -93.75 815
179.688 312.5 622
-445.312 -179.688 1157
453.125 -179.688 678
7.8125 195.312 686
468.75 -242.188 750
54.6875 234.375 663
210.938 335.938 611
-31.25 -23.4375 798
203.125 -39.0625 664
492.188 -15.625 619
476.562 -210.938 663
445.312 359.375 556
367.188 437.5 563
445.312 -62.5 683
257.812 367.188 596
0 -132.812 1063
-140.625 -15.625 829
-85.9375 132.812 720
-31.25 164.062 703
375 -257.812 722
218.75 -203.125 644
-117.188 -195.312 1010
-140.625 78.125 752
242.188 -375 771
39.0625 218.75 671
289.062 46.875 738
-101.562 218.75 847
-250 210.938 1134
-195.312 210.938 856
-23.4375 171.875 698
-328.125 257.812 1813
335.938 421.875 570
-203.125 -54.6875 829
218.75 -109.375 618
-476.562 -156.25 1145
-7.8125 -257.812 1181
250 -265.625 771
343.75 -148.438 847
335.938 -132.812 839
-390.625 -218.75 1189
226.562 -109.375 614
453.125 -54.6875 678
-15.625 187.5 688
-398.438 -218.75 1193
31.25 210.938 676
-468.75 351.562 1722
-31.25 -148.438 987
-7.8125 -250 1173
234.375 -148.438 615
289.062 -242.188 755
-54.6875 -54.6875 1010
-148.438 312.5 1496
-265.625 54.6875 875
-117.188 -7.8125 847
31.25 -46.875 805
359.375 -257.812 723
-265.625 62.5 873
-250 46.875 854
93.75 257.812 650
203.125 335.938 612
-234.375 -171.875 920
-46.875 -7.8125 790
-257.812 -312.5 1283
-148.438 250 833
453.125 -70.3125 682
265.625 -156.25 616
23.4375 210.938 676
-46.875 156.25 707
273.438 375 592
-15.625 -218.75 1141
179.688 -148.438 622
-281.25 -296.875 1268
-398.438 54.6875 1214
-312.5 101.562 928
0 -70.3125 821
179.688 0 704
226.562 -148.438 615
335.938 414.062 574
250 -367.188 761
-242.188 289.062 1543
-54.6875 148.438 711
109.375 -117.188 667
-109.375 -406.25 1387
-289.062 125 913
328.125 -296.875 719
-468.75 -164.062 1153
0 -46.875 809
-203.125 -250 981
273.438 382.812 590
-343.75 414.062 1647
-70.3125 140.625 716
289.062 -437.5 759
320.312 0 761
320.312 -437.5 720
460.938 -195.312 671
351.562 421.875 570
-351.562 164.062 1452
117.188 15.625 755
210.938 -46.875 655
-234.375 265.625 1557
-70.3125 -31.25 802
31.25 -85.9375 829
351.562 -187.5 771
-23.4375 -179.688 1025
-250 39.0625 851
234.375 -179.688 629
-250 31.25 849
-132.812 93.75 744
-23.4375 187.5 691
226.562 343.75 609
320.312 -421.875 723
-335.938 343.75 1713
429.688 -85.9375 693
-320.312 234.375 1833
-226.562 -187.5 933
132.812 281.25 638
257.812 -367.188 752
-304.688 -54.6875 1038
-257.812 0 856
-234.375 70.3125 858
335.938 -93.75 815
-281.25 210.938 1572
-250 54.6875 856
-320.312 289.062 1776
156.25 296.875 630
226.562 -93.75 623
453.125 367.188 552
-70.3125 -62.5 938
-78.125 148.438 713
-7.8125 -265.625 1189
-7.8125 210.938 684
484.375 -187.5 674
7.8125 -117.188 1054
-312.5 -304.688 2859
-460.938 -382.812 2883
382.812 -265.625 719
-15.625 437.5 1322
460.938 -187.5 672
-234.375 -15.625 869
-85.9375 -23.4375 794
281.25 -179.688 632
-265.625 31.25 862
382.812 445.312 560
-39.0625 -132.812 975
-257.812 -140.625 869
382.812 437.5 563
429.688 -109.375 688
476.562 -218.75 662
132.812 296.875 631
-242.188 -78.125 833
-62.5 7.8125 781
140.625 289.062 634
70.3125 242.188 658
484.375 375 578
125 281.25 640
-31.25 406.25 1312
-320.312 187.5 1503
-296.875 226.562 1586
195.312 328.125 616
-156.25 -46.875 825
-101.562 -15.625 789
-468.75 328.125 1748
148.438 -93.75 661
-101.562 -7.8125 789
140.625 23.4375 742
203.125 328.125 615
398.438 453.125 555
-109.375 -31.25 860
265.625 -148.438 613
250 -15.625 655
203.125 0 690
85.9375 250 655
460.938 -93.75 723
359.375 445.312 562
-250 -117.188 856
-70.3125 156.25 710
429.688 -54.6875 640
187.5 31.25 717
281.25 382.812 589
265.625 -335.938 746
242.188 359.375 601
0 218.75 682
140.625 -101.562 661
-335.938 -257.812 1227
273.438 -335.938 739
109.375 -171.875 642
-265.625 312.5 1757
218.75 335.938 610
-328.125 179.688 1483
-398.438 23.4375 989
421.875 382.812 557
-109.375 117.188 730
250 39.0625 687
117.188 7.8125 750
250 359.375 599
-226.562 -62.5 837
281.25 -328.125 736
-210.938 -226.562 964
382.812 -289.062 713
125 273.438 643
-335.938 203.125 1873
-109.375 46.875 766
-218.75 -210.938 948
343.75 -328.125 711
171.875 -125 632
-187.5 -148.438 981
296.875 0 762
62.5 234.375 663
-31.25 171.875 698
-187.5 101.562 849
-109.375 125 727
-421.875 -195.312 1177
445.312 335.938 576
-390.625 -226.562 1202
-117.188 54.6875 761
-148.438 46.875 767
-117.188 101.562 738
-15.625 -156.25 1031
335.938 31.25 742
453.125 -156.25 682
367.188 -312.5 710
359.375 429.688 566
343.75 -140.625 843
-265.625 -101.562 839
-320.312 273.438 1794
-351.562 148.438 1427
210.938 -101.562 624
-125 -7.8125 835
23.4375 203.125 679
117.188 -31.25 719
85.9375 -343.75 1268
148.438 289.062 632
203.125 343.75 609
476.562 -54.6875 690
343.75 -156.25 856
-335.938 375 1680
476.562 -273.438 739
265.625 367.188 595
109.375 -164.062 642
453.125 382.812 552
-39.0625 390.625 1250
-250 164.062 887
312.5 398.438 581
-226.562 -31.25 827
187.5 320.312 619
7.8125 -54.6875 813
-101.562 39.0625 769
343.75 421.875 570
109.375 273.438 644
335.938 437.5 565
-117.188 132.812 730
-242.188 250 1572
281.25 -382.812 741
-312.5 250 1833
320.312 -109.375 825
156.25 -15.625 706
242.188 -320.312 762
-62.5 -46.875 1004
-132.812 -195.312 1013
296.875 -320.312 728
-93.75 148.438 720
203.125 -70.3125 648
265.625 -242.188 771
-125 -70.3125 837
195.312 -7.8125 687
-39.0625 -265.625 962
312.5 406.25 578
437.5 -281.25 717
398.438 445.312 559
-453.125 -39.0625 1034
210.938 -203.125 644
289.062 -320.312 731
140.625 15.625 738
453.125 -382.812 730
-304.688 210.938 1543
171.875 -85.9375 653
476.562 304.688 574
-7.8125 179.688 693
-257.812 -117.188 856
-148.438 93.75 746
-250 46.875 854
-156.25 242.188 839
-218.75 -31.25 827
382.812 -390.625 710
-117.188 -85.9375 821
-250 93.75 925
0 187.5 688
-54.6875 0 787
273.438 -296.875 746
453.125 -54.6875 678
-312.5 -273.438 1245
359.375 -375 711
101.562 265.625 647
-140.625 359.375 1458
-70.3125 257.812 825
-242.188 70.3125 858
-218.75 62.5 849
-328.125 335.938 1722
289.062 -171.875 625
164.062 -117.188 638
406.25 460.938 552
-265.625 62.5 873
-226.562 265.625 1557
234.375 351.562 604
-148.438 -46.875 825
-54.6875 164.062 706
187.5 -171.875 629
-234.375 -23.4375 829
226.562 359.375 601
195.312 7.8125 698
-375 -46.875 1031
335.938 -85.9375 811
195.312 -101.562 635
-93.75 234.375 837
234.375 -156.25 619
-242.188 0 854
492.188 -289.062 738
-117.188 359.375 1458
-125 296.875 1041
7.8125 210.938 679
7.8125 437.5 1283
-203.125 -226.562 956
-226.562 -343.75 1302
234.375 -289.062 792
-70.3125 15.625 780
476.562 -39.0625 622
-7.8125 -39.0625 805
125 -171.875 640
265.625 -31.25 642
343.75 -132.812 839
195.312 320.312 619
-234.375 -171.875 906
328.125 460.938 585
289.062 382.812 588
460.938 -218.75 668
187.5 -179.688 632
164.062 -218.75 658
484.375 289.062 576
-117.188 -125 956
429.688 -93.75 725
-93.75 7.8125 787
46.875 -85.9375 829
-226.562 -46.875 831
70.3125 -351.562 1273
-78.125 7.8125 783
-429.688 -218.75 2659
-218.75 -335.938 1302
257.812 -164.062 622
351.562 -359.375 711
-460.938 281.25 1804
343.75 -125 835
125 31.25 755
476.562 -250 738
414.062 367.188 586
-31.25 351.562 783
54.6875 226.562 667
242.188 -328.125 773
-375 -234.375 1210
117.188 -23.4375 727
242.188 351.562 604
117.188 -15.625 733
-476.562 -156.25 1145
46.875 226.562 667
281.25 -23.4375 642
304.688 -242.188 744
-62.5 -187.5 901
484.375 250 597
-328.125 328.125 1739
429.688 -117.188 707
304.688 -164.062 622
375 437.5 563
-226.562 -187.5 923
460.938 -359.375 719
218.75 -164.062 623
210.938 -156.25 620
78.125 250 655
31.25 210.938 678
406.25 328.125 570
-195.312 234.375 864
-156.25 101.562 754
-195.312 -351.562 1322
-335.938 367.188 1688
281.25 -218.75 781
218.75 343.75 609
250 -171.875 625
-62.5 320.312 796
23.4375 210.938 676
-125 62.5 761
367.188 -281.25 713
234.375 70.3125 719
195.312 -203.125 646
320.312 -351.562 719
382.812 -406.25 697
132.812 -203.125 649
304.688 -273.438 734
-156.25 39.0625 833
-125 -398.438 1376
54.6875 437.5 744
406.25 320.312 575
-93.75 -78.125 819
492.188 -62.5 690
460.938 -226.562 668
-23.4375 179.688 694
-265.625 31.25 891
351.562 429.688 567
-468.75 367.188 1705
453.125 289.062 590
-23.4375 -390.625 1343
-7.8125 -250 954
-484.375 -179.688 2598
-281.25 132.812 908
218.75 62.5 727
304.688 414.062 577
437.5 359.375 561
-265.625 23.4375 891
437.5 -148.438 694
437.5 -78.125 694
328.125 406.25 578
320.312 -117.188 606
140.625 312.5 632
218.75 -117.188 614
117.188 -62.5 700
-257.812 0 858
484.375 -93.75 731
140.625 -320.312 1232
445.312 -62.5 638
-250 -132.812 862
257.812 -31.25 646
-328.125 156.25 1421
-484.375 -148.438 1141
-39.0625 289.062 807
109.375 265.625 647
398.438 343.75 571
367.188 359.375 593
-54.6875 156.25 708
-203.125 -46.875 827
492.188 -78.125 697
437.5 -140.625 696
375 -320.312 707
85.9375 -265.625 1181
-15.625 -125 975
453.125 -62.5 683
460.938 -210.938 670
398.438 335.938 570
195.312 328.125 615
-62.5 140.625 716
-15.625 -85.9375 978
-242.188 -85.9375 833
-101.562 117.188 730
-101.562 117.188 730
312.5 -171.875 620
187.5 -46.875 670
234.375 -101.562 618
-78.125 429.688 1398
15.625 -23.4375 794
-171.875 -195.312 1019
117.188 -54.6875 706
125 -195.312 646
492.188 -70.3125 696
7.8125 -125 1060
-15.625 179.688 694
-171.875 -46.875 825
-203.125 7.8125 845
7.8125 -437.5 3092
-218.75 -15.625 825
-85.9375 125 727
-179.688 -148.438 984
-328.125 343.75 1713
335.938 -78.125 805
335.938 -39.0625 780
437.5 -46.875 634
-265.625 54.6875 896
335.938 -296.875 719
164.062 -23.4375 698
-351.562 109.375 1328
492.188 -31.25 618
171.875 304.688 627
492.188 -31.25 618
-289.062 234.375 1594
-109.375 203.125 856
-62.5 7.8125 781
453.125 320.312 585
453.125 -15.625 630
39.0625 406.25 754
296.875 -421.875 744
132.812 335.938 667
-187.5 242.188 860
-132.812 93.75 746
242.188 -343.75 771
171.875 312.5 624
390.625 -320.312 707
-101.562 -78.125 819
-179.688 -164.062 992
-375 312.5 1766
-132.812 70.3125 759
-250 -320.312 1288
242.188 -39.0625 646
226.562 -31.25 661
468.75 -218.75 667
414.062 351.562 570
-289.062 -289.062 1264
328.125 414.062 575
-70.3125 -101.562 827
117.188 -31.25 723
-195.312 -265.625 984
62.5 242.188 661
-468.75 359.375 1713
70.3125 -414.062 2415
453.125 -132.812 680
-265.625 -101.562 841
289.062 390.625 586
-15.625 -218.75 925
-203.125 70.3125 843
140.625 -210.938 653
-445.312 -179.688 1161
265.625 375 594
257.812 -265.625 776
-351.562 328.125 1739
85.9375 250 655
210.938 -70.3125 644
7.8125 -117.188 1054
117.188 -7.8125 742
-265.625 -117.188 849
476.562 -164.062 679
-117.188 109.375 736
171.875 -109.375 642
296.875 390.625 585
-406.25 -281.25 2789
242.188 -179.688 628
328.125 -109.375 827
484.375 62.5 683
273.438 -359.375 747
460.938 -70.3125 680
-109.375 101.562 739
429.688 -132.812 697
-62.5 -406.25 1370
-429.688 -7.8125 1019
406.25 -320.312 706
132.812 46.875 747
-257.812 289.062 1748
-367.188 -445.312 3092
148.438 46.875 746
445.312 -296.875 713
-140.625 101.562 746
-250 195.312 1594
156.25 -187.5 638
343.75 -148.438 849
445.312 -148.438 680
-367.188 171.875 1947
-132.812 265.625 829
304.688 -132.812 606
429.688 398.438 573
-156.25 -195.312 1016
179.688 312.5 623
-164.062 320.312 1496
156.25 23.4375 736
-132.812 289.062 1016
265.625 -148.438 614
15.625 -375 1312
195.312 -164.062 624
-343.75 421.875 1639
-203.125 -218.75 962
453.125 -218.75 668
-93.75 -39.0625 869
-109.375 23.4375 778
-257.812 -85.9375 837
-171.875 -367.188 1343
-484.375 -367.188 2883
-234.375 -156.25 896
250 -343.75 764
257.812 -171.875 625
-492.188 -367.188 2659
-320.312 218.75 1863
-156.25 109.375 764
-265.625 39.0625 889
-187.5 -265.625 989
367.188 54.6875 728
-15.625 -273.438 964
148.438 31.25 749
70.3125 242.188 659
484.375 -78.125 674
398.438 359.375 590
7.8125 296.875 800
-328.125 -31.25 1022
46.875 218.75 671
375 445.312 561
-335.938 382.812 1680
398.438 -31.25 690
-132.812 -23.4375 823
429.688 -31.25 638
7.8125 -101.562 1038
296.875 15.625 663
484.375 -195.312 672
484.375 -187.5 679
367.188 -304.688 711
335.938 -132.812 839
-85.9375 328.125 811
0 195.312 687
-15.625 -31.25 802
148.438 -218.75 658
281.25 -109.375 600
-460.938 -15.625 1044
460.938 343.75 572
164.062 -15.625 704
85.9375 -414.062 2398
117.188 -70.3125 697
-78.125 125 725
-15.625 -210.938 925
265.625 -250 769
187.5 -171.875 629
-195.312 148.438 891
-453.125 -171.875 1157
273.438 7.8125 662
-54.6875 -101.562 825
242.188 -85.9375 623
-265.625 23.4375 891
-367.188 382.812 1680
-85.9375 -15.625 794
-195.312 -242.188 975
-304.688 -226.562 1193
-70.3125 421.875 1392
-7.8125 187.5 688
234.375 -62.5 638
343.75 -414.062 711
-179.688 -46.875 825
-70.3125 15.625 780
-148.438 -226.562 1013
281.25 382.812 589
265.625 -242.188 776
-109.375 281.25 819
-85.9375 140.625 719
351.562 421.875 570
-226.562 0 851
460.938 -234.375 667
-468.75 382.812 1680
343.75 -234.375 733
-226.562 -7.8125 860
-234.375 -7.8125 858
320.312 15.625 752
-273.438 -78.125 841
-218.75 23.4375 841
117.188 15.625 757
320.312 -335.938 719
-93.75 -54.6875 873
476.562 -39.0625 622
351.562 -406.25 710
367.188 437.5 564
0 312.5 792
429.688 -125 704
117.188 -203.125 650
187.5 -125 628
-218.75 -203.125 938
382.812 367.188 588
-78.125 23.4375 778
484.375 -140.625 698
375 -335.938 707
218.75 335.938 611
390.625 453.125 555
-78.125 -140.625 841
-31.25 164.062 704
-226.562 -414.062 3120
281.25 -7.8125 650
-23.4375 171.875 698
-23.4375 -179.688 903
242.188 -125 608
398.438 39.0625 670
234.375 351.562 604
484.375 -203.125 661
265.625 -39.0625 637
117.188 -46.875 710
484.375 -132.812 701
304.688 390.625 585
-109.375 109.375 734
7.8125 -132.812 1063
7.8125 -109.375 1047
-70.3125 132.812 720
-101.562 109.375 733
-273.438 62.5 903
406.25 460.938 552
-234.375 257.812 1564
-7.8125 -265.625 962
226.562 343.75 609
210.938 -117.188 621
273.438 -351.562 744
164.062 -31.25 694
-250 -164.062 885
-54.6875 343.75 798
281.25 46.875 688
132.812 31.25 754
132.812 -140.625 647
78.125 242.188 659
-7.8125 -242.188 946
46.875 226.562 667
-250 -140.625 871
-390.625 -218.75 1193
117.188 -109.375 674
7.8125 382.812 764
382.812 -304.688 707
-85.9375 31.25 774
85.9375 -437.5 2349
437.5 -78.125 694
-70.3125 -54.6875 896
281.25 -23.4375 642
-109.375 -62.5 833
187.5 320.312 620
484.375 281.25 578
109.375 289.062 642
242.188 359.375 601
226.562 -62.5 643
203.125 -234.375 925
210.938 328.125 614
445.312 -140.625 680
242.188 -351.562 771
-39.0625 -398.438 1338
-265.625 187.5 1564
429.688 -93.75 725
-78.125 132.812 722
320.312 -359.375 722
328.125 -359.375 719
-203.125 0 849
-242.188 -375 3010
140.625 289.062 635
70.3125 375 759
-312.5 195.312 1509
-156.25 195.312 864
187.5 46.875 733
289.062 -187.5 632
132.812 -203.125 649
187.5 453.125 716
-242.188 -320.312 1288
-312.5 -203.125 1169
-210.938 -203.125 943
7.8125 195.312 687
257.812 85.9375 719
117.188 -85.9375 687
39.0625 -78.125 825
-367.188 281.25 1794
-242.188 7.8125 851
304.688 -281.25 733
-242.188 0 854
-54.6875 148.438 713
265.625 -320.312 750
312.5 -187.5 792
382.812 375 586
-187.5 -273.438 989
117.188 -62.5 700
-140.625 78.125 754
-226.562 -398.438 3064
-359.375 54.6875 962
-46.875 -70.3125 1019
304.688 398.438 582
-109.375 -46.875 827
335.938 15.625 750
117.188 -140.625 655
125 273.438 644
78.125 257.812 654
-54.6875 -62.5 896
421.875 421.875 565
62.5 -375 2503
117.188 -93.75 684
-343.75 -281.25 2744
-328.125 335.938 1722
242.188 -273.438 781
-265.625 195.312 1572
210.938 335.938 611
367.188 429.688 565
-148.438 -39.0625 821
-39.0625 -125 835
-210.938 -226.562 954
140.625 70.3125 734
-85.9375 -117.188 841
-179.688 304.688 1509
-23.4375 -171.875 1016
468.75 312.5 578
257.812 367.188 597
-226.562 179.688 878
109.375 265.625 647
234.375 343.75 609
-109.375 -31.25 825
484.375 328.125 574
296.875 70.3125 727
-453.125 -390.625 2958
31.25 -70.3125 821
117.188 -132.812 659
54.6875 226.562 667
492.188 -210.938 661
148.438 289.062 634
273.438 -39.0625 634
164.062 304.688 627
265.625 -164.062 621
-101.562 234.375 837
-351.562 -265.625 1223
320.312 -85.9375 811
70.3125 -117.188 845
-250 54.6875 867
328.125 -23.4375 771
-7.8125 -156.25 1028
257.812 -257.812 776
445.312 -234.375 671
296.875 -343.75 731
484.375 -320.312 730
-78.125 -46.875 873
-62.5 -148.438 851
-265.625 -109.375 845
242.188 -312.5 771
-125 101.562 741
390.625 437.5 562
195.312 -125 624
7.8125 -85.9375 829
265.625 -390.625 766
-234.375 78.125 860
117.188 -125 663
273.438 -304.688 746
289.062 85.9375 719
320.312 -320.312 719
-414.062 23.4375 987
-7.8125 179.688 693
-171.875 226.562 849
343.75 -125 835
429.688 375 563
-226.562 -179.688 915
-78.125 -414.062 1387
-320.312 296.875 1766
265.625 367.188 596
156.25 296.875 631
171.875 -117.188 638
210.938 -429.688 2908
-328.125 210.938 1873
460.938 -171.875 675
179.688 15.625 717
-343.75 187.5 1915
-226.562 7.8125 847
296.875 -179.688 627
289.062 382.812 588
-140.625 7.8125 841
328.125 406.25 578
-39.0625 164.062 706
-93.75 117.188 730
445.312 -70.3125 688
382.812 -273.438 713
-242.188 -359.375 2984
484.375 -218.75 661
-125 62.5 761
-62.5 -15.625 794
7.8125 -93.75 1034
320.312 -70.3125 798
351.562 -289.062 714
273.438 375 593
429.688 460.938 548
-421.875 7.8125 1007
-39.0625 -187.5 903
273.438 -234.375 774
7.8125 -125 1060
39.0625 398.438 754
-242.188 46.875 849
453.125 -125 682
-132.812 70.3125 759
164.062 328.125 623
445.312 -218.75 672
7.8125 -117.188 1054
460.938 -78.125 683
242.188 -335.938 773
-93.75 125 727
-23.4375 -23.4375 798
484.375 -210.938 659
15.625 203.125 682
367.188 -218.75 738
226.562 15.625 688
312.5 398.438 581
-203.125 226.562 875
328.125 -46.875 785
93.75 257.812 652
117.188 -117.188 670
296.875 7.8125 659
312.5 -78.125 803
0 -140.625 978
375 -281.25 713
218.75 -109.375 619
-101.562 203.125 817
257.812 359.375 600
484.375 -226.562 661
468.75 359.375 552
117.188 -54.6875 706
460.938 -164.062 678
492.188 -78.125 697
132.812 23.4375 755
218.75 -156.25 619
15.625 -85.9375 831
-125 -85.9375 819
-320.312 273.438 1794
421.875 -78.125 652
296.875 -187.5 792
117.188 -101.562 679
23.4375 203.125 682
-15.625 171.875 698
-312.5 242.188 1843
375 453.125 556
382.812 460.938 554
-468.75 390.625 1671
117.188 -39.0625 720
296.875 -429.688 755
85.9375 375 759
476.562 -265.625 731
-460.938 -23.4375 1044
171.875 46.875 742
7.8125 -101.562 1038
-304.688 109.375 928
460.938 -187.5 674
-460.938 289.062 1794
-218.75 85.9375 856
492.188 242.188 594
-359.375 -242.188 1214
484.375 -156.25 691
242.188 351.562 604
437.5 31.25 644
-265.625 46.875 889
-210.938 218.75 873
-78.125 23.4375 778
171.875 304.688 627
125 460.938 717
-265.625 23.4375 891
132.812 -195.312 644
328.125 -101.562 821
-93.75 -31.25 862
250 -218.75 908
289.062 54.6875 691
-85.9375 132.812 722
-273.438 234.375 1594
484.375 351.562 570
492.188 -218.75 661
429.688 382.812 562
281.25 -296.875 744
242.188 -93.75 618
164.062 296.875 630
140.625 -210.938 653
218.75 -164.062 623
203.125 328.125 615
343.75 421.875 570
226.562 -39.0625 655
117.188 -109.375 674
335.938 414.062 574
-265.625 140.625 903
148.438 -195.312 646
320.312 398.438 581
-351.562 117.188 1354
226.562 -109.375 614
-218.75 -335.938 1302
-320.312 304.688 1757
265.625 46.875 690
304.688 -171.875 628
140.625 281.25 638
-257.812 70.3125 867
-421.875 15.625 1007
-296.875 117.188 925
-148.438 140.625 787
-203.125 -476.562 3269
-148.438 117.188 764
140.625 -320.312 1232
250 -85.9375 619
492.188 -203.125 666
367.188 -257.812 720
-335.938 -304.688 2812
-367.188 -234.375 1210
-46.875 148.438 711
187.5 312.5 623
-171.875 312.5 1509
312.5 -39.0625 785
-164.062 234.375 845
312.5 0 762
78.125 242.188 659
460.938 -93.75 683
-125 125 736
117.188 -132.812 659
-335.938 -257.812 1227
-226.562 -335.938 1302
335.938 -70.3125 800
-328.125 234.375 1833
398.438 -312.5 707
-117.188 101.562 739
85.9375 359.375 766
-328.125 343.75 1713
476.562 242.188 602
-218.75 -7.8125 885
320.312 31.25 744
-195.312 -351.562 1322
312.5 -335.938 723
-15.625 -203.125 1134
484.375 -195.312 672
117.188 -140.625 655
-273.438 31.25 896
-140.625 281.25 998
-15.625 -148.438 978
195.312 320.312 619
-195.312 -62.5 835
-226.562 -54.6875 833
46.875 218.75 671
406.25 -304.688 707
62.5 359.375 767
304.688 -429.688 752
117.188 -148.438 650
117.188 390.625 749
15.625 195.312 686
-15.625 -210.938 925
-203.125 195.312 867
250 31.25 688
117.188 -125 663
-468.75 375 1696
-70.3125 15.625 780
343.75 -140.625 845
140.625 -101.562 663
0 -62.5 819
-31.25 179.688 696
-312.5 -273.438 1245
343.75 -117.188 827
468.75 390.625 550
148.438 -218.75 658
289.062 -179.688 632
-15.625 179.688 694
476.562 234.375 602
-31.25 398.438 1259
7.8125 -132.812 1063
281.25 375 593
0 187.5 688
-421.875 -195.312 1177
70.3125 -351.562 1273
-31.25 210.938 717
-257.812 15.625 858
-421.875 382.812 1680
-23.4375 -234.375 938
492.188 250 592
421.875 351.562 570
328.125 -15.625 769
164.062 304.688 627
406.25 -312.5 707
265.625 -156.25 616
7.8125 -109.375 1047
-484.375 -148.438 1141
195.312 -171.875 628
382.812 -281.25 713
273.438 367.188 595
-132.812 -390.625 1370
-203.125 -242.188 967
-93.75 39.0625 769
-351.562 132.812 1376
281.25 -289.062 744
460.938 -171.875 675
-85.9375 -7.8125 789
117.188 -156.25 644
476.562 -281.25 728
250 382.812 594
-117.188 -250 1001
-31.25 421.875 1312
148.438 -164.062 632
-179.688 218.75 856
437.5 -31.25 634
-23.4375 -242.188 940
265.625 -117.188 603
-296.875 218.75 1557
445.312 -70.3125 688
187.5 0 700
-78.125 -62.5 896
312.5 -85.9375 802
-406.25 -210.938 1189
-335.938 390.625 1671
242.188 -289.062 771
234.375 -109.375 614
117.188 -93.75 684
273.438 78.125 720
-406.25 39.0625 984
320.312 -140.625 614
0 -101.562 975
-31.25 -210.938 923
460.938 -195.312 672
-242.188 62.5 860
203.125 54.6875 731
70.3125 429.688 739
296.875 -101.562 599
281.25 62.5 730
343.75 414.062 572
117.188 -117.188 670
-125 93.75 744
429.688 -109.375 713
-234.375 296.875 1536
101.562 257.812 652
289.062 62.5 731
375 437.5 563
453.125 -117.188 683
23.4375 -78.125 825
320.312 -78.125 805
218.75 -117.188 614
343.75 -109.375 823
296.875 -437.5 757
-93.75 398.438 1415
-328.125 257.812 1823
-320.312 -70.3125 1050
-101.562 117.188 730
-218.75 -203.125 938
23.4375 390.625 759
-46.875 359.375 790
492.188 -210.938 661
406.25 335.938 569
-148.438 -31.25 819
492.188 -281.25 738
109.375 421.875 734
-359.375 156.25 1947
203.125 -70.3125 650
-101.562 140.625 727
335.938 -62.5 794
-23.4375 -109.375 973
-15.625 -54.6875 813
234.375 -101.562 618
328.125 -117.188 831
242.188 -101.562 613
15.625 -375 1312
85.9375 -343.75 1268
117.188 -85.9375 687
257.812 -343.75 755
-132.812 93.75 746
335.938 -125 835
-484.375 -70.3125 1073
-226.562 -70.3125 831
-414.062 -414.062 2984
437.5 -85.9375 696
210.938 328.125 614
-234.375 179.688 882
195.312 -7.8125 691
-54.6875 -117.188 831
-210.938 93.75 856
343.75 -156.25 856
-265.625 234.375 1594
-7.8125 -148.438 978
-226.562 -164.062 915
-156.25 328.125 1483
-406.25 289.062 1785
406.25 453.125 554
-39.0625 -109.375 973
39.0625 210.938 676
140.625 421.875 733
242.188 406.25 619
-234.375 70.3125 860
-335.938 382.812 1680
367.188 -179.688 776
351.562 437.5 565
367.188 -234.375 728
429.688 -117.188 707
-242.188 -140.625 873
437.5 -132.812 700
-226.562 -179.688 915
-257.812 -109.375 845
281.25 -195.312 794
-414.062 -296.875 2859
-39.0625 -179.688 896
273.438 -398.438 762
-257.812 281.25 1713
-70.3125 -85.9375 823
-406.25 -429.688 3037
-54.6875 -70.3125 913
296.875 390.625 585
-93.75 320.312 811
-70.3125 140.625 717
-93.75 7.8125 787
429.688 -101.562 720
484.375 -242.188 757
-453.125 -250 2723
250 -54.6875 637
-328.125 351.562 1713
-39.0625 156.25 707
-242.188 -156.25 887
234.375 351.562 604
-492.188 -140.625 1138
7.8125 -125 1060
351.562 23.4375 746
-328.125 148.438 1410
-101.562 156.25 747
-234.375 78.125 860
-54.6875 -109.375 825
484.375 -54.6875 674
-85.9375 117.188 728
421.875 -109.375 707
-70.3125 312.5 800
281.25 -359.375 741
296.875 406.25 580
117.188 -148.438 650
-218.75 -78.125 825
-23.4375 -250 951
148.438 289.062 634
492.188 62.5 683
-148.438 351.562 1464
429.688 -164.062 696
460.938 -187.5 674
351.562 421.875 570
468.75 -46.875 675
70.3125 265.625 658
-93.75 289.062 811
281.25 421.875 591
23.4375 328.125 783
-406.25 226.562 1873
-351.562 62.5 956
-421.875 398.438 1671
234.375 343.75 609
304.688 390.625 585
484.375 -101.562 717
-203.125 203.125 864
-203.125 -468.75 3238
