ply
format ascii 1.0
comment Created by Open3D
element vertex 2391
property double x
property double y
property double z
end_header
398.438 -117.188 815
328.125 132.812 867
-460.938 -117.188 885
429.688 -179.688 867
-70.3125 -187.5 722
-406.25 -281.25 744
-351.562 -210.938 710
54.6875 132.812 694
-39.0625 -171.875 722
-156.25 -218.75 755
-125 -273.438 796
-242.188 -429.688 837
257.812 -460.938 2560
-54.6875 -312.5 785
-54.6875 -296.875 790
-164.062 179.688 682
-406.25 -148.438 792
-23.4375 164.062 684
-273.438 -210.938 716
-23.4375 -171.875 723
-250 -250 717
-70.3125 -429.688 835
-46.875 -218.75 837
289.062 195.312 835
-125 -250 798
-257.812 -140.625 759
-484.375 -179.688 923
-414.062 125 734
-484.375 85.9375 781
15.625 164.062 657
-101.562 78.125 703
-242.188 -218.75 739
-390.625 132.812 723
328.125 117.188 875
-226.562 -453.125 835
-164.062 -382.812 811
23.4375 390.625 584
171.875 367.188 750
-226.562 -164.062 774
-359.375 -273.438 725
273.438 234.375 813
-468.75 289.062 1766
-148.438 -226.562 787
351.562 85.9375 891
-328.125 -367.188 1387
-70.3125 148.438 671
343.75 85.9375 894
-484.375 -351.562 1410
-226.562 -367.188 827
242.188 257.812 802
-23.4375 78.125 666
-39.0625 -234.375 829
-46.875 -242.188 827
148.438 437.5 720
-78.125 78.125 683
15.625 187.5 670
-453.125 93.75 752
367.188 -359.375 2579
-15.625 -343.75 896
414.062 -31.25 962
-187.5 -343.75 825
7.8125 -203.125 734
421.875 -164.062 851
-93.75 -390.625 825
-406.25 125 727
-234.375 -62.5 811
-179.688 -109.375 851
-109.375 234.375 655
-210.938 -109.375 811
-109.375 -359.375 825
445.312 156.25 841
-234.375 -445.312 837
-54.6875 109.375 671
-390.625 -132.812 800
-46.875 -320.312 894
7.8125 62.5 666
429.688 -156.25 889
-250 -335.938 860
0 -179.688 730
-492.188 -343.75 1404
-54.6875 -156.25 725
-328.125 -257.812 710
46.875 421.875 592
-101.562 -265.625 785
-109.375 218.75 663
-70.3125 101.562 671
-70.3125 62.5 700
-78.125 179.688 679
-343.75 -148.438 755
312.5 46.875 725
-296.875 -148.438 733
-257.812 -390.625 847
226.562 312.5 776
-62.5 -164.062 720
-335.938 -265.625 716
117.188 453.125 714
23.4375 -195.312 736
320.312 93.75 845
-382.812 -257.812 720
-85.9375 164.062 667
-39.0625 -304.688 805
164.062 414.062 731
-453.125 -109.375 887
-70.3125 -195.312 774
296.875 93.75 704
273.438 117.188 693
320.312 148.438 856
-15.625 -335.938 1031
-406.25 -171.875 773
-125 -390.625 817
-109.375 132.812 682
46.875 406.25 579
-23.4375 367.188 597
-78.125 -312.5 785
-445.312 109.375 749
140.625 -304.688 987
-234.375 -31.25 805
-140.625 -210.938 739
125 437.5 720
414.062 -148.438 843
-15.625 -171.875 727
-39.0625 -187.5 723
-484.375 -398.438 3149
156.25 414.062 730
-476.562 -101.562 875
203.125 -281.25 956
406.25 -218.75 889
-218.75 -54.6875 819
234.375 171.875 667
31.25 -140.625 851
-148.438 -156.25 741
-179.688 -265.625 882
281.25 148.438 780
171.875 382.812 744
-445.312 265.625 1564
281.25 210.938 827
273.438 210.938 827
-328.125 -140.625 757
210.938 320.312 774
-62.5 -343.75 771
-476.562 -140.625 898
437.5 -195.312 875
203.125 351.562 759
406.25 -15.625 954
312.5 164.062 849
-109.375 -265.625 785
-132.812 -187.5 731
-343.75 171.875 703
-15.625 140.625 667
351.562 78.125 898
265.625 148.438 680
210.938 335.938 766
312.5 109.375 821
46.875 62.5 728
265.625 -398.438 2639
-343.75 -375 1387
-125 304.688 628
-101.562 -257.812 785
-70.3125 -203.125 774
-85.9375 -320.312 781
-70.3125 -210.938 780
-7.8125 375 592
-54.6875 -171.875 720
-382.812 -15.625 807
39.0625 -226.562 749
359.375 70.3125 901
437.5 -23.4375 954
437.5 -171.875 882
-328.125 -109.375 785
-54.6875 -164.062 720
-54.6875 -343.75 860
-23.4375 -476.562 3010
390.625 289.062 776
-15.625 -164.062 730
-179.688 -398.438 811
335.938 -46.875 771
273.438 132.812 683
-304.688 -70.3125 809
-109.375 93.75 683
-296.875 -226.562 694
-429.688 -234.375 733
-460.938 101.562 776
218.75 328.125 769
382.812 -218.75 891
203.125 320.312 773
335.938 117.188 873
-23.4375 -343.75 896
289.062 140.625 785
-265.625 -171.875 739
132.812 429.688 723
-257.812 -78.125 781
-148.438 -382.812 815
-31.25 117.188 676
-421.875 -140.625 906
-351.562 -375 1387
-492.188 -437.5 2958
382.812 -85.9375 800
-257.812 -367.188 851
-70.3125 -445.312 837
-46.875 -250 825
242.188 -273.438 946
-187.5 -250 970
0 -62.5 803
179.688 367.188 752
-476.562 70.3125 766
296.875 125 792
-281.25 -187.5 716
-234.375 -406.25 829
-250 -250 717
-54.6875 -304.688 789
-335.938 171.875 700
257.812 234.375 813
-7.8125 -351.562 903
85.9375 468.75 643
46.875 -453.125 2933
-406.25 -156.25 785
125 -312.5 992
-257.812 -375 849
320.312 -250 920
-39.0625 -312.5 896
375 -226.562 898
421.875 -140.625 837
-460.938 -101.562 882
-234.375 -187.5 762
-296.875 -218.75 694
398.438 -93.75 805
-492.188 54.6875 778
-242.188 -429.688 837
226.562 -273.438 943
46.875 46.875 736
31.25 -93.75 815
-421.875 -218.75 741
-421.875 257.812 849
320.312 382.812 736
-468.75 -140.625 962
289.062 109.375 696
-117.188 304.688 625
15.625 -390.625 3037
-101.562 -273.438 783
-179.688 -390.625 813
-250 -414.062 839
296.875 78.125 707
-54.6875 -335.938 771
414.062 -46.875 925
-234.375 -195.312 759
-46.875 -234.375 829
62.5 406.25 576
-140.625 -195.312 733
-54.6875 93.75 676
265.625 132.812 683
156.25 429.688 723
-187.5 -257.812 975
-39.0625 351.562 602
-359.375 -62.5 841
406.25 132.812 858
-85.9375 -273.438 789
-359.375 -265.625 720
312.5 156.25 856
312.5 132.812 869
70.3125 429.688 590
-31.25 93.75 680
-281.25 -78.125 785
-203.125 -70.3125 827
-125 171.875 649
-406.25 -148.438 792
343.75 109.375 880
7.8125 382.812 589
-54.6875 140.625 670
-359.375 -132.812 781
289.062 93.75 704
406.25 -132.812 831
-164.062 -281.25 871
375 -203.125 880
-375 -164.062 761
39.0625 -218.75 749
-78.125 -148.438 728
492.188 -320.312 2349
-15.625 -335.938 1031
101.562 -320.312 1004
250 250 805
-367.188 -78.125 841
390.625 -101.562 807
-15.625 93.75 671
320.312 375 738
250 273.438 794
140.625 453.125 713
429.688 375 731
320.312 -328.125 2701
-484.375 -148.438 901
-39.0625 -289.062 803
-484.375 70.3125 769
421.875 -31.25 962
-437.5 289.062 1536
-78.125 62.5 700
39.0625 109.375 688
304.688 62.5 717
390.625 -78.125 800
-62.5 351.562 610
250 148.438 675
-210.938 -62.5 823
-390.625 -210.938 727
-226.562 -343.75 833
367.188 0 871
273.438 234.375 813
-382.812 -117.188 813
468.75 -328.125 2485
-445.312 -132.812 896
-265.625 -203.125 728
15.625 460.938 717
-7.8125 367.188 593
156.25 406.25 734
-484.375 62.5 773
-85.9375 195.312 672
132.812 421.875 728
-460.938 -156.25 978
367.188 62.5 906
375 125 867
-164.062 -406.25 811
-62.5 101.562 671
-46.875 -179.688 720
328.125 78.125 841
23.4375 109.375 688
-78.125 -164.062 722
437.5 -164.062 882
23.4375 78.125 671
367.188 125 867
320.312 132.812 869
-23.4375 -476.562 3010
-273.438 -156.25 734
-492.188 195.312 882
-367.188 148.438 714
304.688 109.375 805
-101.562 132.812 678
-375 -257.812 719
-242.188 -359.375 839
304.688 125 829
-70.3125 -156.25 725
-242.188 -320.312 860
-46.875 -164.062 720
-39.0625 -429.688 860
-54.6875 -367.188 849
-398.438 -156.25 781
-437.5 242.188 847
320.312 148.438 856
-242.188 -375 835
-62.5 -218.75 833
-414.062 -140.625 802
312.5 54.6875 719
-46.875 -359.375 854
273.438 -257.812 928
-70.3125 -312.5 785
-265.625 -218.75 723
-257.812 -210.938 731
-156.25 -382.812 813
-476.562 -171.875 918
-414.062 265.625 849
312.5 148.438 858
-132.812 -218.75 803
-39.0625 -375 860
-398.438 -468.75 3539
414.062 -125 869
31.25 93.75 691
-476.562 -359.375 1421
-226.562 -453.125 835
-226.562 -304.688 864
-250 -414.062 839
-281.25 -62.5 800
187.5 343.75 762
-320.312 -367.188 1370
78.125 414.062 578
-125 -367.188 821
-117.188 -257.812 798
-234.375 -445.312 837
218.75 312.5 776
-429.688 -78.125 862
250 -398.438 2723
-156.25 156.25 662
453.125 421.875 706
359.375 78.125 896
-453.125 -398.438 3238
-242.188 -343.75 845
-484.375 265.625 1572
-468.75 164.062 891
398.438 -132.812 825
0 78.125 663
257.812 257.812 802
-148.438 -343.75 825
179.688 390.625 741
-101.562 -281.25 783
-234.375 -46.875 815
148.438 406.25 734
218.75 328.125 769
421.875 -132.812 880
421.875 -343.75 2522
-148.438 -398.438 813
390.625 -390.625 2503
-54.6875 -164.062 720
265.625 140.625 680
-367.188 -398.438 3208
-117.188 -250 800
-31.25 -171.875 723
242.188 289.062 787
-242.188 -226.562 734
-140.625 171.875 666
304.688 78.125 707
-304.688 -85.9375 792
-445.312 -414.062 3300
390.625 15.625 930
-101.562 195.312 646
54.6875 70.3125 723
343.75 93.75 889
-437.5 -179.688 1013
-445.312 93.75 749
226.562 117.188 690
-70.3125 -164.062 720
406.25 312.5 762
-437.5 273.438 1557
-78.125 -140.625 752
281.25 125 783
328.125 132.812 867
54.6875 46.875 736
-78.125 187.5 676
15.625 -187.5 736
296.875 195.312 837
-421.875 -218.75 741
-242.188 -218.75 739
-31.25 -429.688 869
-343.75 257.812 831
-460.938 -367.188 1433
375 46.875 913
289.062 187.5 839
195.312 367.188 752
-93.75 -414.062 823
-273.438 -195.312 719
281.25 109.375 696
312.5 164.062 849
-328.125 -218.75 697
-101.562 -132.812 725
-140.625 -203.125 739
-203.125 -85.9375 837
62.5 414.062 576
-328.125 -265.625 713
265.625 226.562 819
-101.562 -281.25 783
-250 -257.812 716
-101.562 156.25 667
-23.4375 -320.312 1016
351.562 101.562 882
171.875 367.188 750
-70.3125 117.188 668
242.188 273.438 796
7.8125 -437.5 3120
414.062 -343.75 2541
-343.75 -203.125 710
-250 -406.25 839
460.938 -328.125 2485
-289.062 -226.562 700
265.625 250 805
421.875 -39.0625 967
-15.625 -171.875 727
-406.25 -281.25 744
-46.875 -304.688 803
359.375 -226.562 898
-453.125 -218.75 984
398.438 54.6875 908
421.875 -210.938 880
210.938 312.5 774
-7.8125 140.625 662
-46.875 -281.25 805
-31.25 -437.5 869
-15.625 132.812 671
-500 187.5 891
382.812 -226.562 896
-414.062 -273.438 739
-54.6875 -414.062 845
-218.75 -140.625 792
-250 -218.75 736
-46.875 132.812 671
320.312 85.9375 809
-234.375 -335.938 847
132.812 445.312 716
445.312 -335.938 2503
445.312 398.438 719
429.688 -148.438 894
-93.75 328.125 616
-140.625 148.438 664
445.312 -179.688 873
304.688 179.688 843
-421.875 117.188 736
265.625 148.438 680
312.5 101.562 805
429.688 -54.6875 978
437.5 -70.3125 987
-46.875 -445.312 858
-367.188 -382.812 1404
7.8125 117.188 676
-78.125 -453.125 835
-70.3125 -226.562 827
-70.3125 -437.5 837
-140.625 -234.375 790
-164.062 -453.125 815
398.438 -117.188 815
-445.312 0 803
-281.25 -218.75 707
-335.938 -195.312 711
-359.375 -46.875 831
-421.875 -195.312 762
23.4375 -257.812 771
382.812 31.25 923
414.062 -140.625 837
171.875 406.25 734
343.75 109.375 880
-125 -257.812 798
-234.375 -195.312 759
203.125 335.938 767
335.938 109.375 882
281.25 156.25 789
335.938 125 871
312.5 320.312 767
367.188 62.5 906
414.062 -117.188 875
-328.125 -250 704
304.688 85.9375 706
-414.062 -140.625 802
7.8125 390.625 589
23.4375 70.3125 693
46.875 -250 766
-390.625 -390.625 1433
304.688 70.3125 714
-85.9375 210.938 666
85.9375 132.812 691
-312.5 -85.9375 796
328.125 140.625 862
125 445.312 716
-437.5 101.562 744
-476.562 210.938 878
-398.438 -156.25 781
-132.812 -250 794
23.4375 164.062 682
-46.875 101.562 675
-343.75 -70.3125 833
-46.875 -242.188 827
273.438 226.562 817
-70.3125 187.5 676
-226.562 -171.875 766
62.5 46.875 736
359.375 78.125 896
179.688 359.375 755
-101.562 -351.562 778
-39.0625 375 614
328.125 -296.875 2659
320.312 101.562 843
-85.9375 -304.688 787
281.25 226.562 815
-226.562 -406.25 825
-46.875 -265.625 813
-210.938 -117.188 807
-78.125 -304.688 790
31.25 -226.562 747
-242.188 -406.25 833
31.25 -117.188 837
-54.6875 -328.125 771
234.375 289.062 787
-382.812 -203.125 728
-148.438 -406.25 811
31.25 125 688
296.875 -257.812 928
-429.688 -390.625 1464
-414.062 -406.25 3269
289.062 203.125 831
-476.562 -85.9375 873
257.812 265.625 798
390.625 -93.75 805
375 265.625 789
-7.8125 164.062 659
-109.375 -257.812 789
-195.312 -289.062 867
406.25 -125 860
-46.875 -289.062 803
-46.875 -273.438 807
210.938 -289.062 962
250 -265.625 938
-398.438 132.812 725
46.875 398.438 579
-273.438 -203.125 716
187.5 359.375 755
-31.25 359.375 601
437.5 -78.125 995
-382.812 -218.75 719
398.438 -109.375 815
-101.562 226.562 658
-140.625 -109.375 747
-460.938 218.75 864
445.312 -78.125 995
-117.188 148.438 679
-46.875 -164.062 720
-62.5 187.5 676
250 250 805
-93.75 -281.25 783
343.75 117.188 873
-414.062 -203.125 749
195.312 -179.688 867
421.875 -156.25 851
-179.688 -445.312 811
273.438 140.625 776
31.25 148.438 688
-132.812 -343.75 774
281.25 203.125 831
-46.875 -296.875 803
7.8125 -179.688 733
-7.8125 46.875 666
-406.25 -179.688 766
85.9375 414.062 578
-54.6875 187.5 676
164.062 398.438 739
23.4375 171.875 678
54.6875 398.438 578
-7.8125 125 672
-54.6875 179.688 680
7.8125 171.875 658
429.688 -171.875 867
-421.875 -132.812 903
54.6875 62.5 728
39.0625 -234.375 755
46.875 70.3125 727
-492.188 187.5 882
164.062 382.812 744
-101.562 -328.125 773
-390.625 -140.625 792
140.625 453.125 713
-39.0625 -156.25 728
-250 -257.812 716
-242.188 -226.562 734
437.5 -187.5 873
-234.375 -203.125 750
-7.8125 -171.875 730
-62.5 -367.188 843
-500 -78.125 882
-31.25 -195.312 723
-304.688 -218.75 693
-484.375 -375 3120
273.438 -390.625 2659
359.375 70.3125 901
-257.812 -164.062 749
-23.4375 164.062 684
218.75 -281.25 956
-460.938 -390.625 3208
-257.812 -234.375 727
-203.125 -312.5 843
-39.0625 -210.938 802
-7.8125 156.25 659
-85.9375 109.375 671
-62.5 -382.812 839
-234.375 -31.25 805
-39.0625 -257.812 819
-476.562 -125 964
78.125 54.6875 730
-46.875 -281.25 805
234.375 304.688 781
-242.188 -234.375 734
-62.5 179.688 679
54.6875 -375 2958
273.438 125 687
-453.125 -375 1439
453.125 0 938
-320.312 -257.812 707
78.125 140.625 687
-421.875 -226.562 736
-343.75 -156.25 750
328.125 140.625 862
-39.0625 -164.062 722
7.8125 125 671
23.4375 -78.125 809
-218.75 -296.875 869
429.688 -109.375 920
210.938 343.75 761
-125 -257.812 798
-367.188 -179.688 744
-375 -265.625 722
23.4375 -250 766
296.875 101.562 800
-78.125 -429.688 831
289.062 117.188 789
-78.125 -351.562 764
328.125 46.875 802
-250 -54.6875 800
-437.5 -429.688 3333
351.562 85.9375 891
-125 -234.375 803
296.875 -250 918
-445.312 234.375 851
-312.5 -101.562 781
-367.188 -250 713
-484.375 -351.562 1410
-250 -226.562 734
421.875 -46.875 973
-453.125 101.562 752
-203.125 -78.125 833
414.062 -23.4375 959
-125 -242.188 802
187.5 382.812 746
-109.375 101.562 680
-476.562 -390.625 3178
-343.75 164.062 703
-85.9375 -242.188 789
-382.812 140.625 720
-70.3125 78.125 684
-265.625 -179.688 736
312.5 117.188 835
-468.75 -93.75 875
320.312 156.25 854
156.25 429.688 723
242.188 265.625 798
31.25 132.812 697
-414.062 -140.625 802
-343.75 -375 1387
-39.0625 -218.75 839
-250 -406.25 839
-296.875 -218.75 694
-78.125 -320.312 780
265.625 -234.375 908
-312.5 -218.75 693
-39.0625 -328.125 880
39.0625 -210.938 749
-54.6875 62.5 698
-367.188 250 835
-234.375 -382.812 827
-335.938 -187.5 719
109.375 -320.312 1004
-429.688 -437.5 3433
-500 218.75 1579
-281.25 -234.375 704
-289.062 -125 750
-359.375 -179.688 741
-70.3125 171.875 683
-257.812 -187.5 741
-7.8125 -343.75 1041
-484.375 203.125 880
335.938 125 871
-15.625 171.875 682
-437.5 -382.812 1458
39.0625 -156.25 862
312.5 171.875 845
-429.688 -125 894
468.75 -125 2198
-101.562 -289.062 781
335.938 31.25 815
-218.75 -148.438 783
-23.4375 382.812 606
-70.3125 -250 815
281.25 218.75 821
-85.9375 -289.062 787
46.875 117.188 684
-85.9375 -421.875 827
492.188 -382.812 2241
-31.25 -304.688 807
-234.375 -437.5 835
351.562 93.75 889
242.188 164.062 672
296.875 85.9375 706
-156.25 -398.438 811
7.8125 132.812 667
304.688 164.062 851
296.875 195.312 837
-85.9375 85.9375 682
-46.875 -250 825
-484.375 -421.875 3120
-85.9375 -226.562 787
-15.625 -328.125 1025
-460.938 -109.375 885
-23.4375 78.125 666
-234.375 -46.875 815
-93.75 226.562 659
328.125 23.4375 742
-101.562 171.875 649
-31.25 179.688 678
-125 -179.688 728
273.438 -257.812 928
-476.562 -85.9375 873
-351.562 -70.3125 839
-156.25 -351.562 823
257.812 265.625 798
445.312 -164.062 2317
226.562 320.312 773
-39.0625 -242.188 827
281.25 226.562 815
-101.562 -242.188 787
-414.062 117.188 734
218.75 296.875 783
-62.5 -179.688 720
-429.688 -218.75 744
-359.375 -70.3125 843
15.625 195.312 667
-273.438 -195.312 719
-375 -382.812 1415
-226.562 -382.812 825
-289.062 -226.562 700
328.125 125 871
-117.188 140.625 680
429.688 -164.062 889
-93.75 -296.875 781
-492.188 54.6875 778
-468.75 -375 1433
-132.812 -187.5 731
-437.5 -296.875 1050
-46.875 351.562 604
-453.125 -93.75 875
-242.188 -421.875 833
414.062 -156.25 843
-148.438 156.25 662
-460.938 85.9375 755
203.125 359.375 755
-148.438 -164.062 742
-492.188 -382.812 3037
-132.812 -250 794
-445.312 -195.312 962
-429.688 -117.188 891
-351.562 -210.938 710
421.875 -203.125 875
-101.562 -46.875 803
-421.875 -132.812 903
312.5 62.5 717
39.0625 -140.625 851
-492.188 62.5 774
15.625 78.125 671
-476.562 -101.562 875
-39.0625 78.125 672
31.25 -210.938 742
-375 -101.562 823
-367.188 -54.6875 835
421.875 -132.812 880
421.875 -132.812 880
-234.375 -203.125 750
312.5 78.125 813
265.625 242.188 811
23.4375 179.688 675
429.688 -343.75 2503
-93.75 85.9375 687
-93.75 179.688 650
-445.312 -273.438 746
-39.0625 -226.562 837
-484.375 -109.375 970
-31.25 171.875 682
250 109.375 693
-148.438 -171.875 739
-242.188 -234.375 734
-242.188 -328.125 858
-125 -226.562 809
257.812 -62.5 787
-125 179.688 646
-39.0625 -320.312 896
-62.5 -171.875 720
445.312 -171.875 882
289.062 156.25 811
-39.0625 70.3125 670
296.875 132.812 815
-398.438 273.438 835
-281.25 -109.375 761
46.875 54.6875 733
-78.125 54.6875 700
437.5 -164.062 882
39.0625 296.875 620
-101.562 312.5 621
273.438 140.625 776
-93.75 -289.062 781
-39.0625 -343.75 875
304.688 117.188 809
257.812 242.188 811
320.312 -343.75 2680
23.4375 406.25 589
421.875 -148.438 843
-226.562 -304.688 864
-7.8125 -460.938 3037
-46.875 -304.688 803
-93.75 125 671
-218.75 -54.6875 819
304.688 70.3125 714
-468.75 -359.375 1427
-250 -398.438 837
250 281.25 790
-335.938 -140.625 761
226.562 164.062 667
-335.938 -62.5 837
-421.875 -226.562 736
367.188 70.3125 901
-226.562 -179.688 764
-31.25 -406.25 864
296.875 179.688 843
476.562 85.9375 880
-39.0625 -187.5 723
-234.375 -179.688 764
-351.562 -226.562 703
437.5 -156.25 891
-468.75 -148.438 962
31.25 78.125 691
-210.938 -54.6875 819
-148.438 -398.438 813
164.062 421.875 728
-304.688 -359.375 1370
320.312 140.625 864
-187.5 -273.438 878
-320.312 -250 704
7.8125 -70.3125 807
-101.562 140.625 679
-140.625 -156.25 741
148.438 445.312 716
-39.0625 -203.125 796
164.062 351.562 761
-156.25 171.875 664
203.125 93.75 701
-101.562 -265.625 785
-265.625 -250 714
-492.188 -343.75 1404
359.375 -226.562 898
23.4375 148.438 690
398.438 -85.9375 878
-7.8125 445.312 723
62.5 429.688 590
54.6875 296.875 619
-492.188 148.438 903
-156.25 164.062 662
23.4375 156.25 686
343.75 109.375 880
-101.562 -359.375 827
-125 187.5 646
312.5 70.3125 714
320.312 93.75 845
-328.125 -148.438 750
-226.562 -359.375 831
70.3125 437.5 593
351.562 7.8125 843
-85.9375 156.25 668
-7.8125 -171.875 730
312.5 54.6875 719
-140.625 -226.562 790
-101.562 -343.75 778
320.312 156.25 854
-445.312 93.75 749
-109.375 -375 821
-460.938 -367.188 1433
-15.625 117.188 678
-78.125 -304.688 790
-101.562 132.812 678
390.625 23.4375 928
-257.812 -179.688 744
-195.312 -234.375 954
-7.8125 148.438 661
390.625 -93.75 805
187.5 351.562 759
-265.625 -117.188 755
-54.6875 -343.75 860
-484.375 -101.562 943
-484.375 62.5 773
-484.375 -78.125 867
-54.6875 148.438 671
-117.188 -390.625 817
109.375 -437.5 2908
265.625 140.625 680
-62.5 -437.5 841
-460.938 -78.125 864
-476.562 70.3125 766
328.125 -375 2639
7.8125 -179.688 733
-226.562 -39.0625 809
-398.438 -164.062 778
-46.875 -171.875 720
421.875 -125 898
-85.9375 203.125 670
-39.0625 -250 823
351.562 -367.188 2598
289.062 140.625 785
-414.062 -203.125 749
-265.625 -109.375 761
289.062 101.562 698
492.188 429.688 694
398.438 -351.562 2541
-445.312 -296.875 1050
-320.312 -367.188 1370
-390.625 -390.625 1433
-351.562 -140.625 767
-406.25 -242.188 720
281.25 117.188 693
179.688 398.438 736
-429.688 -125 894
85.9375 429.688 595
-132.812 -218.75 803
140.625 320.312 606
-46.875 -312.5 896
-148.438 -390.625 813
-218.75 -453.125 827
-39.0625 -164.062 722
-70.3125 -210.938 780
-78.125 203.125 670
-46.875 -296.875 803
-429.688 -250 730
-70.3125 179.688 679
-210.938 -289.062 875
-500 46.875 783
-15.625 140.625 667
406.25 -101.562 871
-156.25 -359.375 819
-234.375 -210.938 746
-460.938 78.125 759
-382.812 -101.562 825
375 -359.375 2560
-500 -93.75 891
-39.0625 -265.625 811
210.938 328.125 769
281.25 203.125 831
-359.375 -375 1398
375 46.875 913
-242.188 -421.875 833
-320.312 -257.812 707
-54.6875 -343.75 860
23.4375 -187.5 739
-23.4375 -343.75 896
-46.875 -367.188 851
-109.375 195.312 644
0 164.062 658
367.188 70.3125 901
414.062 -109.375 898
312.5 156.25 856
335.938 -234.375 906
39.0625 -242.188 759
-453.125 85.9375 754
437.5 -62.5 981
70.3125 46.875 736
-242.188 -242.188 728
226.562 304.688 780
-343.75 -109.375 796
312.5 171.875 845
414.062 -132.812 871
31.25 -195.312 746
398.438 -210.938 880
437.5 -179.688 873
273.438 218.75 821
-375 -265.625 722
-421.875 -70.3125 851
234.375 281.25 790
382.812 39.0625 918
273.438 242.188 811
-93.75 -304.688 780
343.75 23.4375 823
132.812 437.5 720
-445.312 -375 1439
203.125 328.125 771
-273.438 -195.312 719
304.688 93.75 805
-101.562 460.938 720
187.5 367.188 754
-234.375 -375 833
-62.5 101.562 671
-179.688 -367.188 817
-226.562 -437.5 827
-70.3125 195.312 672
-70.3125 -328.125 771
-156.25 179.688 682
-257.812 -218.75 731
-46.875 -289.062 803
23.4375 -195.312 736
242.188 296.875 783
-39.0625 -234.375 829
296.875 101.562 800
-421.875 -132.812 903
-382.812 -203.125 728
351.562 101.562 882
-390.625 132.812 723
31.25 93.75 691
-218.75 -296.875 869
-93.75 171.875 663
281.25 132.812 783
218.75 335.938 766
-46.875 -390.625 849
-31.25 -171.875 723
429.688 -335.938 2522
468.75 140.625 847
-250 -359.375 845
-335.938 265.625 827
46.875 109.375 686
421.875 -70.3125 938
-7.8125 156.25 659
218.75 304.688 780
312.5 -242.188 915
-453.125 -453.125 3208
421.875 -70.3125 938
242.188 281.25 790
-148.438 -382.812 815
117.188 460.938 711
-70.3125 156.25 672
93.75 406.25 578
312.5 62.5 717
-93.75 -414.062 823
-234.375 -437.5 835
210.938 312.5 774
-320.312 -125 767
296.875 117.188 796
-101.562 -62.5 811
-140.625 164.062 663
-437.5 -140.625 906
-109.375 164.062 652
-437.5 -437.5 3365
304.688 132.812 829
140.625 421.875 728
289.062 218.75 823
-93.75 -437.5 825
-226.562 -445.312 829
328.125 78.125 841
-15.625 -328.125 1025
23.4375 78.125 671
265.625 257.812 802
-101.562 234.375 655
-367.188 -382.812 1404
-484.375 -156.25 910
-140.625 -156.25 741
-351.562 -250 710
-93.75 164.062 666
-210.938 -125 796
-23.4375 171.875 682
-125 148.438 675
296.875 203.125 831
328.125 31.25 734
-125 -265.625 798
-414.062 257.812 845
-492.188 140.625 913
-62.5 -187.5 720
328.125 140.625 862
429.688 -164.062 889
-70.3125 -218.75 833
468.75 351.562 738
343.75 117.188 873
-242.188 -335.938 849
-453.125 -125 891
62.5 46.875 736
-250 -343.75 849
-85.9375 -257.812 790
-492.188 -70.3125 862
-429.688 -414.062 3300
-218.75 -382.812 821
-78.125 -226.562 790
-367.188 148.438 714
-7.8125 382.812 592
-15.625 78.125 663
-273.438 -242.188 710
-500 -335.938 1381
-39.0625 -218.75 839
-429.688 -125 894
203.125 359.375 755
-437.5 -85.9375 869
375 54.6875 910
-250 -390.625 837
-109.375 -132.812 727
-421.875 -210.938 749
335.938 117.188 873
-132.812 -242.188 794
78.125 460.938 635
-62.5 -210.938 837
-250 -351.562 847
-250 -351.562 847
273.438 218.75 821
-492.188 -140.625 896
414.062 -140.625 837
-31.25 125 676
-46.875 -281.25 805
328.125 148.438 856
-218.75 -367.188 825
62.5 62.5 730
-421.875 109.375 738
289.062 117.188 789
-62.5 -218.75 833
304.688 187.5 839
-234.375 -312.5 862
-398.438 -164.062 778
-62.5 -179.688 720
-414.062 117.188 734
39.0625 -203.125 747
-265.625 -210.938 725
31.25 -109.375 831
171.875 359.375 754
-367.188 -85.9375 835
-156.25 -367.188 817
-46.875 -164.062 720
-242.188 -242.188 728
-421.875 -218.75 741
-46.875 -273.438 807
62.5 54.6875 731
23.4375 187.5 670
398.438 -101.562 807
-343.75 328.125 1268
70.3125 156.25 683
289.062 195.312 835
-109.375 -453.125 823
-234.375 -210.938 746
-23.4375 -312.5 1013
-132.812 -195.312 731
-492.188 -93.75 891
-203.125 -414.062 815
-492.188 195.312 882
-101.562 -453.125 827
304.688 78.125 707
-398.438 -187.5 754
-273.438 218.75 676
-203.125 -70.3125 827
-343.75 195.312 747
429.688 -46.875 970
234.375 312.5 774
-39.0625 -226.562 837
406.25 -117.188 815
320.312 109.375 843
62.5 70.3125 723
-132.812 -312.5 778
-250 -382.812 837
-226.562 -304.688 864
-15.625 -476.562 3010
-351.562 -117.188 792
335.938 132.812 867
335.938 132.812 867
-210.938 -421.875 819
-242.188 -406.25 833
-7.8125 -351.562 903
-257.812 -382.812 849
-250 -398.438 837
23.4375 140.625 693
-54.6875 132.812 670
-406.25 296.875 1529
7.8125 -62.5 802
-257.812 -265.625 714
-54.6875 -453.125 849
421.875 -31.25 962
-390.625 -148.438 785
265.625 250 805
343.75 101.562 885
-226.562 -187.5 762
-359.375 -257.812 716
23.4375 125 693
179.688 398.438 736
-437.5 -250 733
-429.688 -421.875 3333
-437.5 -390.625 1470
-414.062 -273.438 739
-39.0625 -273.438 807
312.5 78.125 813
328.125 54.6875 811
-39.0625 -359.375 867
-335.938 171.875 700
-101.562 -85.9375 803
-484.375 -78.125 867
179.688 375 749
-54.6875 -351.562 856
-62.5 -195.312 794
398.438 0 940
273.438 148.438 776
-117.188 -273.438 785
351.562 101.562 882
-31.25 140.625 675
-429.688 -132.812 901
-375 -109.375 817
-242.188 -195.312 754
-93.75 -265.625 787
-257.812 -203.125 734
273.438 132.812 683
-250 -179.688 750
265.625 234.375 815
-398.438 140.625 728
-31.25 -296.875 807
54.6875 78.125 723
-375 140.625 719
-101.562 101.562 680
-351.562 179.688 723
46.875 70.3125 727
-226.562 -179.688 764
23.4375 -187.5 739
-359.375 -382.812 3208
-218.75 -46.875 813
-226.562 -234.375 962
-85.9375 -437.5 827
257.812 257.812 802
-203.125 -62.5 823
242.188 296.875 783
281.25 234.375 813
-70.3125 -375 837
-414.062 -210.938 744
414.062 -15.625 951
-62.5 -203.125 794
148.438 445.312 716
-359.375 257.812 829
-265.625 -195.312 730
-117.188 -250 800
398.438 -78.125 878
-242.188 -421.875 833
390.625 -351.562 2560
-203.125 -101.562 847
-7.8125 -335.938 1031
62.5 156.25 683
-468.75 -109.375 882
46.875 -226.562 749
-218.75 -335.938 833
-31.25 -234.375 829
78.125 445.312 610
-273.438 -187.5 727
296.875 148.438 821
-39.0625 -210.938 802
7.8125 -445.312 3064
-62.5 -445.312 843
-39.0625 -171.875 722
234.375 296.875 783
-476.562 -375 1427
-242.188 -250 981
78.125 54.6875 730
-476.562 -93.75 875
-296.875 203.125 686
-109.375 -257.812 789
-171.875 -406.25 811
-250 -367.188 843
-39.0625 -257.812 819
-195.312 -78.125 833
46.875 93.75 697
-226.562 -445.312 829
-234.375 -429.688 833
-437.5 242.188 847
93.75 132.812 691
140.625 437.5 720
-171.875 -398.438 811
304.688 125 829
-117.188 171.875 648
289.062 226.562 817
148.438 414.062 730
367.188 70.3125 901
-54.6875 -414.062 845
-101.562 -312.5 778
-242.188 -234.375 734
320.312 70.3125 811
-359.375 156.25 714
23.4375 78.125 671
-31.25 -195.312 723
390.625 -85.9375 800
-85.9375 -296.875 787
-289.062 -218.75 700
-85.9375 218.75 662
-476.562 203.125 875
-476.562 -367.188 1427
-23.4375 -171.875 723
-453.125 -117.188 891
304.688 179.688 843
-265.625 -164.062 739
62.5 421.875 579
0 -351.562 1041
-367.188 -265.625 722
-70.3125 -351.562 843
31.25 -382.812 2958
289.062 109.375 696
-273.438 -218.75 716
-320.312 179.688 693
-312.5 187.5 690
-492.188 54.6875 778
171.875 414.062 731
-39.0625 171.875 682
-398.438 -171.875 767
-140.625 -359.375 821
296.875 109.375 798
-171.875 -265.625 894
312.5 156.25 856
406.25 -93.75 882
-109.375 -250 787
-367.188 -234.375 707
304.688 171.875 845
-132.812 171.875 667
-359.375 304.688 817
31.25 390.625 583
-85.9375 -164.062 722
-460.938 78.125 759
54.6875 70.3125 723
-406.25 265.625 843
140.625 460.938 711
218.75 195.312 655
-140.625 -453.125 817
-164.062 -109.375 851
15.625 -179.688 739
-46.875 -312.5 896
390.625 -62.5 896
484.375 -320.312 2349
-164.062 -265.625 894
-31.25 -335.938 885
382.812 31.25 923
-210.938 -62.5 823
156.25 -171.875 869
-46.875 -320.312 894
-375 -257.812 719
-125 -226.562 809
-125 -343.75 774
-476.562 -85.9375 873
-382.812 -210.938 723
-15.625 85.9375 664
257.812 273.438 794
375 62.5 906
-429.688 -125 894
-70.3125 -320.312 773
320.312 54.6875 805
328.125 93.75 854
-31.25 62.5 666
250 257.812 803
289.062 218.75 823
-218.75 -156.25 780
-70.3125 -312.5 785
273.438 234.375 813
-31.25 -187.5 723
-195.312 -70.3125 827
0 46.875 667
-195.312 -351.562 825
453.125 -179.688 2317
-437.5 -117.188 891
375 -31.25 871
-218.75 -453.125 827
-234.375 -218.75 739
-70.3125 101.562 671
-437.5 -132.812 894
210.938 351.562 755
-390.625 281.25 831
328.125 148.438 856
-101.562 -257.812 785
156.25 437.5 720
289.062 125 787
281.25 117.188 693
-328.125 -195.312 710
-250 -375 841
-312.5 -367.188 1370
-406.25 312.5 1516
421.875 -148.438 843
-320.312 -250 704
-171.875 -414.062 811
-203.125 -351.562 825
31.25 78.125 691
-46.875 171.875 683
-445.312 -78.125 860
-492.188 -343.75 1404
-117.188 -171.875 727
0 70.3125 662
-320.312 -109.375 781
-273.438 -234.375 711
-23.4375 -218.75 803
0 -171.875 733
359.375 85.9375 891
-453.125 226.562 862
343.75 117.188 873
-210.938 -54.6875 819
-398.438 304.688 1523
265.625 148.438 680
-15.625 -320.312 1016
367.188 62.5 906
265.625 234.375 815
484.375 93.75 767
-234.375 -320.312 856
312.5 179.688 843
-382.812 -390.625 1433
-484.375 -382.812 3149
312.5 125 833
-250 -390.625 837
-320.312 -265.625 711
-109.375 -226.562 794
-46.875 179.688 679
195.312 375 747
-500 132.812 915
-242.188 -250 981
-15.625 -468.75 3010
-39.0625 156.25 675
-31.25 -164.062 723
-250 -70.3125 790
-226.562 -406.25 825
296.875 93.75 704
62.5 406.25 576
-437.5 -148.438 1047
335.938 132.812 867
15.625 132.812 698
437.5 -156.25 891
-445.312 -109.375 887
-23.4375 -164.062 728
328.125 132.812 867
-335.938 -203.125 708
-242.188 -187.5 755
-250 -421.875 841
-375 289.062 821
-382.812 -132.812 798
289.062 210.938 827
-250 -210.938 741
-70.3125 -218.75 833
179.688 367.188 752
-320.312 195.312 697
-7.8125 46.875 666
-7.8125 -476.562 3010
429.688 -421.875 2381
-242.188 -429.688 837
-46.875 -343.75 864
-117.188 -367.188 823
-421.875 -210.938 749
-320.312 -203.125 703
-78.125 -429.688 831
-453.125 93.75 752
351.562 93.75 889
-320.312 -257.812 707
-179.688 -257.812 975
218.75 320.312 774
140.625 414.062 730
-234.375 -429.688 833
54.6875 85.9375 697
312.5 109.375 821
-242.188 -414.062 833
304.688 101.562 805
328.125 85.9375 809
-31.25 78.125 667
367.188 257.812 794
-421.875 -234.375 727
-460.938 250 1579
242.188 273.438 796
125 460.938 711
23.4375 -125 798
320.312 164.062 849
-250 -218.75 736
234.375 312.5 774
-171.875 195.312 676
-117.188 187.5 644
-140.625 -406.25 811
382.812 46.875 913
-367.188 296.875 829
-148.438 187.5 680
328.125 31.25 734
-46.875 187.5 675
398.438 15.625 930
265.625 132.812 683
-500 -62.5 856
281.25 132.812 783
-210.938 -132.812 796
-117.188 148.438 679
-367.188 -140.625 778
-500 -140.625 896
-85.9375 140.625 670
-125 -218.75 809
-93.75 -265.625 787
15.625 -171.875 738
429.688 -156.25 889
367.188 -148.438 837
-242.188 -335.938 849
-281.25 -78.125 785
-250 -78.125 787
-398.438 -242.188 719
-453.125 -210.938 975
-218.75 -164.062 774
250 289.062 787
429.688 -39.0625 964
-117.188 -257.812 798
46.875 -218.75 749
-476.562 -117.188 970
437.5 -171.875 882
46.875 78.125 694
-296.875 195.312 686
-171.875 -273.438 882
-15.625 109.375 680
-328.125 -265.625 713
-62.5 78.125 686
-46.875 -304.688 803
281.25 140.625 780
-23.4375 -171.875 723
85.9375 140.625 688
-453.125 257.812 1579
-242.188 -250 981
-476.562 250 1586
-421.875 109.375 738
406.25 -109.375 815
367.188 78.125 896
-429.688 109.375 741
265.625 257.812 802
-351.562 156.25 711
-109.375 -179.688 723
-210.938 -390.625 817
-132.812 156.25 667
289.062 156.25 811
-109.375 -414.062 819
281.25 125 783
-429.688 296.875 1529
187.5 390.625 741
445.312 -187.5 873
-343.75 -375 1387
-39.0625 -250 823
-359.375 -218.75 708
-70.3125 132.812 667
-468.75 320.312 1748
195.312 343.75 762
187.5 351.562 759
-414.062 -218.75 734
-39.0625 -296.875 805
-109.375 -367.188 823
-437.5 101.562 744
-242.188 359.375 773
-398.438 -281.25 742
-421.875 -203.125 752
406.25 0 940
46.875 109.375 686
226.562 328.125 769
398.438 -93.75 805
-445.312 -453.125 3333
-484.375 -148.438 901
273.438 -117.188 819
328.125 54.6875 811
39.0625 -101.562 823
382.812 -46.875 889
445.312 -164.062 2317
281.25 234.375 813
-15.625 -476.562 3010
-445.312 -140.625 989
281.25 210.938 827
-109.375 -421.875 819
23.4375 78.125 671
-101.562 148.438 671
7.8125 171.875 658
-226.562 -335.938 837
-242.188 -406.25 833
15.625 148.438 690
-156.25 -281.25 869
-429.688 101.562 742
-289.062 -218.75 700
-226.562 -320.312 849
-23.4375 -156.25 730
-500 46.875 783
-226.562 -195.312 759
453.125 -195.312 2365
-375 -93.75 831
-375 -132.812 794
414.062 -125 869
375 62.5 906
343.75 109.375 880
-492.188 -85.9375 864
-367.188 -382.812 1404
-117.188 -242.188 807
-39.0625 -265.625 811
-343.75 -226.562 698
-328.125 179.688 696
-414.062 289.062 1536
-39.0625 -335.938 878
-132.812 -234.375 796
31.25 101.562 691
-39.0625 -179.688 722
-109.375 218.75 663
-117.188 -234.375 811
117.188 148.438 683
-398.438 -171.875 767
-375 -257.812 719
62.5 281.25 627
-93.75 -257.812 787
70.3125 148.438 687
-234.375 -226.562 731
390.625 31.25 925
-367.188 -93.75 831
-117.188 -343.75 774
359.375 78.125 898
-492.188 -70.3125 860
-359.375 -250 713
-195.312 -78.125 833
-453.125 85.9375 757
-125 -250 790
-39.0625 -234.375 825
-39.0625 -273.438 805
-62.5 -234.375 819
132.812 437.5 722
-31.25 -429.688 854
320.312 148.438 860
-265.625 -203.125 719
296.875 187.5 841
-351.562 164.062 710
-70.3125 -296.875 790
-226.562 -31.25 805
273.438 250 805
0 140.625 664
-304.688 -218.75 691
351.562 109.375 882
312.5 179.688 845
296.875 210.938 831
-31.25 -226.562 835
304.688 195.312 837
273.438 226.562 819
320.312 78.125 713
-78.125 -273.438 785
39.0625 -93.75 819
-437.5 -226.562 734
-39.0625 -289.062 802
210.938 335.938 767
-335.938 -148.438 754
343.75 109.375 882
-335.938 -226.562 700
-62.5 187.5 676
54.6875 62.5 730
-343.75 -210.938 708
-39.0625 -281.25 803
-70.3125 148.438 667
-23.4375 125 672
-31.25 -250 819
-429.688 -242.188 731
54.6875 78.125 723
203.125 335.938 767
390.625 -78.125 794
-406.25 -398.438 1464
15.625 -179.688 730
-242.188 -257.812 714
-39.0625 -242.188 825
54.6875 -250 766
382.812 46.875 918
-78.125 117.188 668
-437.5 -289.062 1054
-398.438 -148.438 792
-312.5 -54.6875 831
250 273.438 796
-328.125 -109.375 785
-62.5 179.688 680
-343.75 -148.438 761
-132.812 -195.312 741
-476.562 -351.562 1410
-7.8125 -343.75 891
-234.375 -359.375 839
304.688 85.9375 708
335.938 78.125 809
-31.25 -203.125 796
46.875 -210.938 742
-320.312 -265.625 716
-343.75 164.062 703
-500 -335.938 1398
-468.75 78.125 762
-437.5 -125 894
-375 -218.75 719
367.188 78.125 898
0 164.062 658
-132.812 148.438 664
23.4375 -445.312 3064
367.188 70.3125 901
-234.375 -320.312 860
-242.188 -203.125 742
-242.188 -343.75 851
-125 164.062 664
304.688 140.625 805
-468.75 281.25 1564
-437.5 234.375 851
453.125 164.062 839
320.312 -335.938 2680
312.5 70.3125 719
-414.062 -218.75 738
-351.562 -234.375 704
-382.812 -210.938 725
250 289.062 789
-70.3125 187.5 678
-398.438 273.438 831
375 54.6875 913
-265.625 -226.562 708
78.125 156.25 683
31.25 140.625 694
-140.625 -406.25 811
320.312 70.3125 719
-31.25 -164.062 722
-429.688 -296.875 1050
39.0625 125 687
-445.312 234.375 858
15.625 -265.625 785
320.312 101.562 807
-343.75 -164.062 744
46.875 70.3125 696
421.875 -117.188 823
39.0625 -148.438 860
-39.0625 -320.312 880
-117.188 -179.688 727
-39.0625 -445.312 847
-93.75 234.375 657
-359.375 -382.812 1398
-46.875 -179.688 720
382.812 -62.5 783
-242.188 -179.688 747
-23.4375 -195.312 723
85.9375 54.6875 733
328.125 101.562 837
-140.625 -390.625 811
-140.625 -398.438 811
187.5 367.188 754
-265.625 -148.438 733
-281.25 -226.562 697
39.0625 117.188 687
492.188 23.4375 915
-289.062 203.125 682
421.875 -140.625 835
171.875 414.062 731
-289.062 -148.438 731
335.938 46.875 815
-148.438 -398.438 811
140.625 429.688 723
70.3125 125 679
140.625 460.938 711
-117.188 -257.812 794
-31.25 187.5 676
-117.188 -265.625 796
-242.188 -382.812 841
-421.875 250 847
-23.4375 -187.5 723
-226.562 250 659
-125 -187.5 733
-101.562 -335.938 773
-70.3125 -273.438 803
164.062 429.688 723
-195.312 -281.25 875
-203.125 -109.375 807
-156.25 -343.75 821
78.125 148.438 687
296.875 140.625 785
-375 140.625 720
265.625 265.625 798
218.75 242.188 641
-234.375 -226.562 731
-78.125 85.9375 675
-70.3125 -429.688 827
156.25 437.5 720
-117.188 -226.562 805
-500 -85.9375 885
46.875 -234.375 752
179.688 406.25 734
-78.125 125 666
-23.4375 171.875 683
-54.6875 101.562 672
359.375 93.75 889
-78.125 210.938 666
-468.75 -359.375 1421
-234.375 -351.562 841
437.5 -7.8125 946
-195.312 -85.9375 837
-226.562 -187.5 759
-62.5 -375 833
-429.688 117.188 739
-7.8125 -54.6875 800
437.5 -54.6875 981
-460.938 78.125 761
-382.812 140.625 722
-328.125 -195.312 711
-468.75 -132.812 956
203.125 367.188 752
-406.25 -273.438 738
-460.938 85.9375 761
242.188 304.688 781
-210.938 -140.625 787
-93.75 195.312 642
-7.8125 -468.75 3010
-468.75 70.3125 767
-335.938 335.938 1278
343.75 125 873
-78.125 -265.625 785
218.75 343.75 761
-390.625 226.562 847
-148.438 179.688 663
-375 335.938 1496
-226.562 -437.5 835
398.438 -210.938 887
-367.188 148.438 714
-39.0625 -257.812 817
-429.688 -453.125 3468
164.062 390.625 742
273.438 242.188 811
226.562 312.5 778
-390.625 242.188 839
0 -343.75 1044
-328.125 -226.562 698
289.062 109.375 700
-46.875 453.125 723
-421.875 -265.625 736
-390.625 -179.688 755
312.5 171.875 847
23.4375 109.375 682
195.312 359.375 755
312.5 132.812 827
0 -171.875 725
-31.25 -179.688 722
-39.0625 -296.875 803
-312.5 -390.625 3178
-312.5 359.375 1343
-218.75 -406.25 825
-359.375 351.562 1477
187.5 359.375 755
445.312 156.25 843
-109.375 140.625 678
421.875 -23.4375 959
-164.062 -117.188 858
-234.375 -429.688 837
-445.312 -109.375 889
156.25 406.25 736
-93.75 -328.125 773
218.75 335.938 766
54.6875 117.188 684
281.25 226.562 817
23.4375 62.5 666
375 -46.875 776
0 195.312 671
-195.312 -70.3125 829
390.625 -54.6875 783
-304.688 195.312 687
-31.25 -210.938 802
492.188 -54.6875 973
-218.75 -171.875 767
-351.562 171.875 714
328.125 156.25 856
-78.125 195.312 674
-140.625 171.875 661
-23.4375 -406.25 864
-164.062 -359.375 817
-218.75 -39.0625 809
210.938 109.375 696
210.938 218.75 646
-46.875 101.562 672
-78.125 93.75 675
-382.812 -390.625 1433
-265.625 -203.125 719
-429.688 -179.688 1010
218.75 312.5 776
-398.438 -179.688 764
-7.8125 -328.125 1025
351.562 109.375 882
-39.0625 -273.438 805
414.062 -101.562 811
-429.688 101.562 742
312.5 164.062 851
234.375 296.875 783
289.062 125 690
-31.25 70.3125 666
132.812 453.125 711
-93.75 78.125 701
-468.75 85.9375 762
-109.375 -390.625 817
273.438 140.625 683
-242.188 -257.812 714
-125 -203.125 754
31.25 398.438 582
-242.188 -218.75 734
-31.25 -320.312 894
-398.438 -148.438 792
281.25 140.625 683
-23.4375 156.25 672
-406.25 125 733
296.875 210.938 831
-437.5 -140.625 989
-359.375 234.375 845
-31.25 -289.062 803
375 -23.4375 766
234.375 289.062 787
-492.188 234.375 1601
195.312 328.125 769
203.125 70.3125 717
328.125 46.875 727
85.9375 429.688 578
-328.125 171.875 698
242.188 265.625 798
39.0625 -85.9375 813
-265.625 -187.5 719
242.188 46.875 727
359.375 85.9375 894
257.812 250 807
320.312 62.5 720
414.062 -109.375 821
39.0625 -187.5 741
-484.375 195.312 878
93.75 -320.312 1007
15.625 179.688 657
-62.5 -226.562 827
-468.75 -171.875 918
-70.3125 -296.875 790
-312.5 -257.812 708
-453.125 -125 981
-101.562 85.9375 728
-250 234.375 667
367.188 -31.25 767
-70.3125 -257.812 792
-148.438 -140.625 798
-468.75 -31.25 831
-179.688 -429.688 811
367.188 -15.625 757
226.562 296.875 785
-39.0625 -304.688 803
-257.812 -226.562 719
-398.438 -156.25 785
-476.562 -421.875 3092
-445.312 265.625 1564
54.6875 54.6875 733
484.375 54.6875 898
-296.875 289.062 811
312.5 117.188 794
-39.0625 -367.188 851
445.312 -179.688 869
-23.4375 117.188 675
179.688 382.812 746
375 -132.812 827
-7.8125 156.25 662
367.188 -7.8125 757
-187.5 -359.375 819
296.875 203.125 833
132.812 445.312 716
242.188 289.062 789
-39.0625 -164.062 720
382.812 -39.0625 771
445.312 -187.5 871
398.438 -70.3125 794
-31.25 -171.875 722
-421.875 -242.188 728
-265.625 218.75 672
429.688 -148.438 847
335.938 125 873
-31.25 -343.75 867
-460.938 218.75 867
31.25 171.875 679
328.125 93.75 843
-62.5 93.75 676
-23.4375 -171.875 722
476.562 -148.438 2256
-101.562 171.875 650
-31.25 -187.5 722
-414.062 304.688 1516
31.25 78.125 690
-460.938 -117.188 975
453.125 -171.875 869
-320.312 179.688 694
492.188 93.75 769
-62.5 -218.75 785
273.438 156.25 683
93.75 414.062 575
-335.938 -203.125 710
414.062 -93.75 880
320.312 171.875 847
-492.188 54.6875 778
304.688 132.812 796
-445.312 -375 1439
289.062 226.562 819
-187.5 -242.188 964
-406.25 -398.438 1464
-31.25 93.75 679
289.062 203.125 833
429.688 -132.812 869
164.062 406.25 734
-15.625 -476.562 3010
-375 -218.75 719
-93.75 -234.375 787
-367.188 343.75 1483
62.5 437.5 585
406.25 -31.25 920
437.5 -171.875 864
218.75 234.375 642
226.562 23.4375 739
39.0625 70.3125 694
7.8125 156.25 658
-437.5 -93.75 873
-453.125 -195.312 954
171.875 382.812 746
-398.438 156.25 762
-468.75 -101.562 875
304.688 179.688 845
-23.4375 -304.688 1007
164.062 429.688 723
-62.5 -328.125 769
304.688 93.75 708
-140.625 156.25 661
-359.375 -78.125 839
273.438 250 805
-78.125 132.812 666
-210.938 -46.875 813
-414.062 -218.75 738
-382.812 281.25 827
-382.812 210.938 854
382.812 46.875 918
-328.125 343.75 1292
281.25 242.188 811
375 -70.3125 785
-226.562 -382.812 827
-390.625 234.375 843
-54.6875 -171.875 719
70.3125 437.5 583
-328.125 -140.625 757
-54.6875 109.375 670
-148.438 -351.562 819
-375 -109.375 819
-226.562 -312.5 860
265.625 242.188 813
-453.125 -445.312 3208
296.875 101.562 706
218.75 304.688 781
-351.562 -70.3125 843
-31.25 109.375 674
-460.938 -195.312 948
-93.75 109.375 678
203.125 210.938 648
54.6875 70.3125 727
-125 -398.438 811
265.625 265.625 798
7.8125 109.375 674
-476.562 156.25 898
-492.188 328.125 1731
85.9375 54.6875 733
-15.625 164.062 686
281.25 125 690
304.688 101.562 706
320.312 117.188 829
-203.125 -289.062 871
23.4375 93.75 671
328.125 62.5 720
-414.062 117.188 738
-312.5 -257.812 708
-70.3125 -148.438 725
-453.125 195.312 869
31.25 -179.688 739
-78.125 -296.875 781
-429.688 -429.688 3365
-242.188 -390.625 841
-54.6875 -179.688 720
265.625 148.438 683
-234.375 -421.875 835
31.25 54.6875 671
398.438 23.4375 928
359.375 -15.625 757
-492.188 132.812 915
218.75 343.75 761
195.312 382.812 746
-445.312 -218.75 984
-296.875 -218.75 691
-210.938 -382.812 821
-226.562 -203.125 741
242.188 304.688 781
-234.375 -218.75 739
39.0625 -195.312 741
-242.188 -398.438 841
-398.438 125 727
-429.688 195.312 869
445.312 -70.3125 989
312.5 93.75 708
-39.0625 -265.625 811
-234.375 -234.375 731
-23.4375 -296.875 803
468.75 -234.375 2450
-398.438 -148.438 792
-460.938 -234.375 1077
-101.562 -187.5 722
320.312 78.125 713
-15.625 -164.062 723
-460.938 -414.062 3178
-226.562 -437.5 835
304.688 187.5 841
-7.8125 46.875 667
-101.562 179.688 646
414.062 -421.875 2415
-328.125 -62.5 837
312.5 187.5 839
-257.812 -265.625 713
-117.188 -164.062 728
335.938 140.625 864
-398.438 -179.688 764
-31.25 -242.188 823
-242.188 234.375 664
-250 -171.875 746
-101.562 -367.188 819
289.062 117.188 694
-382.812 132.812 723
-7.8125 179.688 676
414.062 -117.188 823
-476.562 70.3125 767
-39.0625 -289.062 802
-31.25 -218.75 837
70.3125 62.5 730
-62.5 195.312 672
-390.625 -242.188 716
273.438 148.438 683
304.688 85.9375 708
-62.5 70.3125 697
-203.125 -70.3125 829
-117.188 148.438 674
70.3125 70.3125 725
46.875 -242.188 762
-39.0625 -281.25 803
-85.9375 226.562 661
421.875 -132.812 831
328.125 156.25 856
-453.125 -101.562 882
335.938 78.125 809
-320.312 -250 706
-70.3125 203.125 670
-328.125 -250 707
179.688 406.25 734
-265.625 -195.312 717
-23.4375 164.062 687
257.812 281.25 790
31.25 78.125 690
46.875 -148.438 860
-367.188 -195.312 731
-429.688 -445.312 3365
390.625 -70.3125 794
-351.562 -179.688 736
-390.625 -156.25 781
-437.5 93.75 747
140.625 445.312 716
46.875 -203.125 742
-406.25 -140.625 906
39.0625 132.812 696
476.562 -203.125 2381
328.125 140.625 864
-7.8125 85.9375 661
23.4375 195.312 668
437.5 -164.062 864
382.812 54.6875 913
-140.625 -382.812 813
390.625 39.0625 920
195.312 351.562 761
210.938 54.6875 723
46.875 -125 841
-414.062 -132.812 901
-414.062 -226.562 733
-39.0625 179.688 679
-70.3125 179.688 680
-328.125 -375 1392
265.625 242.188 813
-500 46.875 785
156.25 421.875 728
-484.375 54.6875 774
203.125 351.562 761
-46.875 117.188 668
-93.75 -453.125 825
-234.375 -335.938 851
31.25 156.25 686
-23.4375 -289.062 803
281.25 218.75 823
23.4375 -179.688 733
-15.625 -421.875 878
-39.0625 -296.875 803
-101.562 -132.812 723
-445.312 -171.875 1004
-453.125 -132.812 981
62.5 -203.125 898
179.688 -289.062 970
-218.75 -179.688 767
-78.125 109.375 670
-148.438 164.062 661
-31.25 -320.312 894
-351.562 -78.125 835
-39.0625 -312.5 891
-390.625 -203.125 736
-359.375 -234.375 707
-164.062 -406.25 809
-62.5 -210.938 781
-265.625 -156.25 730
-460.938 -148.438 962
-23.4375 -164.062 722
-78.125 -304.688 781
-218.75 -304.688 860
-367.188 -101.562 821
-62.5 -125 754
257.812 273.438 796
-70.3125 109.375 670
312.5 359.375 750
187.5 375 750
281.25 242.188 811
-210.938 -453.125 831
-15.625 -312.5 1013
320.312 171.875 847
31.25 164.062 683
304.688 109.375 796
-281.25 210.938 679
-375 -390.625 1427
-109.375 -242.188 803
-460.938 -93.75 875
359.375 101.562 885
-156.25 -93.75 841
-46.875 109.375 671
398.438 296.875 774
15.625 101.562 671
31.25 179.688 676
-54.6875 -195.312 794
234.375 320.312 773
-62.5 179.688 680
-492.188 250 1594
-226.562 -164.062 767
7.8125 164.062 657
-70.3125 -218.75 785
-62.5 -242.188 817
-359.375 156.25 711
218.75 328.125 771
-312.5 -250 704
-54.6875 -375 837
-31.25 -304.688 803
296.875 117.188 694
-148.438 -359.375 817
-406.25 265.625 843
406.25 -78.125 869
335.938 39.0625 734
460.938 406.25 717
-375 -195.312 736
375 70.3125 901
421.875 -109.375 821
164.062 398.438 738
-242.188 -359.375 843
-109.375 -250 800
-218.75 250 657
-203.125 -117.188 803
328.125 93.75 843
296.875 148.438 785
367.188 85.9375 891
-328.125 359.375 1343
351.562 101.562 887
-406.25 -203.125 749
-31.25 -234.375 827
-210.938 -296.875 869
-250 226.562 668
-351.562 156.25 711
-382.812 -140.625 792
414.062 296.875 771
-367.188 -265.625 723
390.625 132.812 864
-359.375 164.062 711
171.875 398.438 738
-132.812 -226.562 787
-367.188 -234.375 710
-468.75 70.3125 767
-109.375 -304.688 778
-85.9375 -304.688 778
148.438 421.875 728
-421.875 132.812 767
-54.6875 187.5 676
-148.438 171.875 661
406.25 7.8125 940
335.938 85.9375 847
437.5 -46.875 973
171.875 421.875 728
-453.125 -85.9375 869
-23.4375 -335.938 887
-234.375 -406.25 835
-421.875 -437.5 3365
-85.9375 125 670
-250 -195.312 734
-242.188 -351.562 847
-429.688 101.562 742
-226.562 -210.938 739
-31.25 -257.812 813
304.688 203.125 831
-218.75 -445.312 831
-125 -242.188 792
-195.312 -93.75 843
414.062 -93.75 880
-414.062 -140.625 906
-234.375 -242.188 970
179.688 375 749
-31.25 -226.562 835
320.312 109.375 805
-500 210.938 1572
-468.75 -93.75 875
148.438 453.125 714
-375 -203.125 728
-54.6875 -187.5 720
-93.75 -242.188 787
210.938 359.375 755
-140.625 -390.625 811
398.438 109.375 875
-351.562 -382.812 1410
382.812 -54.6875 783
-343.75 359.375 1470
-476.562 -156.25 906
429.688 -148.438 847
31.25 187.5 671
23.4375 164.062 658
15.625 195.312 668
-476.562 -429.688 3092
-476.562 -429.688 3092
46.875 -453.125 2958
453.125 -164.062 871
289.062 218.75 823
46.875 109.375 687
54.6875 70.3125 727
-242.188 -398.438 841
406.25 -101.562 811
429.688 -125 831
-375 -210.938 723
-429.688 -164.062 1007
210.938 328.125 769
-101.562 -296.875 780
-382.812 -187.5 747
-289.062 -78.125 792
312.5 78.125 713
250 296.875 783
-62.5 -257.812 809
132.812 460.938 711
-382.812 328.125 1503
-414.062 257.812 849
-335.938 367.188 1464
-265.625 -265.625 711
-23.4375 171.875 683
-218.75 -437.5 827
-468.75 210.938 869
0 460.938 717
0 -335.938 1031
-390.625 -164.062 774
-328.125 179.688 697
-453.125 218.75 862
