ply
format ascii 1.0
comment Created by Open3D
element vertex 2394
property double x
property double y
property double z
end_header
320.312 -156.25 710
15.625 -39.0625 741
273.438 -328.125 736
382.812 -250 935
414.062 343.75 602
-437.5 -437.5 3010
296.875 -164.062 727
-187.5 117.188 738
0 -234.375 682
109.375 -54.6875 671
-93.75 -93.75 851
-156.25 -39.0625 823
-234.375 93.75 754
-210.938 -93.75 847
-289.062 132.812 906
234.375 429.688 577
375 -54.6875 706
406.25 -54.6875 647
406.25 226.562 589
39.0625 -335.938 1273
281.25 -117.188 688
0 273.438 653
-476.562 -390.625 2933
-343.75 -15.625 878
117.188 23.4375 717
-31.25 -164.062 680
-437.5 0 1004
-257.812 39.0625 783
-125 437.5 1398
46.875 -23.4375 730
-70.3125 218.75 682
-23.4375 -85.9375 730
-257.812 -70.3125 851
70.3125 -54.6875 693
-93.75 195.312 691
179.688 23.4375 761
-476.562 -218.75 1210
312.5 218.75 632
-328.125 -85.9375 867
453.125 257.812 620
226.562 -367.188 736
359.375 296.875 599
156.25 54.6875 746
-164.062 -85.9375 925
382.812 -187.5 727
-148.438 -85.9375 843
343.75 273.438 598
289.062 -125 742
304.688 375 596
-304.688 -15.625 869
257.812 -296.875 739
468.75 203.125 655
296.875 320.312 594
328.125 320.312 601
-335.938 -39.0625 882
156.25 -265.625 785
-15.625 -23.4375 773
-109.375 -164.062 1013
468.75 187.5 663
-382.812 0 998
187.5 -78.125 819
375 -242.188 928
351.562 -117.188 757
-328.125 -195.312 938
187.5 -171.875 885
320.312 -226.562 700
-54.6875 -117.188 725
-93.75 -85.9375 845
-210.938 125 747
-437.5 -257.812 1236
-109.375 -250 973
70.3125 320.312 628
-156.25 140.625 723
382.812 -179.688 725
54.6875 -281.25 1214
179.688 398.438 593
187.5 -117.188 843
-195.312 -7.8125 807
257.812 -304.688 739
-429.688 -250 1236
171.875 -304.688 761
296.875 -265.625 752
-23.4375 -210.938 670
-187.5 125 734
257.812 453.125 569
-468.75 0 1007
46.875 -437.5 2365
-7.8125 0 785
171.875 -398.438 762
164.062 -390.625 764
406.25 -125 725
289.062 -101.562 716
-15.625 -218.75 672
179.688 -421.875 766
-140.625 -70.3125 839
-218.75 -382.812 1387
-31.25 -140.625 694
437.5 -46.875 650
-203.125 -23.4375 813
-398.438 273.438 1804
-31.25 242.188 670
-23.4375 -93.75 723
476.562 289.062 620
-101.562 -101.562 856
343.75 250 606
304.688 -296.875 742
-304.688 -234.375 975
101.562 453.125 727
-398.438 351.562 1705
203.125 421.875 583
93.75 -164.062 636
351.562 -140.625 741
-343.75 -320.312 1297
132.812 -359.375 783
304.688 273.438 608
-281.25 -257.812 1010
-218.75 109.375 747
31.25 281.25 648
-250 -289.062 1022
195.312 -367.188 746
-320.312 -320.312 1307
-281.25 210.938 871
-23.4375 -101.562 719
171.875 -85.9375 690
109.375 -289.062 821
304.688 -406.25 750
296.875 -140.625 736
-203.125 -62.5 896
-31.25 -156.25 684
-289.062 250 1572
-343.75 23.4375 878
414.062 242.188 590
179.688 -437.5 774
-250 289.062 1536
-453.125 -320.312 2908
148.438 -390.625 778
242.188 -78.125 688
304.688 -304.688 742
-218.75 85.9375 757
-15.625 -31.25 766
-304.688 101.562 930
140.625 -335.938 773
39.0625 296.875 641
31.25 -460.938 2349
414.062 234.375 589
289.062 -70.3125 663
-343.75 -171.875 906
46.875 -203.125 659
-335.938 -179.688 920
367.188 -304.688 771
-226.562 -78.125 860
-257.812 234.375 858
-359.375 -148.438 885
-265.625 210.938 869
-203.125 -210.938 1038
-164.062 132.812 728
351.562 -218.75 701
-226.562 15.625 796
140.625 39.0625 730
-164.062 312.5 811
414.062 328.125 585
101.562 343.75 619
429.688 -39.0625 648
-312.5 304.688 1766
-343.75 46.875 891
281.25 -7.8125 674
312.5 312.5 600
-156.25 -125 923
351.562 -195.312 706
15.625 -460.938 2349
187.5 -210.938 813
-406.25 375 1688
367.188 -226.562 694
-125 375 1268
-46.875 -375 1333
-304.688 -226.562 973
-203.125 265.625 831
187.5 -70.3125 813
-250 62.5 773
335.938 -265.625 764
382.812 -171.875 723
289.062 -109.375 752
382.812 187.5 608
375 -62.5 707
101.562 46.875 741
-335.938 140.625 910
304.688 -70.3125 662
289.062 335.938 580
-117.188 -218.75 1161
-15.625 -187.5 662
375 -125 744
351.562 -179.688 722
-226.562 -125 867
78.125 -125 646
-109.375 -242.188 1185
-31.25 -164.062 680
78.125 -117.188 650
23.4375 -171.875 652
-7.8125 265.625 657
-195.312 -46.875 825
140.625 -265.625 796
-31.25 -171.875 678
-195.312 109.375 741
-156.25 148.438 717
-234.375 78.125 762
328.125 -226.562 696
-156.25 -101.562 935
390.625 -218.75 913
359.375 320.312 614
-398.438 265.625 1813
367.188 -46.875 646
187.5 -429.688 767
-281.25 54.6875 781
23.4375 289.062 643
-273.438 203.125 871
-328.125 -54.6875 851
281.25 -187.5 723
343.75 -265.625 767
-359.375 203.125 1594
62.5 -23.4375 719
281.25 -320.312 736
-187.5 132.812 731
343.75 335.938 609
468.75 -101.562 674
-125 -62.5 833
-250 -62.5 849
-93.75 -125 862
453.125 203.125 658
-164.062 -31.25 817
-312.5 -62.5 851
140.625 -367.188 776
-203.125 -101.562 849
187.5 -54.6875 805
-406.25 70.3125 954
-265.625 -54.6875 847
203.125 -437.5 741
289.062 23.4375 679
-335.938 -140.625 885
-171.875 -62.5 833
281.25 -179.688 723
93.75 23.4375 730
312.5 -15.625 655
140.625 54.6875 747
-187.5 140.625 731
-296.875 -242.188 987
-242.188 -367.188 1365
273.438 -171.875 720
-343.75 54.6875 894
-312.5 -210.938 959
-85.9375 226.562 686
-359.375 -7.8125 913
242.188 320.312 595
171.875 -117.188 661
398.438 -382.812 2618
382.812 320.312 591
-250 226.562 856
-328.125 -453.125 3037
390.625 62.5 730
320.312 -359.375 744
226.562 437.5 573
375 -140.625 736
140.625 -281.25 789
320.312 -70.3125 707
429.688 226.562 591
351.562 -210.938 706
46.875 -70.3125 694
-328.125 -187.5 930
429.688 335.938 603
-148.438 -289.062 1010
0 265.625 655
406.25 312.5 588
-390.625 85.9375 943
117.188 -296.875 807
-234.375 23.4375 790
-273.438 265.625 1557
210.938 -390.625 744
156.25 -85.9375 684
359.375 78.125 725
-54.6875 226.562 678
31.25 -234.375 683
-101.562 367.188 785
-398.438 164.062 1947
468.75 195.312 659
-335.938 148.438 908
54.6875 312.5 632
-445.312 23.4375 989
-351.562 -304.688 1288
78.125 -54.6875 688
-382.812 281.25 1785
-210.938 93.75 752
-164.062 -414.062 1415
382.812 -203.125 898
195.312 -312.5 750
7.8125 -23.4375 754
-453.125 -414.062 3010
195.312 406.25 589
406.25 -46.875 647
-31.25 -148.438 691
296.875 -85.9375 722
312.5 375 595
117.188 31.25 722
-320.312 -39.0625 851
-195.312 -101.562 851
85.9375 335.938 623
140.625 -273.438 794
-359.375 -296.875 1283
218.75 -62.5 807
-15.625 -39.0625 761
328.125 -54.6875 654
242.188 -390.625 739
-62.5 218.75 680
281.25 -328.125 736
-78.125 -390.625 1359
382.812 -195.312 727
187.5 -437.5 776
414.062 250 592
-156.25 320.312 809
-343.75 -304.688 1297
-101.562 -265.625 1210
-414.062 54.6875 964
312.5 210.938 632
125 359.375 611
-140.625 156.25 714
-210.938 -23.4375 813
-132.812 359.375 1227
320.312 -132.812 713
-93.75 -85.9375 845
-23.4375 -109.375 713
-179.688 -414.062 1404
273.438 -234.375 767
-273.438 -171.875 1016
359.375 -218.75 698
359.375 328.125 611
-296.875 429.688 1624
101.562 -304.688 825
-320.312 -85.9375 864
289.062 328.125 584
171.875 -125 657
203.125 414.062 585
-289.062 -132.812 875
-187.5 -78.125 956
343.75 -109.375 752
-179.688 -70.3125 951
-351.562 125 923
398.438 281.25 603
-242.188 -406.25 3120
-390.625 109.375 1410
210.938 -304.688 744
-218.75 171.875 831
-62.5 -382.812 1343
195.312 -343.75 746
359.375 -62.5 710
296.875 281.25 613
390.625 273.438 606
359.375 -54.6875 648
-320.312 -195.312 943
-156.25 -93.75 925
-31.25 -171.875 678
-132.812 164.062 710
-132.812 -54.6875 831
382.812 -234.375 923
-242.188 -250 1034
312.5 -289.062 747
109.375 -304.688 821
156.25 -164.062 638
-281.25 -390.625 3064
54.6875 -93.75 676
-39.0625 242.188 671
-265.625 -289.062 1022
-218.75 179.688 878
-93.75 304.688 805
242.188 445.312 571
234.375 -62.5 755
-289.062 -164.062 1001
-335.938 -46.875 860
187.5 -445.312 778
320.312 -109.375 713
-85.9375 -62.5 829
-281.25 -343.75 1333
375 -132.812 741
93.75 359.375 619
-328.125 156.25 906
179.688 -140.625 862
-171.875 304.688 817
-23.4375 -101.562 719
-62.5 -101.562 734
437.5 -70.3125 657
-328.125 -460.938 3037
312.5 367.188 598
-250 70.3125 767
-312.5 242.188 1586
-257.812 -390.625 3092
359.375 -78.125 716
140.625 -375 778
460.938 -125 683
-296.875 -335.938 1328
296.875 -125 747
-414.062 414.062 1639
-492.188 -15.625 1031
304.688 -140.625 713
-304.688 -210.938 967
-93.75 429.688 1392
406.25 -132.812 722
-148.438 -93.75 1016
343.75 -70.3125 717
195.312 -148.438 869
453.125 234.375 643
-257.812 -70.3125 851
445.312 234.375 643
-273.438 -93.75 851
-296.875 -226.562 978
54.6875 304.688 636
273.438 -148.438 719
-210.938 -15.625 811
351.562 226.562 618
-289.062 -257.812 1001
-31.25 -179.688 672
445.312 195.312 662
289.062 -117.188 746
351.562 -171.875 723
460.938 -54.6875 654
-226.562 85.9375 757
70.3125 -15.625 719
367.188 -242.188 688
-304.688 -78.125 858
390.625 -210.938 903
250 453.125 566
-281.25 -398.438 3120
359.375 -70.3125 713
-351.562 -109.375 860
195.312 -164.062 878
328.125 -398.438 755
93.75 335.938 622
382.812 -179.688 725
-484.375 -210.938 1206
187.5 -46.875 800
195.312 -140.625 862
453.125 -132.812 691
328.125 -171.875 708
375 -85.9375 719
304.688 -156.25 711
23.4375 -109.375 684
-171.875 -39.0625 823
195.312 -156.25 871
-148.438 -70.3125 839
-375 195.312 1557
-70.3125 390.625 767
-125 -281.25 998
187.5 -39.0625 796
164.062 -406.25 771
23.4375 281.25 648
125 375 606
-132.812 281.25 819
187.5 453.125 611
23.4375 -343.75 1292
187.5 -156.25 871
250 312.5 594
-296.875 195.312 891
-70.3125 281.25 747
-148.438 156.25 714
-351.562 70.3125 951
156.25 -359.375 764
187.5 -296.875 755
359.375 -226.562 694
226.562 -320.312 739
-242.188 -226.562 1044
-203.125 109.375 744
-460.938 -406.25 2984
171.875 398.438 593
148.438 375 604
179.688 -445.312 776
-195.312 -7.8125 807
-343.75 -31.25 880
289.062 -406.25 744
132.812 -343.75 781
187.5 421.875 585
-140.625 -195.312 923
-437.5 -421.875 3064
-390.625 179.688 1915
-15.625 -46.875 755
312.5 304.688 603
328.125 -179.688 708
187.5 406.25 589
164.062 -70.3125 700
-250 -93.75 847
273.438 -187.5 723
-273.438 -429.688 3238
-31.25 -164.062 680
328.125 -187.5 707
-117.188 -218.75 1161
-210.938 -31.25 813
250 -335.938 736
-187.5 -101.562 854
-390.625 312.5 1757
101.562 -187.5 647
460.938 281.25 606
-273.438 148.438 896
85.9375 -117.188 646
-125 -109.375 1004
85.9375 398.438 682
-218.75 93.75 752
421.875 320.312 610
31.25 289.062 643
437.5 -39.0625 652
-359.375 -117.188 867
-85.9375 -125 869
-93.75 -117.188 862
148.438 -257.812 790
265.625 367.188 600
312.5 320.312 596
-164.062 -125 856
187.5 -31.25 790
-203.125 0 802
328.125 -195.312 704
54.6875 -117.188 661
351.562 -125 754
-15.625 -54.6875 744
398.438 289.062 600
-195.312 -54.6875 903
171.875 390.625 596
179.688 -312.5 754
-312.5 39.0625 871
375 -117.188 747
328.125 -85.9375 704
242.188 437.5 575
109.375 -171.875 637
70.3125 -132.812 644
-367.188 -93.75 1073
359.375 -85.9375 722
-335.938 -171.875 915
-250 242.188 858
62.5 312.5 634
421.875 15.625 752
-226.562 -93.75 849
-328.125 242.188 1594
390.625 179.688 604
390.625 -226.562 918
296.875 -132.812 741
-312.5 109.375 923
390.625 -257.812 946
328.125 351.562 602
-453.125 -234.375 1227
-93.75 -109.375 860
-304.688 -226.562 973
-23.4375 250 664
-351.562 -23.4375 882
320.312 273.438 601
-179.688 125 733
-148.438 31.25 780
382.812 -164.062 723
-296.875 -242.188 987
-351.562 -156.25 891
171.875 -406.25 764
-148.438 148.438 717
132.812 -351.562 781
-382.812 -156.25 1130
320.312 265.625 602
312.5 -148.438 711
171.875 -93.75 694
179.688 -421.875 766
-328.125 164.062 898
7.8125 -234.375 683
242.188 328.125 618
132.812 46.875 733
289.062 -109.375 752
367.188 -54.6875 707
-328.125 148.438 906
-179.688 -109.375 854
296.875 273.438 613
210.938 -203.125 807
-70.3125 -101.562 854
359.375 -218.75 698
296.875 -289.062 744
250 445.312 571
421.875 281.25 614
-203.125 101.562 747
-343.75 195.312 1579
156.25 -242.188 798
296.875 335.938 578
-156.25 -148.438 867
382.812 -54.6875 706
-31.25 -187.5 667
320.312 257.812 604
-164.062 304.688 811
-23.4375 -70.3125 741
-359.375 -7.8125 913
406.25 -46.875 647
-70.3125 210.938 684
335.938 -46.875 650
375 -46.875 643
109.375 -132.812 628
-234.375 304.688 1523
-304.688 70.3125 875
359.375 -234.375 691
164.062 -7.8125 736
-148.438 -140.625 862
-31.25 -179.688 672
-343.75 -109.375 858
421.875 242.188 592
-359.375 7.8125 913
-54.6875 429.688 1333
-195.312 -39.0625 825
132.812 382.812 604
398.438 -281.25 2560
390.625 -203.125 898
-242.188 31.25 785
132.812 31.25 719
39.0625 -335.938 1273
203.125 -437.5 741
-257.812 -359.375 1359
312.5 289.062 603
-257.812 62.5 773
-203.125 -23.4375 813
-359.375 -304.688 1288
328.125 -54.6875 654
195.312 -328.125 747
-359.375 117.188 928
-148.438 335.938 800
-335.938 -335.938 2883
-406.25 -265.625 1250
-101.562 -78.125 841
195.312 -429.688 761
-171.875 -23.4375 815
-7.8125 -125 691
210.938 -289.062 749
-117.188 179.688 701
-421.875 390.625 1671
390.625 179.688 604
148.438 70.3125 739
-343.75 132.812 915
-312.5 164.062 896
-93.75 -85.9375 845
-203.125 -390.625 1387
187.5 -125 849
164.062 -101.562 678
476.562 195.312 659
-289.062 -437.5 3092
-304.688 398.438 1663
0 406.25 752
156.25 -312.5 769
289.062 -101.562 716
195.312 -132.812 858
132.812 -359.375 783
359.375 -210.938 704
304.688 -148.438 711
46.875 -445.312 2365
-375 -289.062 1278
109.375 390.625 632
46.875 -101.562 676
-15.625 -359.375 1312
218.75 343.75 612
-23.4375 -125 701
343.75 -179.688 723
296.875 -85.9375 722
-109.375 179.688 700
-351.562 -140.625 885
164.062 -335.938 759
312.5 -140.625 711
-101.562 210.938 690
132.812 -289.062 790
367.188 -250 785
85.9375 351.562 622
-335.938 -164.062 915
312.5 -195.312 704
-281.25 -273.438 1013
109.375 -164.062 634
-343.75 31.25 882
171.875 -328.125 755
101.562 -164.062 635
-93.75 -140.625 1084
-234.375 -296.875 1025
171.875 -117.188 661
-242.188 85.9375 761
234.375 328.125 618
-31.25 -171.875 678
-203.125 -54.6875 894
-351.562 210.938 1601
-62.5 218.75 680
109.375 -54.6875 671
406.25 -54.6875 647
148.438 -7.8125 713
304.688 -54.6875 657
-367.188 -296.875 1283
-85.9375 -132.812 867
-312.5 -195.312 956
-156.25 140.625 723
-218.75 335.938 1489
-101.562 -257.812 1202
-117.188 -46.875 823
93.75 343.75 619
-359.375 23.4375 908
320.312 -171.875 707
437.5 -62.5 653
367.188 -15.625 650
375 210.938 601
117.188 -23.4375 687
375 -125 744
-203.125 -15.625 811
-414.062 62.5 962
46.875 31.25 767
351.562 -93.75 762
195.312 -171.875 882
273.438 15.625 678
-39.0625 -171.875 680
312.5 -164.062 710
187.5 -23.4375 787
54.6875 -23.4375 723
-187.5 117.188 738
164.062 -406.25 771
140.625 367.188 608
195.312 -281.25 755
343.75 257.812 602
46.875 23.4375 762
351.562 -187.5 706
-15.625 -70.3125 736
242.188 15.625 762
-31.25 -187.5 667
117.188 351.562 614
62.5 328.125 628
-164.062 -31.25 817
-289.062 -257.812 1001
-250 -15.625 867
-226.562 -54.6875 851
132.812 -296.875 789
382.812 328.125 591
156.25 398.438 596
359.375 -78.125 716
-195.312 -210.938 1038
359.375 -93.75 727
-367.188 171.875 1516
-78.125 -390.625 1359
171.875 -226.562 800
320.312 -164.062 710
-179.688 -171.875 885
-109.375 -70.3125 837
195.312 -140.625 862
234.375 -296.875 742
-226.562 -289.062 1022
46.875 -390.625 2485
312.5 218.75 632
46.875 -31.25 723
-109.375 -406.25 1381
195.312 -148.438 869
-23.4375 -109.375 713
46.875 -453.125 2365
-148.438 -78.125 839
140.625 -273.438 794
-7.8125 156.25 706
-179.688 -70.3125 951
-250 -39.0625 854
-320.312 -320.312 1307
0 -179.688 659
-195.312 398.438 1655
429.688 304.688 615
-367.188 -62.5 1047
226.562 429.688 579
-289.062 -250 992
195.312 -125 849
171.875 -414.062 769
289.062 -148.438 723
-218.75 117.188 749
156.25 -398.438 773
367.188 -7.8125 652
-46.875 234.375 672
382.812 242.188 594
-39.0625 -125 711
-320.312 218.75 1601
-421.875 101.562 1404
164.062 -109.375 661
-242.188 -460.938 3300
-85.9375 -54.6875 827
460.938 -23.4375 773
179.688 414.062 589
210.938 15.625 764
-359.375 7.8125 913
-281.25 -148.438 998
-109.375 359.375 787
-31.25 242.188 670
328.125 -117.188 713
-359.375 31.25 896
-210.938 -39.0625 880
-460.938 -429.688 2933
382.812 -156.25 727
359.375 -203.125 706
359.375 -203.125 706
375 -109.375 750
390.625 -210.938 903
304.688 -78.125 662
-85.9375 -117.188 862
312.5 -156.25 711
437.5 -39.0625 652
117.188 -171.875 637
335.938 -312.5 750
0 -226.562 676
-210.938 7.8125 798
351.562 335.938 608
-140.625 -46.875 825
-398.438 359.375 1696
46.875 -468.75 2317
-312.5 -210.938 959
390.625 -218.75 913
226.562 -421.875 733
351.562 210.938 627
250 -421.875 725
-132.812 -54.6875 831
171.875 -359.375 755
7.8125 -234.375 683
398.438 -39.0625 646
289.062 289.062 611
-101.562 -78.125 841
-39.0625 437.5 1376
-242.188 -210.938 1044
132.812 -125 627
328.125 -328.125 744
-187.5 -62.5 903
445.312 -46.875 652
171.875 39.0625 754
-242.188 70.3125 766
-117.188 171.875 706
382.812 -85.9375 722
-23.4375 -132.812 697
-117.188 -210.938 1153
-476.562 0 1010
429.688 -78.125 662
-359.375 0 913
187.5 -132.812 858
85.9375 -101.562 655
-390.625 132.812 1439
-250 125 819
-328.125 -39.0625 887
-164.062 132.812 728
-85.9375 -140.625 1084
-242.188 62.5 769
382.812 -164.062 723
320.312 -218.75 700
296.875 359.375 577
273.438 460.938 565
-257.812 46.875 780
328.125 -226.562 696
-70.3125 210.938 684
-93.75 -148.438 1097
-398.438 171.875 1915
312.5 -273.438 752
109.375 -187.5 647
-390.625 320.312 1748
7.8125 7.8125 780
-234.375 -468.75 3300
453.125 273.438 610
-148.438 -101.562 1007
-421.875 78.125 1338
312.5 -70.3125 658
-304.688 46.875 875
-31.25 265.625 667
-39.0625 382.812 766
15.625 406.25 752
140.625 375 604
406.25 -39.0625 646
-15.625 -187.5 662
-281.25 -250 1010
-203.125 0 802
351.562 -62.5 711
-218.75 -93.75 849
195.312 -132.812 858
429.688 -93.75 707
289.062 -289.062 741
23.4375 -406.25 2450
-148.438 -132.812 1001
328.125 234.375 614
375 -226.562 694
-359.375 23.4375 908
312.5 296.875 603
335.938 312.5 600
-367.188 187.5 1550
164.062 -281.25 769
-85.9375 -132.812 867
15.625 281.25 649
265.625 -398.438 738
-359.375 -140.625 878
-343.75 31.25 882
-343.75 -7.8125 873
382.812 195.312 601
468.75 -117.188 683
-234.375 -476.562 3269
-179.688 117.188 738
195.312 -359.375 746
-273.438 -414.062 3178
-250 -414.062 3149
132.812 -351.562 781
-296.875 -250 989
203.125 -414.062 749
171.875 -250 781
203.125 -31.25 789
195.312 -117.188 845
-351.562 -23.4375 882
-117.188 -203.125 1149
-343.75 -140.625 885
320.312 320.312 596
164.062 -234.375 798
-273.438 -375 2958
-109.375 -234.375 1177
-429.688 -429.688 3037
148.438 -382.812 774
-132.812 -234.375 954
343.75 -23.4375 648
-328.125 -234.375 975
156.25 -304.688 769
-85.9375 -109.375 860
101.562 367.188 616
-23.4375 -125 701
328.125 -164.062 711
140.625 31.25 728
-320.312 -31.25 885
117.188 -164.062 635
-132.812 179.688 704
-101.562 187.5 696
-125 -234.375 956
289.062 -78.125 663
390.625 -195.312 894
-242.188 31.25 785
-132.812 -164.062 878
-7.8125 -218.75 672
-359.375 -125 867
-382.812 -78.125 1060
-218.75 -54.6875 889
-7.8125 257.812 661
-62.5 234.375 678
-85.9375 -125 869
46.875 -203.125 659
375 -234.375 694
203.125 -210.938 803
453.125 234.375 643
179.688 -93.75 694
-328.125 250 1705
-210.938 -7.8125 807
359.375 -195.312 703
-15.625 257.812 662
-320.312 -93.75 862
265.625 296.875 595
109.375 15.625 714
-304.688 -328.125 1322
476.562 -85.9375 811
281.25 296.875 610
62.5 31.25 761
390.625 -203.125 898
46.875 -421.875 2432
23.4375 -375 2541
476.562 -78.125 807
375 -70.3125 711
195.312 -445.312 744
-203.125 -46.875 894
148.438 -257.812 790
-304.688 -46.875 849
-125 164.062 710
-281.25 -343.75 1333
93.75 -171.875 638
265.625 453.125 568
-343.75 -304.688 1297
164.062 382.812 598
382.812 -148.438 731
164.062 -93.75 684
-93.75 -62.5 829
15.625 273.438 652
304.688 281.25 607
476.562 273.438 624
179.688 -125 851
242.188 -156.25 717
-85.9375 -101.562 856
-179.688 -62.5 833
218.75 429.688 578
-273.438 -85.9375 856
39.0625 414.062 747
-257.812 -85.9375 854
179.688 31.25 755
23.4375 -140.625 663
195.312 -109.375 839
62.5 -62.5 691
140.625 -375 778
328.125 -54.6875 654
-335.938 46.875 887
-257.812 -54.6875 849
164.062 -46.875 714
179.688 -304.688 755
-195.312 -62.5 903
-304.688 171.875 894
54.6875 -203.125 658
85.9375 382.812 657
-281.25 398.438 1655
54.6875 312.5 632
-164.062 -117.188 925
132.812 359.375 611
-265.625 -257.812 1028
93.75 -109.375 647
203.125 -382.812 744
390.625 328.125 588
-78.125 210.938 686
-328.125 -179.688 925
-320.312 -195.312 943
343.75 -46.875 649
343.75 328.125 612
-312.5 -203.125 956
46.875 304.688 637
351.562 -289.062 762
39.0625 -164.062 647
109.375 351.562 614
179.688 -218.75 803
-23.4375 -187.5 664
39.0625 -203.125 659
-382.812 289.062 1785
132.812 -343.75 781
328.125 367.188 598
375 289.062 602
179.688 -109.375 841
-15.625 250 666
31.25 -54.6875 714
23.4375 281.25 648
132.812 -328.125 785
460.938 187.5 664
-289.062 257.812 1564
335.938 -70.3125 701
-101.562 -281.25 1227
-265.625 -226.562 1038
250 -328.125 736
195.312 -101.562 835
382.812 -78.125 714
273.438 359.375 581
-78.125 203.125 688
-359.375 -132.812 871
-125 343.75 794
-453.125 15.625 995
-250 39.0625 781
-468.75 343.75 1722
-250 62.5 773
375 -117.188 747
117.188 -171.875 637
375 -39.0625 643
140.625 -367.188 776
195.312 -125 849
476.562 -101.562 821
-320.312 -54.6875 851
-171.875 125 733
187.5 0 774
265.625 -335.938 734
359.375 289.062 599
-242.188 312.5 1516
187.5 7.8125 769
-359.375 31.25 896
15.625 7.8125 776
351.562 -109.375 759
187.5 -15.625 781
296.875 -93.75 723
156.25 -54.6875 694
-156.25 -132.812 858
125 359.375 611
54.6875 304.688 636
-429.688 -250 1236
281.25 -335.938 734
359.375 -85.9375 722
0 -226.562 676
406.25 257.812 594
328.125 -335.938 746
-15.625 -62.5 741
328.125 -351.562 744
31.25 289.062 643
429.688 15.625 752
148.438 375 604
101.562 359.375 614
-343.75 -31.25 880
0 289.062 652
70.3125 7.8125 736
85.9375 328.125 627
203.125 429.688 580
164.062 -320.312 761
304.688 328.125 582
-15.625 -85.9375 727
359.375 -101.562 762
-23.4375 -132.812 697
398.438 -390.625 2598
187.5 -187.5 896
-359.375 0 913
296.875 23.4375 722
187.5 445.312 594
406.25 54.6875 731
437.5 -15.625 654
-429.688 117.188 2005
-343.75 -132.812 878
-117.188 187.5 698
-171.875 -23.4375 815
148.438 70.3125 739
468.75 -62.5 654
-320.312 156.25 898
125 31.25 719
-7.8125 265.625 657
320.312 -265.625 700
-257.812 46.875 780
78.125 -62.5 682
140.625 -289.062 783
-148.438 -273.438 1007
359.375 -242.188 688
-148.438 171.875 711
46.875 -140.625 652
437.5 328.125 606
234.375 -375 736
265.625 -343.75 734
31.25 -234.375 683
-289.062 203.125 878
-156.25 156.25 716
109.375 375 618
39.0625 -406.25 2467
-343.75 23.4375 878
265.625 375 597
289.062 -312.5 738
359.375 -148.438 739
-23.4375 -140.625 691
-406.25 390.625 1663
-164.062 -414.062 1415
46.875 -476.562 2317
-62.5 242.188 679
312.5 23.4375 710
171.875 -78.125 694
-375 -70.3125 1054
296.875 -312.5 739
304.688 7.8125 667
304.688 382.812 593
242.188 -195.312 805
375 -93.75 725
-117.188 -62.5 833
-23.4375 -148.438 687
-195.312 109.375 741
-101.562 -164.062 1112
453.125 195.312 662
93.75 23.4375 730
414.062 335.938 604
117.188 -148.438 628
359.375 -351.562 762
195.312 -226.562 789
-335.938 46.875 887
-171.875 -109.375 925
156.25 62.5 741
179.688 -179.688 889
179.688 398.438 593
-85.9375 -109.375 860
187.5 -367.188 749
-7.8125 -359.375 1312
359.375 218.75 606
-85.9375 -54.6875 827
195.312 -429.688 761
468.75 289.062 620
-140.625 156.25 714
328.125 250 607
54.6875 -117.188 661
398.438 -46.875 647
85.9375 -117.188 646
-7.8125 0 785
359.375 -195.312 703
398.438 265.625 607
429.688 250 592
179.688 -78.125 819
-187.5 406.25 1639
-343.75 7.8125 875
390.625 -226.562 918
195.312 -85.9375 825
-117.188 351.562 789
-257.812 54.6875 776
-343.75 31.25 882
460.938 265.625 618
382.812 320.312 591
437.5 -109.375 694
375 -296.875 778
-101.562 320.312 798
-179.688 -15.625 809
-109.375 195.312 696
-320.312 93.75 933
390.625 -187.5 725
-250 78.125 764
375 -46.875 643
296.875 -132.812 741
218.75 -429.688 733
312.5 -70.3125 658
281.25 -85.9375 668
-375 46.875 964
468.75 203.125 655
320.312 -343.75 742
-125 281.25 819
-406.25 101.562 1392
195.312 414.062 585
-179.688 289.062 819
-62.5 398.438 766
-15.625 -210.938 670
343.75 -375 755
-109.375 -242.188 1185
187.5 -445.312 778
195.312 406.25 589
-296.875 -234.375 981
335.938 -93.75 706
-164.062 140.625 725
-7.8125 -218.75 672
-171.875 -78.125 975
-445.312 54.6875 1268
320.312 -62.5 655
-15.625 -54.6875 744
273.438 367.188 600
406.25 -31.25 646
320.312 -382.812 749
-273.438 85.9375 802
78.125 328.125 627
398.438 257.812 597
179.688 -132.812 858
156.25 -289.062 773
-101.562 -171.875 1115
375 -101.562 755
-359.375 -132.812 871
-359.375 -468.75 3208
-85.9375 -117.188 862
359.375 -289.062 764
460.938 234.375 642
23.4375 -343.75 1292
382.812 -46.875 643
406.25 -39.0625 646
242.188 445.312 571
140.625 367.188 608
218.75 -39.0625 792
-445.312 62.5 1333
156.25 -62.5 688
359.375 226.562 616
382.812 -140.625 731
195.312 -93.75 829
312.5 -406.25 755
406.25 -101.562 733
54.6875 -226.562 674
-343.75 -164.062 901
93.75 335.938 622
-187.5 -54.6875 827
-375 210.938 1873
195.312 -117.188 845
406.25 -46.875 647
-70.3125 210.938 684
187.5 -429.688 767
-218.75 93.75 752
-296.875 -15.625 869
304.688 -164.062 711
23.4375 -46.875 727
218.75 421.875 582
296.875 -125 747
-414.062 -257.812 1245
460.938 296.875 616
-351.562 -15.625 885
335.938 -117.188 750
62.5 -15.625 723
-23.4375 429.688 749
164.062 54.6875 746
-382.812 0 998
195.312 0 773
312.5 312.5 600
-117.188 -187.5 1044
242.188 460.938 566
-187.5 296.875 831
289.062 468.75 562
-78.125 -93.75 849
335.938 -101.562 711
-23.4375 -367.188 1312
-320.312 -140.625 878
250 -289.062 742
-101.562 -250 1193
-171.875 -31.25 817
-375 257.812 1823
320.312 -250 700
-109.375 -140.625 1010
125 23.4375 714
406.25 250 592
187.5 -312.5 752
-210.938 23.4375 789
-320.312 250 1586
234.375 -312.5 741
148.438 390.625 598
429.688 -156.25 706
203.125 -343.75 742
187.5 15.625 766
-171.875 296.875 817
-320.312 -7.8125 867
-125 390.625 1307
382.812 -132.812 738
359.375 -140.625 742
-343.75 15.625 878
-140.625 -46.875 825
23.4375 -171.875 652
-164.062 -31.25 817
187.5 -234.375 783
62.5 -203.125 658
-39.0625 234.375 672
164.062 -273.438 773
468.75 -125 837
375 70.3125 728
195.312 -445.312 744
-328.125 281.25 1794
-54.6875 226.562 678
109.375 343.75 618
414.062 234.375 589
31.25 39.0625 764
453.125 234.375 643
78.125 39.0625 754
390.625 -195.312 894
-265.625 78.125 774
-234.375 320.312 1509
375 -281.25 783
109.375 -187.5 647
-195.312 -93.75 851
375 218.75 600
70.3125 23.4375 749
179.688 -195.312 903
-156.25 -140.625 862
132.812 -335.938 781
257.812 453.125 569
-437.5 31.25 984
171.875 -109.375 661
-367.188 -468.75 3178
109.375 -70.3125 661
343.75 234.375 611
-132.812 164.062 710
328.125 -203.125 703
-296.875 117.188 918
-140.625 -93.75 843
398.438 179.688 601
-210.938 -70.3125 898
195.312 -171.875 882
-281.25 78.125 792
296.875 -117.188 717
78.125 -148.438 635
-335.938 -23.4375 878
156.25 -250 794
148.438 -382.812 774
-343.75 23.4375 878
320.312 -242.188 700
39.0625 -367.188 2541
210.938 -437.5 733
-109.375 179.688 700
179.688 -289.062 761
101.562 335.938 621
-195.312 289.062 829
-226.562 -375 1370
7.8125 -179.688 655
265.625 304.688 595
-23.4375 -148.438 687
-148.438 -39.0625 823
421.875 250 592
-218.75 15.625 794
-23.4375 -156.25 682
-281.25 -132.812 873
-23.4375 242.188 670
-265.625 -351.562 1343
-359.375 15.625 910
140.625 -23.4375 687
132.812 367.188 608
375 -125 744
-62.5 226.562 678
-242.188 250 849
210.938 -31.25 789
-359.375 0 913
-210.938 195.312 867
203.125 414.062 585
-148.438 351.562 1202
-328.125 -171.875 925
195.312 -375 747
-156.25 250 835
-85.9375 -125 869
-125 171.875 706
171.875 -179.688 643
-117.188 -289.062 998
-296.875 -70.3125 851
-296.875 203.125 891
39.0625 -375 2522
132.812 7.8125 704
-484.375 -390.625 2933
54.6875 -281.25 1214
-78.125 398.438 774
-242.188 -367.188 1365
218.75 -46.875 798
-320.312 171.875 901
195.312 -70.3125 813
328.125 -78.125 703
328.125 -93.75 706
-15.625 -85.9375 727
54.6875 -70.3125 693
-148.438 -62.5 835
-343.75 -156.25 896
85.9375 31.25 742
-195.312 101.562 746
203.125 15.625 764
-226.562 78.125 761
-7.8125 -15.625 773
289.062 -320.312 738
-187.5 109.375 739
265.625 -46.875 676
187.5 -296.875 755
-375 218.75 1873
-148.438 164.062 711
132.812 -304.688 783
-23.4375 250 664
406.25 -304.688 2598
187.5 -437.5 776
265.625 39.0625 749
-289.062 -140.625 875
375 -273.438 790
-398.438 -93.75 1077
-328.125 -460.938 3037
171.875 -250 781
234.375 -320.312 738
328.125 257.812 603
414.062 296.875 620
-132.812 156.25 713
-281.25 -156.25 1004
140.625 -359.375 774
375 328.125 609
335.938 156.25 687
101.562 54.6875 747
-312.5 -203.125 956
140.625 46.875 747
382.812 -85.9375 722
-250 39.0625 781
-171.875 -93.75 925
312.5 281.25 603
101.562 -195.312 652
-156.25 140.625 723
375 -109.375 750
125 -54.6875 667
-85.9375 203.125 690
70.3125 195.312 683
375 250 609
62.5 -156.25 641
296.875 -101.562 716
195.312 -156.25 871
-484.375 -15.625 1022
-117.188 171.875 706
-132.812 -93.75 849
328.125 -109.375 713
359.375 -101.562 762
-171.875 132.812 730
-226.562 328.125 1503
-351.562 46.875 891
-406.25 398.438 1655
-85.9375 -148.438 1094
-320.312 -445.312 3120
-234.375 15.625 796
453.125 203.125 658
390.625 -210.938 903
-109.375 -70.3125 837
195.312 -78.125 817
234.375 23.4375 759
-257.812 -414.062 3178
140.625 -281.25 789
-406.25 -101.562 1084
-226.562 0 803
-187.5 -7.8125 807
-210.938 -85.9375 858
304.688 -132.812 711
-85.9375 -85.9375 845
429.688 -242.188 925
359.375 273.438 600
-109.375 -273.438 981
-382.812 234.375 1843
78.125 320.312 630
-398.438 351.562 1705
-210.938 101.562 746
257.812 -406.25 733
-125 -226.562 954
164.062 -304.688 764
195.312 -195.312 813
-312.5 335.938 1722
-343.75 62.5 894
-210.938 109.375 746
-164.062 -85.9375 925
210.938 -429.688 736
187.5 406.25 589
195.312 -203.125 813
-78.125 203.125 688
-304.688 -218.75 970
-382.812 296.875 1776
-335.938 -101.562 858
-289.062 -250 992
390.625 281.25 603
7.8125 273.438 652
39.0625 296.875 641
390.625 -250 938
-250 62.5 773
296.875 -156.25 730
382.812 -242.188 930
382.812 -46.875 643
367.188 187.5 612
-164.062 -62.5 833
187.5 -148.438 869
304.688 320.312 597
-109.375 -406.25 1381
-156.25 -156.25 875
187.5 23.4375 761
-140.625 -203.125 933
382.812 -54.6875 706
359.375 -109.375 759
304.688 335.938 578
-23.4375 -164.062 675
-23.4375 -421.875 3064
437.5 304.688 615
335.938 343.75 607
-195.312 -31.25 819
359.375 -195.312 703
-23.4375 -156.25 682
-218.75 85.9375 757
-351.562 -109.375 860
351.562 -218.75 701
-265.625 -93.75 847
359.375 -265.625 776
273.438 23.4375 738
-359.375 -125 867
460.938 203.125 658
476.562 -70.3125 802
54.6875 304.688 636
93.75 -195.312 652
398.438 -218.75 910
390.625 -203.125 898
-351.562 -156.25 891
-218.75 39.0625 780
-179.688 304.688 817
148.438 -375 773
242.188 437.5 575
429.688 -375 2560
437.5 195.312 662
-203.125 -390.625 1387
31.25 -78.125 700
-140.625 -101.562 1007
-117.188 -62.5 833
-15.625 -93.75 717
179.688 328.125 620
195.312 -62.5 807
-132.812 -203.125 935
-312.5 -101.562 854
-101.562 -250 1193
117.188 -179.688 642
289.062 -187.5 725
-117.188 -109.375 856
359.375 -203.125 706
-320.312 257.812 1722
-429.688 39.0625 975
460.938 257.812 619
296.875 -109.375 716
398.438 273.438 606
328.125 -234.375 696
-15.625 -101.562 716
-398.438 367.188 1688
-7.8125 -31.25 762
-148.438 -70.3125 839
132.812 -328.125 785
390.625 -187.5 725
-304.688 117.188 918
93.75 -117.188 641
-437.5 -242.188 1227
46.875 23.4375 762
132.812 -320.312 783
437.5 335.938 602
-375 171.875 1516
250 445.312 571
70.3125 -179.688 646
-85.9375 -117.188 862
265.625 460.938 565
382.812 -148.438 731
78.125 -85.9375 667
351.562 320.312 614
-273.438 -78.125 854
132.812 -312.5 783
7.8125 -117.188 688
-93.75 195.312 691
31.25 -359.375 2560
-343.75 -164.062 901
351.562 -70.3125 716
187.5 -101.562 833
390.625 335.938 588
-156.25 148.438 717
312.5 -70.3125 658
-226.562 85.9375 757
-296.875 -85.9375 860
289.062 460.938 564
-62.5 -23.4375 803
31.25 15.625 769
-7.8125 -23.4375 767
-343.75 23.4375 878
-164.062 -78.125 975
-140.625 -148.438 878
460.938 234.375 642
-85.9375 -101.562 856
390.625 -179.688 725
179.688 -117.188 845
-351.562 -148.438 889
203.125 -164.062 878
-398.438 359.375 1696
-39.0625 234.375 672
117.188 -164.062 635
0 31.25 769
335.938 -226.562 691
335.938 351.562 602
-273.438 -281.25 1019
-234.375 -265.625 1031
-179.688 -15.625 809
15.625 281.25 649
296.875 -93.75 723
54.6875 -54.6875 701
195.312 -210.938 805
359.375 -132.812 747
296.875 468.75 560
250 -335.938 736
85.9375 -54.6875 684
-367.188 -289.062 1273
382.812 -125 741
328.125 -210.938 701
-343.75 398.438 1655
-187.5 -398.438 1398
-54.6875 -109.375 731
250 437.5 573
390.625 -171.875 719
156.25 -390.625 769
70.3125 -132.812 644
-312.5 -187.5 956
304.688 -85.9375 717
-484.375 -210.938 1206
-195.312 273.438 829
23.4375 281.25 648
-125 164.062 710
187.5 -85.9375 823
46.875 -164.062 646
-210.938 203.125 862
-328.125 195.312 1609
367.188 -265.625 789
-273.438 -265.625 1022
-218.75 -54.6875 889
414.062 -54.6875 649
-171.875 -109.375 925
-15.625 250 666
-273.438 273.438 1550
-304.688 -328.125 1322
406.25 -320.312 2618
382.812 218.75 596
156.25 375 603
398.438 46.875 738
-296.875 -234.375 981
-46.875 226.562 676
359.375 -218.75 698
351.562 226.562 618
312.5 -132.812 711
-148.438 -93.75 1016
-328.125 -468.75 3037
-101.562 -281.25 1227
351.562 -375 762
359.375 335.938 608
367.188 -218.75 698
437.5 234.375 591
148.438 -265.625 790
39.0625 -15.625 738
359.375 -171.875 725
171.875 390.625 596
-289.062 -226.562 995
-421.875 62.5 973
46.875 -62.5 701
62.5 -140.625 646
-265.625 289.062 1543
148.438 -273.438 785
-335.938 23.4375 875
429.688 -85.9375 666
414.062 226.562 589
492.188 281.25 620
-296.875 -445.312 3120
187.5 -195.312 817
-335.938 -15.625 875
359.375 -210.938 704
359.375 -195.312 703
351.562 -7.8125 652
257.812 -335.938 734
234.375 -343.75 736
-210.938 93.75 752
-117.188 -187.5 1044
382.812 70.3125 727
-343.75 -148.438 891
453.125 289.062 606
359.375 -117.188 755
164.062 -265.625 776
-85.9375 -148.438 1094
195.312 -46.875 800
23.4375 -421.875 2415
468.75 -54.6875 654
250 328.125 594
-148.438 148.438 717
-101.562 -179.688 1123
203.125 -156.25 871
-320.312 -187.5 938
93.75 46.875 747
320.312 -164.062 710
-335.938 187.5 1594
-187.5 -46.875 827
421.875 242.188 592
-304.688 -39.0625 849
-78.125 -109.375 860
476.562 203.125 655
171.875 46.875 749
85.9375 328.125 627
335.938 234.375 612
-382.812 242.188 1833
164.062 382.812 598
289.062 -328.125 736
46.875 -46.875 713
54.6875 46.875 755
414.062 -46.875 647
39.0625 351.562 688
-23.4375 -164.062 675
-23.4375 -171.875 670
414.062 312.5 586
320.312 -156.25 710
414.062 -46.875 647
335.938 -242.188 690
-179.688 125 733
-367.188 226.562 1853
-281.25 -164.062 1010
101.562 343.75 619
-226.562 23.4375 790
-101.562 -78.125 841
-351.562 -15.625 885
7.8125 265.625 655
476.562 -109.375 827
31.25 -414.062 2432
15.625 273.438 652
-335.938 -171.875 915
382.812 -132.812 738
359.375 -156.25 734
109.375 54.6875 746
156.25 70.3125 738
398.438 -210.938 903
132.812 359.375 611
-187.5 -7.8125 807
-359.375 7.8125 913
421.875 234.375 590
-15.625 -101.562 716
359.375 -359.375 762
-335.938 78.125 946
234.375 -367.188 736
93.75 54.6875 750
320.312 -171.875 707
-101.562 -257.812 1202
156.25 -257.812 789
15.625 -234.375 683
171.875 -70.3125 700
328.125 304.688 601
-156.25 -31.25 815
-250 -70.3125 851
23.4375 -445.312 2381
187.5 -203.125 817
-320.312 -85.9375 864
-148.438 -85.9375 843
390.625 -164.062 719
250 320.312 594
-257.812 -70.3125 851
156.25 -15.625 722
-78.125 -390.625 1359
-7.8125 -359.375 1312
320.312 218.75 630
-273.438 78.125 789
-156.25 -125 923
187.5 -421.875 762
351.562 -242.188 686
406.25 -46.875 647
304.688 -109.375 716
-93.75 187.5 696
273.438 296.875 611
445.312 -39.0625 654
-85.9375 -93.75 851
335.938 -93.75 706
-203.125 -93.75 849
382.812 -164.062 723
171.875 -101.562 686
7.8125 398.438 757
-281.25 -242.188 1010
-23.4375 -179.688 667
304.688 -140.625 713
-39.0625 -375 1328
359.375 -125 750
85.9375 -125 641
210.938 -437.5 733
382.812 -140.625 731
296.875 -429.688 736
31.25 -109.375 679
-242.188 93.75 761
140.625 62.5 744
-117.188 -203.125 1149
375 -242.188 928
-273.438 -15.625 867
-101.562 187.5 696
367.188 -54.6875 707
-15.625 -109.375 707
-132.812 335.938 798
351.562 234.375 611
-171.875 -46.875 829
39.0625 289.062 644
-328.125 -312.5 1302
-195.312 0 802
117.188 -171.875 637
195.312 -429.688 761
62.5 31.25 761
359.375 -164.062 731
203.125 453.125 593
-148.438 -117.188 1004
-359.375 15.625 910
382.812 -46.875 643
328.125 -242.188 696
-85.9375 195.312 691
-203.125 -15.625 811
109.375 -164.062 634
-203.125 281.25 839
-85.9375 -85.9375 845
-7.8125 -46.875 749
-359.375 195.312 1572
-46.875 242.188 671
156.25 -367.188 764
257.812 445.312 571
195.312 -39.0625 798
-93.75 -78.125 841
289.062 468.75 562
-250 62.5 773
-320.312 46.875 878
218.75 421.875 582
312.5 351.562 606
195.312 -101.562 835
210.938 414.062 585
-250 -195.312 1034
289.062 -85.9375 663
335.938 -195.312 707
476.562 -39.0625 781
445.312 -31.25 655
-125 -54.6875 829
476.562 195.312 659
445.312 -54.6875 652
320.312 304.688 602
46.875 296.875 641
195.312 -343.75 746
437.5 -78.125 662
289.062 -320.312 738
335.938 -179.688 711
445.312 -367.188 2560
70.3125 312.5 634
-117.188 -242.188 964
-70.3125 421.875 1322
-187.5 -78.125 956
-304.688 -132.812 875
101.562 -195.312 652
421.875 187.5 599
328.125 320.312 601
-85.9375 382.812 774
406.25 -312.5 2598
367.188 -210.938 698
-117.188 -195.312 1041
-148.438 -39.0625 823
304.688 312.5 601
171.875 -62.5 700
210.938 -15.625 781
-390.625 335.938 1722
-15.625 -117.188 701
7.8125 281.25 649
-257.812 -203.125 1044
-375 265.625 1804
273.438 460.938 565
-335.938 234.375 1609
-132.812 156.25 713
312.5 265.625 606
343.75 250 606
367.188 -234.375 694
289.062 -179.688 723
335.938 -171.875 727
453.125 265.625 612
164.062 -242.188 796
-23.4375 250 664
140.625 -359.375 774
-7.8125 273.438 655
328.125 226.562 630
382.812 -117.188 744
203.125 -148.438 867
460.938 273.438 610
195.312 -414.062 754
320.312 -62.5 655
242.188 39.0625 749
335.938 -85.9375 704
23.4375 -460.938 2349
39.0625 -226.562 675
-445.312 -312.5 2859
-109.375 -406.25 1381
335.938 -187.5 713
-429.688 -460.938 2984
195.312 -31.25 790
-335.938 39.0625 885
-109.375 -437.5 3120
171.875 -85.9375 690
335.938 289.062 598
414.062 -31.25 647
-281.25 -265.625 1013
250 460.938 565
-210.938 273.438 837
-195.312 -54.6875 903
-179.688 117.188 738
-23.4375 242.188 670
304.688 -125 713
117.188 367.188 609
195.312 -437.5 744
-195.312 289.062 829
296.875 -101.562 716
187.5 -437.5 776
203.125 -140.625 860
46.875 -429.688 2432
398.438 -359.375 2618
-281.25 -140.625 873
375 218.75 600
406.25 296.875 593
-46.875 265.625 688
390.625 -54.6875 646
-117.188 -125 1001
367.188 -218.75 698
179.688 429.688 596
406.25 -289.062 2579
-171.875 125 733
187.5 -304.688 754
23.4375 289.062 643
-351.562 -15.625 885
70.3125 320.312 628
296.875 -117.188 717
398.438 -226.562 918
265.625 453.125 568
148.438 46.875 750
-46.875 226.562 676
46.875 -226.562 675
398.438 -210.938 903
-7.8125 257.812 661
-398.438 78.125 954
54.6875 -226.562 674
179.688 -140.625 862
414.062 -54.6875 649
367.188 -78.125 716
-218.75 93.75 752
-62.5 218.75 680
-234.375 -78.125 856
125 54.6875 738
335.938 -117.188 750
-93.75 -265.625 1206
304.688 -85.9375 717
171.875 -54.6875 805
-234.375 335.938 1489
-367.188 234.375 1843
281.25 -187.5 723
-195.312 335.938 1483
164.062 -78.125 694
93.75 335.938 622
242.188 -234.375 767
382.812 -156.25 727
398.438 62.5 728
148.438 54.6875 747
-148.438 140.625 722
-265.625 -351.562 1343
-335.938 -312.5 1297
296.875 320.312 594
-23.4375 367.188 771
-62.5 -101.562 734
390.625 -179.688 725
-406.25 406.25 1647
-351.562 -7.8125 885
281.25 367.188 579
367.188 -156.25 731
296.875 -109.375 716
-195.312 -23.4375 813
117.188 -46.875 668
-164.062 132.812 728
179.688 390.625 595
476.562 -62.5 796
179.688 -179.688 889
312.5 -78.125 711
-78.125 328.125 790
398.438 54.6875 733
-492.188 -23.4375 1031
148.438 -375 773
0 -125 684
-414.062 -109.375 1090
-23.4375 -171.875 670
328.125 -164.062 711
-414.062 85.9375 1365
85.9375 23.4375 738
-132.812 -203.125 935
70.3125 -54.6875 693
15.625 289.062 646
-23.4375 -179.688 667
320.312 -257.812 700
-140.625 148.438 717
-437.5 406.25 1647
367.188 -281.25 776
-437.5 171.875 1936
312.5 335.938 612
390.625 -195.312 894
406.25 -382.812 2579
-85.9375 375 773
414.062 320.312 585
171.875 -406.25 764
-304.688 335.938 1722
-250 -85.9375 858
-140.625 -85.9375 843
101.562 335.938 621
-414.062 406.25 1647
-429.688 414.062 1647
-273.438 -257.812 1025
164.062 -85.9375 690
-140.625 335.938 800
156.25 382.812 598
-390.625 148.438 1477
7.8125 -226.562 676
-320.312 265.625 1722
367.188 -210.938 698
85.9375 343.75 622
-343.75 218.75 1624
-148.438 -289.062 1010
210.938 445.312 577
-156.25 367.188 1452
-179.688 -70.3125 951
-304.688 -62.5 849
187.5 398.438 592
335.938 -101.562 711
-109.375 -218.75 1161
-335.938 -101.562 858
15.625 -234.375 683
390.625 -234.375 923
320.312 375 595
-148.438 -125 1004
-179.688 -421.875 1404
218.75 -289.062 747
-328.125 -453.125 3037
437.5 -70.3125 657
78.125 -132.812 641
-125 -179.688 1047
-375 257.812 1823
-320.312 -101.562 856
281.25 -226.562 771
273.438 31.25 754
218.75 -7.8125 776
15.625 31.25 767
351.562 257.812 602
265.625 -312.5 738
-320.312 54.6875 878
-132.812 390.625 1283
414.062 -101.562 723
-187.5 343.75 1477
-93.75 -273.438 1214
-335.938 -15.625 875
125 -171.875 637
398.438 -203.125 898
257.812 -250 755
406.25 -117.188 730
179.688 -429.688 767
382.812 203.125 598
-414.062 -257.812 1245
-93.75 421.875 1392
117.188 -132.812 627
-7.8125 -39.0625 754
-7.8125 -54.6875 741
328.125 -453.125 2639
437.5 -7.8125 764
-476.562 -15.625 1019
-203.125 117.188 738
203.125 -125 849
-85.9375 -101.562 856
-101.562 -156.25 1013
-273.438 -156.25 1004
23.4375 -46.875 727
-23.4375 226.562 675
304.688 -132.812 711
382.812 -46.875 643
-328.125 -15.625 871
203.125 -117.188 845
-15.625 -125 698
250 -312.5 739
7.8125 -117.188 688
-210.938 -7.8125 807
-203.125 -23.4375 813
304.688 367.188 599
164.062 -398.438 767
-125 367.188 1255
156.25 -343.75 762
296.875 -46.875 661
-367.188 -304.688 1283
0 257.812 661
-375 210.938 1873
-320.312 -187.5 938
375 -250 935
-54.6875 -382.812 1333
195.312 -15.625 781
-335.938 39.0625 885
-15.625 -117.188 701
210.938 -437.5 733
468.75 304.688 613
156.25 -7.8125 728
156.25 -39.0625 706
-375 250 1833
-234.375 31.25 785
-195.312 -62.5 903
390.625 -156.25 720
382.812 -62.5 707
-296.875 210.938 1616
-492.188 -203.125 1197
375 -101.562 755
195.312 -23.4375 787
390.625 -171.875 719
-273.438 -406.25 3149
234.375 429.688 577
312.5 328.125 614
-335.938 -39.0625 882
179.688 398.438 593
156.25 70.3125 738
-273.438 281.25 1550
312.5 -148.438 711
101.562 -140.625 629
140.625 -351.562 774
367.188 -62.5 708
187.5 -445.312 778
179.688 -406.25 762
7.8125 -179.688 655
78.125 -54.6875 688
-132.812 -242.188 962
-226.562 -296.875 1022
-54.6875 398.438 762
484.375 195.312 659
-132.812 164.062 710
210.938 -7.8125 776
70.3125 -62.5 687
367.188 -359.375 764
-148.438 328.125 805
-375 203.125 1624
70.3125 -23.4375 710
-312.5 -39.0625 849
-414.062 390.625 1671
-203.125 218.75 856
-250 -203.125 1041
-93.75 -78.125 841
-195.312 265.625 829
179.688 -437.5 774
-187.5 234.375 843
203.125 -156.25 871
-234.375 281.25 1543
-320.312 -85.9375 864
-382.812 296.875 1776
-195.312 351.562 1477
484.375 273.438 624
351.562 296.875 599
-15.625 -132.812 693
-273.438 218.75 871
-117.188 296.875 809
23.4375 -429.688 2415
-54.6875 218.75 680
445.312 257.812 620
367.188 -70.3125 711
-109.375 -93.75 851
62.5 -281.25 1214
-101.562 179.688 698
-203.125 226.562 849
-265.625 148.438 896
39.0625 -234.375 680
-257.812 -281.25 1022
-187.5 226.562 849
242.188 437.5 575
195.312 -164.062 878
406.25 289.062 600
62.5 312.5 634
203.125 406.25 588
289.062 257.812 647
-203.125 148.438 773
54.6875 -156.25 642
-335.938 156.25 908
125 359.375 611
148.438 -281.25 781
23.4375 -437.5 2415
234.375 -414.062 734
-335.938 -109.375 858
-265.625 140.625 901
-273.438 257.812 1564
31.25 281.25 648
46.875 -164.062 646
382.812 296.875 598
429.688 328.125 606
148.438 -367.188 771
-117.188 -281.25 998
406.25 -335.938 2659
70.3125 -117.188 652
-132.812 -195.312 933
359.375 -179.688 722
281.25 468.75 563
-125 164.062 710
234.375 -421.875 728
398.438 304.688 591
359.375 320.312 614
-195.312 0 802
-351.562 210.938 1601
-101.562 187.5 696
382.812 -226.562 918
335.938 -164.062 731
-328.125 -39.0625 887
-31.25 242.188 670
-171.875 -406.25 1410
179.688 -281.25 762
445.312 -93.75 668
265.625 -281.25 742
484.375 -93.75 815
-203.125 -296.875 1022
-335.938 -31.25 880
382.812 -109.375 747
-23.4375 -187.5 664
109.375 -187.5 647
148.438 7.8125 730
-351.562 -15.625 885
-250 -31.25 882
132.812 359.375 611
-328.125 -179.688 925
-351.562 -117.188 862
0 265.625 655
257.812 -70.3125 680
-171.875 226.562 849
-226.562 85.9375 757
429.688 242.188 592
-335.938 -171.875 915
117.188 -187.5 646
125 -171.875 637
-7.8125 -46.875 749
140.625 70.3125 739
406.25 -281.25 2560
375 226.562 598
382.812 -54.6875 706
328.125 -406.25 759
-101.562 -70.3125 837
-218.75 265.625 843
257.812 453.125 569
289.062 -93.75 762
437.5 304.688 615
359.375 -70.3125 713
367.188 -203.125 706
-273.438 335.938 1722
195.312 -429.688 761
382.812 -132.812 738
-343.75 -23.4375 878
31.25 -140.625 661
390.625 -85.9375 720
-421.875 46.875 973
-351.562 -7.8125 885
429.688 343.75 599
-125 -218.75 946
-7.8125 -62.5 736
320.312 296.875 601
-226.562 78.125 761
-187.5 109.375 739
-351.562 -296.875 1283
-7.8125 7.8125 783
-164.062 -109.375 935
273.438 -398.438 739
-460.938 -304.688 2883
93.75 -195.312 652
351.562 -109.375 759
187.5 -218.75 798
187.5 -390.625 752
-484.375 85.9375 2065
-164.062 382.812 1439
-398.438 375 1680
398.438 -359.375 2618
406.25 -304.688 2598
-250 54.6875 774
164.062 -62.5 700
-15.625 250 666
-398.438 367.188 1688
351.562 328.125 611
-93.75 187.5 696
179.688 -328.125 750
226.562 -359.375 736
320.312 320.312 596
234.375 351.562 607
-281.25 -375 3010
-226.562 93.75 752
-70.3125 210.938 684
367.188 -195.312 703
484.375 -101.562 821
289.062 351.562 577
-460.938 -226.562 1219
-132.812 -78.125 843
-304.688 -328.125 1322
289.062 -218.75 704
-234.375 70.3125 766
-257.812 -390.625 3092
-140.625 187.5 728
-234.375 78.125 762
179.688 39.0625 754
398.438 -195.312 891
359.375 210.938 607
289.062 304.688 606
-296.875 -78.125 858
-210.938 210.938 858
304.688 -93.75 717
437.5 296.875 611
-140.625 265.625 827
-171.875 -70.3125 978
328.125 -226.562 696
-445.312 -234.375 1223
-39.0625 -375 1328
-156.25 -85.9375 989
-62.5 210.938 684
281.25 460.938 565
203.125 -109.375 839
187.5 -351.562 749
-15.625 -109.375 707
-93.75 -85.9375 845
195.312 -85.9375 825
-203.125 101.562 747
257.812 445.312 571
-140.625 156.25 714
382.812 -125 741
-203.125 -31.25 825
-367.188 179.688 1536
429.688 250 592
-171.875 304.688 817
15.625 296.875 646
148.438 367.188 607
390.625 -164.062 719
93.75 328.125 625
250 -343.75 734
-210.938 -93.75 847
7.8125 -226.562 676
-93.75 203.125 690
-335.938 296.875 1776
-7.8125 -78.125 723
-492.188 -31.25 1034
335.938 -54.6875 654
-460.938 -31.25 1034
-476.562 257.812 1823
398.438 312.5 589
-460.938 54.6875 1343
-78.125 406.25 773
70.3125 -15.625 719
335.938 312.5 600
109.375 23.4375 722
15.625 179.688 694
234.375 -351.562 736
156.25 -382.812 766
46.875 164.062 698
375 -218.75 698
187.5 31.25 755
-15.625 -132.812 693
-31.25 -125 707
242.188 -85.9375 693
-187.5 296.875 831
-132.812 -93.75 849
429.688 304.688 615
390.625 -148.438 723
-203.125 7.8125 796
312.5 -164.062 710
382.812 -289.062 787
156.25 -390.625 769
15.625 7.8125 776
23.4375 -468.75 2317
312.5 -78.125 711
-148.438 -62.5 835
-367.188 54.6875 959
-132.812 -210.938 938
476.562 203.125 655
328.125 210.938 629
-218.75 85.9375 757
-242.188 -468.75 3269
-148.438 148.438 717
320.312 -70.3125 707
-195.312 -15.625 811
-171.875 -148.438 867
304.688 234.375 653
-226.562 257.812 843
-296.875 -23.4375 869
-109.375 -148.438 1010
203.125 -101.562 835
-156.25 312.5 807
62.5 -23.4375 719
328.125 -281.25 754
187.5 -210.938 813
-15.625 -140.625 687
289.062 -312.5 738
203.125 -171.875 882
-15.625 -125 698
359.375 234.375 612
-390.625 203.125 1883
-273.438 -70.3125 849
156.25 460.938 670
-7.8125 -70.3125 731
382.812 -281.25 796
148.438 -273.438 785
414.062 -39.0625 647
171.875 -226.562 800
-203.125 328.125 1489
15.625 273.438 652
335.938 -226.562 691
351.562 -23.4375 649
