ply
format ascii 1.0
comment Created by Open3D
element vertex 2376
property double x
property double y
property double z
end_header
70.3125 179.688 948
328.125 -195.312 841
203.125 -125 847
367.188 7.8125 858
-85.9375 296.875 1007
-273.438 164.062 798
101.562 281.25 1181
-23.4375 -250 1141
-46.875 -320.312 1268
117.188 -390.625 3120
335.938 -179.688 837
-39.0625 -289.062 923
421.875 -23.4375 854
250 -179.688 821
304.688 210.938 1245
-15.625 -234.375 1119
289.062 210.938 1210
-23.4375 289.062 1452
304.688 289.062 1317
148.438 -70.3125 910
296.875 -335.938 962
62.5 -359.375 1001
382.812 39.0625 940
-359.375 -195.312 2859
-78.125 289.062 987
7.8125 -273.438 898
210.938 -109.375 837
31.25 -140.625 964
414.062 109.375 1564
-31.25 -328.125 956
-203.125 281.25 964
335.938 -132.812 835
351.562 281.25 1227
375 -414.062 1019
31.25 156.25 918
-484.375 -375 2560
304.688 226.562 1202
46.875 148.438 915
359.375 132.812 1016
296.875 156.25 1016
-93.75 93.75 815
-85.9375 359.375 1073
-7.8125 -179.688 987
218.75 39.0625 835
289.062 -179.688 829
-46.875 289.062 1421
367.188 101.562 987
-476.562 -343.75 2618
-250 148.438 800
-296.875 148.438 796
-460.938 -195.312 2156
296.875 -234.375 821
171.875 281.25 1185
39.0625 -109.375 962
-39.0625 -273.438 1177
7.8125 -148.438 1007
-382.812 -78.125 2522
-7.8125 -140.625 1001
-15.625 -171.875 1038
117.188 -351.562 981
265.625 257.812 1439
70.3125 -148.438 925
335.938 -296.875 910
109.375 -179.688 925
187.5 -429.688 1165
281.25 328.125 1349
476.562 -117.188 871
375 125 1016
-359.375 -15.625 2301
54.6875 -117.188 959
-15.625 -179.688 1050
-359.375 -242.188 2883
296.875 351.562 1322
-15.625 -203.125 967
39.0625 156.25 918
429.688 164.062 1496
460.938 -242.188 800
375 -109.375 918
-218.75 343.75 1680
-15.625 -164.062 1028
226.562 -101.562 837
31.25 -210.938 970
343.75 156.25 1031
187.5 -78.125 867
257.812 171.875 1016
335.938 304.688 1259
-125 421.875 1149
-140.625 132.812 809
179.688 -437.5 1177
343.75 -117.188 839
476.562 93.75 1427
140.625 234.375 1013
468.75 -54.6875 864
312.5 210.938 1214
203.125 -414.062 1134
367.188 93.75 981
312.5 250 1219
390.625 -351.562 928
-23.4375 -203.125 1080
-492.188 -390.625 1904
171.875 -70.3125 908
351.562 -132.812 845
320.312 -210.938 854
265.625 -187.5 815
-359.375 -7.8125 2301
226.562 15.625 837
398.438 -156.25 864
187.5 250 1197
210.938 -257.812 807
0 -234.375 943
-359.375 -250 2984
320.312 -46.875 871
265.625 -31.25 869
109.375 -140.625 940
-406.25 187.5 1947
-62.5 -289.062 1214
304.688 281.25 1312
-85.9375 343.75 1054
-265.625 -343.75 2883
312.5 -320.312 948
273.438 179.688 1025
140.625 -210.938 856
-171.875 148.438 811
-101.562 312.5 1016
-85.9375 367.188 1084
-85.9375 304.688 1010
46.875 304.688 1173
492.188 101.562 1410
-437.5 304.688 1757
468.75 85.9375 1458
179.688 -218.75 858
-70.3125 -296.875 1227
210.938 -203.125 856
156.25 -85.9375 923
-140.625 234.375 928
164.062 148.438 951
453.125 0 1713
179.688 -54.6875 894
210.938 39.0625 833
-70.3125 437.5 1185
382.812 31.25 933
359.375 -101.562 918
351.562 85.9375 964
343.75 -289.062 901
-15.625 -281.25 910
-234.375 210.938 1873
218.75 -54.6875 858
-500 -406.25 1936
-15.625 101.562 817
226.562 -242.188 802
445.312 70.3125 1523
-140.625 226.562 923
54.6875 304.688 1173
242.188 -101.562 837
234.375 343.75 1354
148.438 -109.375 946
171.875 -210.938 858
382.812 -101.562 910
-281.25 320.312 1713
234.375 -390.625 1073
-468.75 -351.562 2618
39.0625 -257.812 882
156.25 -62.5 906
351.562 -109.375 845
171.875 -203.125 864
-476.562 -335.938 2618
-148.438 203.125 903
281.25 -296.875 847
203.125 -179.688 847
0 -132.812 992
406.25 -93.75 889
226.562 -93.75 837
85.9375 -289.062 1013
468.75 -250 805
218.75 -242.188 800
-23.4375 437.5 1292
242.188 -351.562 898
39.0625 250 989
273.438 -46.875 880
460.938 320.312 1354
421.875 -234.375 800
-78.125 414.062 1145
414.062 164.062 1496
218.75 218.75 1223
-273.438 390.625 1624
-351.562 -257.812 1245
0 -226.562 970
226.562 -117.188 839
140.625 -343.75 964
109.375 281.25 1181
-78.125 390.625 1115
-234.375 359.375 1663
-125 281.25 975
-156.25 203.125 901
304.688 234.375 1202
-429.688 226.562 1883
-15.625 -156.25 1022
109.375 -351.562 989
93.75 421.875 1292
218.75 -335.938 915
-273.438 -351.562 2859
359.375 -226.562 910
62.5 -171.875 925
-148.438 210.938 910
140.625 242.188 1219
195.312 226.562 1219
-250 398.438 1601
281.25 -54.6875 885
320.312 -312.5 938
156.25 -117.188 954
390.625 109.375 1004
-187.5 312.5 1722
164.062 -101.562 938
257.812 -195.312 813
132.812 -132.812 928
31.25 -171.875 938
-164.062 179.688 882
226.562 -335.938 910
328.125 164.062 1031
343.75 304.688 1264
453.125 -351.562 898
-414.062 -70.3125 2333
265.625 -125 827
242.188 -382.812 1060
-117.188 289.062 987
289.062 -195.312 851
125 -250 823
54.6875 171.875 933
39.0625 421.875 1297
343.75 164.062 1031
117.188 -226.562 858
148.438 156.25 908
296.875 328.125 1349
78.125 171.875 913
226.562 -125 839
117.188 -281.25 1007
-164.062 367.188 1632
132.812 -273.438 827
117.188 -140.625 933
375 -140.625 854
-210.938 265.625 1794
-109.375 320.312 1019
-421.875 -257.812 2883
289.062 -265.625 841
359.375 -265.625 882
-445.312 -226.562 2883
-93.75 343.75 1050
148.438 -78.125 915
-460.938 -257.812 2835
-54.6875 -304.688 1227
195.312 -226.562 800
382.812 -242.188 856
-492.188 -375 1894
476.562 -257.812 811
-171.875 156.25 815
15.625 85.9375 817
226.562 -234.375 802
187.5 -70.3125 871
359.375 -148.438 851
109.375 -132.812 973
164.062 -132.812 908
-226.562 359.375 1663
-85.9375 375 1090
226.562 -257.812 807
164.062 265.625 1185
320.312 -117.188 831
281.25 -70.3125 843
23.4375 296.875 1165
265.625 -359.375 1028
-132.812 109.375 807
-500 -398.438 1904
7.8125 -148.438 1007
250 -445.312 1108
125 62.5 825
234.375 -156.25 837
195.312 23.4375 833
375 -101.562 913
-140.625 414.062 1134
-85.9375 23.4375 867
140.625 -273.438 992
460.938 -367.188 894
234.375 -101.562 837
335.938 -148.438 835
179.688 -109.375 860
265.625 23.4375 839
-359.375 -210.938 2958
421.875 -242.188 803
-359.375 -78.125 2503
226.562 -328.125 910
-140.625 250 946
328.125 -148.438 829
-429.688 210.938 1915
-23.4375 -195.312 1070
-46.875 117.188 823
445.312 78.125 1516
-203.125 -320.312 1302
148.438 -101.562 938
-62.5 289.062 1464
-78.125 375 1094
-429.688 218.75 1904
15.625 -156.25 956
78.125 -312.5 1007
414.062 -7.8125 860
351.562 -234.375 923
234.375 234.375 1206
164.062 -187.5 875
218.75 -390.625 1112
-359.375 234.375 1863
328.125 -187.5 835
218.75 -109.375 837
273.438 328.125 1354
445.312 328.125 1338
-148.438 218.75 915
164.062 -445.312 1219
101.562 -179.688 928
359.375 281.25 1292
109.375 -359.375 989
476.562 -382.812 889
-398.438 -351.562 2767
78.125 -140.625 928
320.312 -257.812 839
164.062 -195.312 869
-359.375 -85.9375 2541
15.625 -195.312 973
359.375 62.5 951
375 -250 862
375 0 854
187.5 -359.375 1227
-15.625 -148.438 1013
0 -218.75 970
218.75 -312.5 923
257.812 203.125 1236
203.125 -242.188 800
-85.9375 359.375 1073
-437.5 289.062 1785
468.75 187.5 1464
-484.375 -140.625 2789
398.438 125 1016
273.438 296.875 1392
171.875 -445.312 1185
257.812 359.375 1328
70.3125 -109.375 959
281.25 296.875 1387
-500 -195.312 2143
-468.75 -351.562 2618
-15.625 -234.375 1119
296.875 320.312 1354
85.9375 -359.375 998
226.562 -62.5 847
156.25 -125 913
-164.062 164.062 869
296.875 312.5 1354
187.5 -78.125 867
-39.0625 -273.438 1177
148.438 -281.25 998
-78.125 421.875 1157
70.3125 -156.25 923
210.938 -46.875 867
195.312 -78.125 862
367.188 179.688 1105
234.375 -46.875 854
242.188 -453.125 1126
156.25 -171.875 898
250 -117.188 837
-500 -414.062 1959
476.562 93.75 1427
-445.312 -250 2812
359.375 125 1007
-468.75 -296.875 2723
-15.625 -250 1145
-93.75 101.562 809
-85.9375 367.188 1084
343.75 156.25 1031
203.125 -218.75 833
-7.8125 -140.625 1001
-242.188 195.312 1915
-54.6875 312.5 1161
343.75 -242.188 930
359.375 39.0625 930
375 -359.375 940
117.188 156.25 943
-437.5 -226.562 2859
289.062 -218.75 815
156.25 304.688 1410
-429.688 179.688 1970
296.875 304.688 1359
382.812 15.625 920
-156.25 203.125 901
437.5 -23.4375 856
382.812 70.3125 964
-421.875 -218.75 2883
429.688 -414.062 871
210.938 -117.188 843
335.938 -289.062 915
210.938 -375 1145
367.188 -93.75 908
-460.938 -289.062 2701
484.375 23.4375 1557
-437.5 -78.125 2333
320.312 -15.625 849
-492.188 -351.562 1894
62.5 -171.875 925
-23.4375 -265.625 935
-62.5 -289.062 1214
335.938 -156.25 835
-101.562 320.312 1022
-31.25 -257.812 1157
226.562 -93.75 837
101.562 -289.062 1016
31.25 351.562 1376
210.938 -265.625 829
-140.625 242.188 935
437.5 -70.3125 875
250 -375 1044
-406.25 -210.938 2958
179.688 -85.9375 867
-164.062 335.938 1025
453.125 -117.188 860
-453.125 -195.312 2156
203.125 -382.812 1161
226.562 -390.625 1097
367.188 -109.375 839
-7.8125 -187.5 981
398.438 -382.812 925
-23.4375 101.562 815
132.812 -453.125 2958
414.062 -15.625 856
445.312 -382.812 878
31.25 62.5 823
218.75 328.125 1376
23.4375 70.3125 819
-109.375 328.125 1025
-460.938 -273.438 2789
-460.938 -273.438 2789
273.438 -62.5 894
398.438 -343.75 918
-359.375 -70.3125 2485
343.75 296.875 1259
-492.188 -382.812 1915
179.688 117.188 930
-414.062 -218.75 2883
414.062 -39.0625 854
93.75 -289.062 1013
156.25 -273.438 989
156.25 -343.75 959
70.3125 78.125 821
-195.312 125 805
335.938 -125 835
109.375 -140.625 940
312.5 -164.062 823
257.812 -265.625 815
-460.938 -140.625 2226
0 -125 984
-312.5 171.875 794
-101.562 351.562 1057
203.125 -257.812 817
-375 312.5 1748
117.188 -289.062 1013
-164.062 179.688 882
328.125 156.25 1028
-234.375 132.812 802
406.25 148.438 1529
343.75 -281.25 903
187.5 -281.25 964
-117.188 296.875 992
164.062 -351.562 956
-492.188 -218.75 2116
421.875 -382.812 898
-351.562 140.625 2016
273.438 -156.25 821
156.25 -179.688 878
187.5 125 940
328.125 -179.688 835
140.625 -85.9375 925
-179.688 -7.8125 903
289.062 -250 829
257.812 -367.188 1031
-343.75 171.875 1959
-140.625 250 946
250 -328.125 894
218.75 -132.812 841
210.938 -359.375 1165
328.125 -140.625 829
-171.875 351.562 1655
281.25 335.938 1343
328.125 -437.5 1073
-78.125 390.625 1115
234.375 -273.438 835
101.562 -359.375 992
-437.5 296.875 1776
210.938 -398.438 1123
-500 164.062 2016
343.75 -117.188 839
296.875 -125 823
109.375 46.875 825
242.188 -265.625 815
-23.4375 -187.5 1057
250 -242.188 827
-476.562 -250 2078
382.812 -351.562 928
-468.75 -312.5 2680
-359.375 0 2286
-164.062 171.875 873
351.562 101.562 984
203.125 -226.562 798
-257.812 140.625 800
195.312 132.812 948
171.875 -46.875 887
-476.562 -328.125 2618
367.188 -367.188 956
398.438 132.812 1025
39.0625 171.875 930
-15.625 -179.688 1050
250 -218.75 813
140.625 -375 1322
70.3125 -328.125 1004
-179.688 320.312 1010
242.188 -109.375 837
203.125 -375 1165
-187.5 320.312 1705
-117.188 312.5 1010
93.75 70.3125 821
140.625 -351.562 959
-453.125 -257.812 2789
343.75 148.438 1022
-132.812 429.688 1169
406.25 -39.0625 858
-359.375 23.4375 2256
46.875 -203.125 959
164.062 -453.125 1206
343.75 -234.375 940
351.562 78.125 962
132.812 -429.688 3037
62.5 54.6875 825
-85.9375 398.438 1123
-484.375 -343.75 2618
203.125 -250 802
164.062 -203.125 864
156.25 -351.562 959
195.312 117.188 938
-328.125 156.25 792
-54.6875 85.9375 817
-468.75 -195.312 2156
-492.188 -250 2065
437.5 -382.812 882
23.4375 -203.125 970
187.5 -70.3125 871
484.375 15.625 1632
-484.375 -203.125 2129
-468.75 -304.688 2701
304.688 242.188 1202
117.188 -203.125 875
-500 -421.875 1981
367.188 31.25 928
351.562 -109.375 845
-109.375 281.25 984
7.8125 -125 984
218.75 -390.625 1112
304.688 328.125 1328
265.625 -132.812 825
304.688 -218.75 815
453.125 -382.812 878
179.688 -250 803
164.062 -125 906
85.9375 -156.25 933
23.4375 156.25 915
406.25 31.25 935
179.688 -39.0625 882
-500 -390.625 1904
335.938 -164.062 835
320.312 -179.688 831
0 -156.25 1019
148.438 -125 918
-132.812 -335.938 1307
-148.438 218.75 915
-78.125 359.375 1073
359.375 125 1007
-23.4375 -242.188 1134
31.25 -187.5 935
460.938 0 1713
273.438 -296.875 851
132.812 -281.25 1001
257.812 335.938 1354
-7.8125 -148.438 1013
367.188 85.9375 973
-218.75 296.875 1748
7.8125 -187.5 978
-54.6875 -289.062 1210
-156.25 195.312 896
7.8125 -117.188 978
179.688 -437.5 1177
-257.812 -304.688 1292
-164.062 -328.125 1297
312.5 -148.438 823
125 39.0625 829
-429.688 234.375 1873
7.8125 -164.062 948
179.688 109.375 923
-148.438 226.562 920
343.75 164.062 1031
46.875 273.438 1202
-23.4375 -164.062 1031
125 -125 964
-429.688 210.938 1915
-101.562 312.5 1016
70.3125 -195.312 935
15.625 -328.125 975
-492.188 -367.188 1883
-101.562 320.312 1022
39.0625 -156.25 946
375 54.6875 948
-476.562 -320.312 2680
312.5 242.188 1250
0 -312.5 962
187.5 -429.688 1165
304.688 273.438 1302
171.875 234.375 1214
343.75 273.438 1219
0 -218.75 970
-7.8125 -226.562 1108
398.438 -234.375 833
296.875 -265.625 839
39.0625 85.9375 821
-70.3125 421.875 1161
-468.75 -289.062 2723
343.75 -132.812 839
320.312 -109.375 831
-171.875 156.25 815
39.0625 -164.062 935
281.25 -164.062 821
203.125 -117.188 845
460.938 62.5 1543
117.188 -390.625 3120
-46.875 -281.25 1197
164.062 -460.938 1202
234.375 -226.562 817
320.312 265.625 1236
367.188 -375 964
398.438 101.562 995
125 -226.562 851
265.625 265.625 1427
-125 101.562 813
281.25 -296.875 847
85.9375 164.062 935
328.125 -296.875 930
367.188 -390.625 987
7.8125 -148.438 1007
70.3125 93.75 827
351.562 164.062 1031
109.375 -351.562 989
257.812 -296.875 858
62.5 -343.75 1001
31.25 312.5 1165
406.25 101.562 995
-226.562 234.375 1843
-62.5 -296.875 1223
15.625 -117.188 975
-195.312 -320.312 1288
-359.375 -125 2659
257.812 -273.438 823
46.875 -125 959
132.812 -343.75 973
234.375 328.125 1370
375 -234.375 875
-328.125 312.5 1731
-429.688 -257.812 2812
-359.375 -273.438 2933
359.375 117.188 998
132.812 -437.5 3010
-367.188 -179.688 2812
164.062 -46.875 889
343.75 117.188 995
-70.3125 398.438 1130
242.188 335.938 1354
-85.9375 367.188 1084
-39.0625 -289.062 923
320.312 -156.25 825
320.312 203.125 1197
242.188 -257.812 809
234.375 -218.75 815
484.375 101.562 1427
-109.375 335.938 1041
7.8125 93.75 817
195.312 -171.875 851
156.25 -54.6875 894
367.188 -414.062 1022
125 -281.25 1004
78.125 -304.688 1007
-500 -171.875 2883
148.438 -359.375 959
132.812 -421.875 3037
-203.125 296.875 1739
-437.5 320.312 1739
-437.5 320.312 1739
-359.375 171.875 1970
-140.625 242.188 935
-171.875 148.438 811
-93.75 351.562 1063
-117.188 304.688 1004
-54.6875 -312.5 1250
148.438 -351.562 959
390.625 -234.375 845
164.062 -218.75 851
367.188 23.4375 920
367.188 -398.438 998
460.938 140.625 1445
242.188 -382.812 1060
359.375 132.812 1016
320.312 195.312 1193
-78.125 398.438 1130
304.688 -125 823
429.688 -101.562 864
210.938 -398.438 1123
398.438 140.625 1031
226.562 -242.188 802
-359.375 31.25 2256
281.25 -343.75 885
171.875 -85.9375 867
-171.875 164.062 815
-398.438 -179.688 2859
398.438 -179.688 856
414.062 171.875 1496
-164.062 117.188 809
343.75 -117.188 839
-421.875 -257.812 2883
476.562 156.25 1421
367.188 -257.812 878
218.75 -320.312 920
179.688 -132.812 898
-93.75 335.938 1041
453.125 15.625 1696
-351.562 148.438 1993
273.438 -351.562 1007
-453.125 -335.938 2680
328.125 -125 831
-7.8125 -132.812 992
382.812 -242.188 856
421.875 125 1516
125 -203.125 871
203.125 -406.25 1138
-164.062 187.5 887
101.562 70.3125 823
54.6875 -335.938 995
187.5 -132.812 871
390.625 -125 901
-414.062 -257.812 2908
375 195.312 1219
-164.062 171.875 873
210.938 -101.562 837
351.562 -273.438 891
367.188 -117.188 839
250 -250 811
312.5 -109.375 829
-359.375 15.625 2271
101.562 390.625 1322
265.625 -70.3125 847
-93.75 382.812 1101
367.188 -382.812 975
-359.375 7.8125 2286
-250 179.688 811
195.312 132.812 948
140.625 -125 962
265.625 -359.375 1028
140.625 -85.9375 925
132.812 -445.312 2958
-351.562 171.875 1959
-484.375 -382.812 2541
-460.938 -218.75 2103
164.062 -210.938 858
156.25 54.6875 827
23.4375 429.688 1292
-359.375 -218.75 2958
250 7.8125 839
54.6875 -179.688 925
140.625 -351.562 959
343.75 -234.375 940
195.312 -218.75 800
390.625 117.188 1010
265.625 -312.5 873
-101.562 312.5 1016
273.438 -109.375 831
-117.188 320.312 1016
328.125 -140.625 829
125 -132.812 970
359.375 31.25 923
367.188 -406.25 1010
-15.625 -218.75 1101
359.375 -164.062 854
-101.562 359.375 1063
351.562 -226.562 928
62.5 78.125 819
320.312 -203.125 845
140.625 -93.75 928
140.625 -93.75 928
23.4375 -93.75 948
195.312 -125 849
-62.5 445.312 1202
-484.375 -195.312 2143
273.438 257.812 1415
226.562 351.562 1343
289.062 -335.938 875
296.875 203.125 1241
-273.438 156.25 796
-171.875 148.438 811
-85.9375 382.812 1105
312.5 234.375 1241
117.188 -281.25 1007
-359.375 -7.8125 2301
375 -7.8125 847
-437.5 281.25 1794
328.125 234.375 1185
-343.75 -281.25 2908
140.625 148.438 943
156.25 -62.5 906
234.375 -234.375 823
296.875 -328.125 862
406.25 156.25 1516
289.062 179.688 1028
-132.812 437.5 1543
312.5 -312.5 951
-210.938 -312.5 1288
140.625 -164.062 908
382.812 -85.9375 898
-179.688 140.625 805
117.188 -218.75 864
203.125 125 948
-460.938 -265.625 2789
15.625 -156.25 956
-445.312 -218.75 2883
-46.875 -281.25 1197
-460.938 -93.75 2333
367.188 -367.188 956
-281.25 304.688 1739
0 -125 984
70.3125 -156.25 923
54.6875 -125 951
-468.75 -320.312 2659
7.8125 -140.625 1001
23.4375 -109.375 967
328.125 296.875 1250
242.188 -320.312 901
0 -171.875 984
234.375 -390.625 1073
-187.5 -320.312 1288
421.875 164.062 1509
226.562 -164.062 837
-23.4375 -242.188 1134
23.4375 156.25 915
0 70.3125 823
156.25 -343.75 959
-7.8125 -218.75 967
0 -273.438 906
-156.25 -328.125 1297
367.188 -429.688 1047
171.875 -70.3125 908
-203.125 328.125 1696
-289.062 304.688 1739
-140.625 109.375 809
-429.688 195.312 1947
234.375 -257.812 809
359.375 117.188 998
-476.562 -195.312 2143
210.938 -39.0625 875
132.812 -125 962
-148.438 132.812 809
-414.062 179.688 1970
-156.25 210.938 906
203.125 -109.375 843
296.875 304.688 1359
296.875 -210.938 815
62.5 -164.062 923
320.312 -140.625 829
-328.125 -179.688 1123
-148.438 234.375 925
398.438 -343.75 918
78.125 -187.5 935
367.188 -359.375 943
125 -250 823
-476.562 -179.688 2170
257.812 -257.812 815
171.875 117.188 928
15.625 -164.062 948
39.0625 -218.75 925
39.0625 -195.312 935
304.688 -226.562 815
343.75 -273.438 910
54.6875 -312.5 1001
187.5 218.75 1010
-437.5 -250 2812
304.688 -320.312 862
359.375 -265.625 882
-359.375 46.875 2212
62.5 -328.125 1001
414.062 117.188 1536
-156.25 164.062 871
78.125 -359.375 1001
390.625 85.9375 984
304.688 -328.125 951
281.25 -234.375 817
-85.9375 117.188 811
460.938 187.5 1470
-367.188 312.5 1739
445.312 85.9375 1509
-195.312 320.312 1705
140.625 -101.562 943
125 -343.75 975
-62.5 273.438 987
343.75 109.375 987
304.688 -78.125 845
257.812 312.5 1381
343.75 203.125 1138
-429.688 187.5 1959
265.625 -445.312 1105
-484.375 -132.812 2767
-171.875 164.062 815
78.125 -156.25 925
-15.625 -359.375 1302
242.188 -117.188 839
335.938 -125 835
-359.375 54.6875 2198
210.938 54.6875 837
-445.312 -250 2812
210.938 -210.938 841
343.75 -281.25 903
210.938 39.0625 833
484.375 101.562 1427
101.562 85.9375 831
195.312 109.375 930
-367.188 -273.438 2933
343.75 125 1004
367.188 78.125 970
-125 -335.938 1302
234.375 320.312 1376
250 -375 1044
296.875 312.5 1354
-234.375 125 807
-429.688 242.188 1873
492.188 46.875 1470
54.6875 -109.375 959
-218.75 -312.5 1288
226.562 -226.562 821
70.3125 242.188 1004
250 -453.125 1123
54.6875 62.5 821
-359.375 -15.625 2301
335.938 -171.875 835
-171.875 117.188 805
-109.375 328.125 1025
156.25 148.438 948
179.688 -85.9375 867
289.062 289.062 1376
-359.375 39.0625 2241
226.562 -390.625 1097
-406.25 -218.75 2984
-421.875 -281.25 2859
351.562 171.875 1101
359.375 -93.75 910
195.312 226.562 1219
-93.75 343.75 1050
-468.75 -156.25 2212
398.438 -85.9375 896
437.5 -390.625 875
476.562 -31.25 864
101.562 -281.25 1010
195.312 -132.812 858
156.25 -140.625 913
140.625 156.25 908
-70.3125 93.75 813
335.938 203.125 1149
335.938 -132.812 835
257.812 -250 815
242.188 226.562 1206
312.5 -7.8125 845
226.562 140.625 933
-62.5 -289.062 1214
-335.938 156.25 792
460.938 -390.625 880
-500 -406.25 1936
203.125 -406.25 1138
414.062 -382.812 908
109.375 218.75 1010
382.812 -382.812 928
-203.125 140.625 807
-156.25 390.625 1094
-70.3125 414.062 1165
367.188 15.625 925
320.312 -304.688 923
343.75 0 858
-31.25 -171.875 1038
-117.188 125 817
-39.0625 85.9375 819
281.25 -179.688 831
203.125 -46.875 867
476.562 -54.6875 871
0 -335.938 978
-492.188 -148.438 2212
0 -195.312 981
312.5 -125 837
164.062 31.25 833
-273.438 140.625 798
156.25 -265.625 805
-15.625 -289.062 908
382.812 62.5 970
-312.5 148.438 794
-304.688 148.438 794
367.188 -437.5 1070
132.812 -429.688 3037
85.9375 -296.875 1019
-203.125 148.438 809
375 39.0625 948
70.3125 -164.062 930
359.375 23.4375 925
54.6875 54.6875 825
445.312 54.6875 1557
304.688 0 847
-7.8125 78.125 819
179.688 46.875 837
468.75 -31.25 873
70.3125 -265.625 860
445.312 -39.0625 862
281.25 265.625 1338
62.5 -195.312 943
-39.0625 -273.438 918
445.312 -367.188 898
132.812 39.0625 831
312.5 -132.812 835
-54.6875 109.375 819
296.875 -195.312 845
-39.0625 -335.938 962
382.812 7.8125 925
281.25 -437.5 1090
281.25 335.938 1349
-203.125 125 805
-164.062 187.5 894
-453.125 -265.625 2789
-78.125 93.75 813
398.438 93.75 1601
281.25 -445.312 1105
78.125 -226.562 887
-234.375 148.438 803
-23.4375 101.562 823
468.75 -226.562 805
429.688 -234.375 800
-15.625 78.125 819
31.25 156.25 928
78.125 -273.438 1001
382.812 -101.562 901
265.625 -242.188 825
62.5 -273.438 860
156.25 -289.062 981
226.562 179.688 1019
398.438 -15.625 862
-226.562 296.875 1748
23.4375 62.5 821
484.375 -15.625 882
367.188 -421.875 1038
-117.188 273.438 984
78.125 46.875 827
359.375 -23.4375 856
-273.438 304.688 1739
281.25 -78.125 849
304.688 -7.8125 849
-320.312 171.875 798
-390.625 -265.625 2908
-437.5 289.062 1785
-70.3125 289.062 1193
0 289.062 1197
23.4375 -179.688 935
132.812 -195.312 873
218.75 281.25 1421
406.25 -15.625 864
132.812 250 1219
257.812 -234.375 823
187.5 -234.375 802
265.625 -179.688 829
140.625 281.25 1185
484.375 -23.4375 882
-242.188 132.812 802
-484.375 -210.938 2129
148.438 -343.75 962
281.25 -242.188 829
226.562 -109.375 841
7.8125 93.75 823
359.375 203.125 1141
132.812 281.25 1185
-125 296.875 998
-31.25 -351.562 1307
203.125 281.25 1421
390.625 -390.625 923
445.312 93.75 1529
265.625 328.125 1365
203.125 117.188 946
328.125 -171.875 843
382.812 -351.562 933
-7.8125 -171.875 959
320.312 -195.312 847
31.25 85.9375 827
148.438 -70.3125 910
210.938 195.312 1004
117.188 234.375 1013
164.062 226.562 1219
156.25 -210.938 864
187.5 -125 849
-445.312 -195.312 2933
234.375 31.25 847
250 -39.0625 880
398.438 15.625 928
125 62.5 833
148.438 -429.688 1250
296.875 195.312 1227
-101.562 101.562 811
351.562 203.125 1141
382.812 109.375 1004
-156.25 132.812 815
132.812 -414.062 1273
-218.75 117.188 805
78.125 54.6875 827
460.938 70.3125 1458
-78.125 109.375 815
140.625 242.188 1219
312.5 -257.812 843
0 93.75 823
195.312 -257.812 807
-414.062 -257.812 2908
-62.5 109.375 817
164.062 -359.375 1268
78.125 164.062 948
281.25 -187.5 841
46.875 62.5 823
460.938 15.625 1705
-62.5 -343.75 1307
-476.562 -328.125 2618
375 140.625 1041
289.062 -445.312 1105
289.062 -445.312 1105
-109.375 101.562 811
39.0625 62.5 823
93.75 70.3125 829
7.8125 78.125 821
-93.75 117.188 817
218.75 218.75 1232
-484.375 -234.375 2103
289.062 -437.5 1090
39.0625 234.375 998
-312.5 164.062 792
-70.3125 445.312 1210
-281.25 140.625 796
-132.812 101.562 811
-23.4375 -242.188 1130
-265.625 140.625 798
-257.812 156.25 803
-46.875 85.9375 819
171.875 -132.812 878
109.375 156.25 948
390.625 101.562 1004
70.3125 54.6875 827
-78.125 273.438 989
375 109.375 1004
31.25 -328.125 992
15.625 70.3125 821
445.312 156.25 1433
351.562 195.312 1141
164.062 -54.6875 896
281.25 -101.562 835
-109.375 390.625 1112
-156.25 210.938 915
281.25 218.75 1210
281.25 -156.25 827
-46.875 -281.25 923
23.4375 -156.25 956
-320.312 148.438 792
-171.875 148.438 815
-70.3125 101.562 813
-257.812 132.812 800
46.875 -109.375 959
226.562 -343.75 910
-460.938 -281.25 2767
-62.5 -304.688 938
101.562 -15.625 871
234.375 -109.375 841
320.312 -187.5 843
156.25 -382.812 1273
-164.062 187.5 894
70.3125 171.875 915
257.812 226.562 1210
-429.688 -54.6875 2398
-492.188 -382.812 1926
218.75 -54.6875 851
-7.8125 -250 943
-210.938 125 805
406.25 39.0625 951
31.25 -54.6875 908
-187.5 117.188 805
-484.375 -351.562 2598
148.438 -296.875 981
-304.688 140.625 796
359.375 -203.125 901
7.8125 242.188 992
125 -250 821
171.875 195.312 1013
390.625 -7.8125 867
-171.875 164.062 875
70.3125 70.3125 827
-101.562 273.438 989
-31.25 -281.25 915
187.5 -257.812 821
351.562 210.938 1141
218.75 -109.375 839
-46.875 328.125 1410
390.625 -109.375 885
-164.062 171.875 882
-15.625 320.312 1415
257.812 343.75 1343
195.312 -125 847
62.5 171.875 918
-328.125 171.875 794
-250 179.688 871
140.625 39.0625 831
171.875 -320.312 951
109.375 -382.812 1338
-460.938 -265.625 2789
359.375 -265.625 869
-101.562 281.25 989
-31.25 -257.812 940
-468.75 -304.688 2701
-140.625 117.188 809
-148.438 234.375 935
85.9375 78.125 831
-500 -406.25 1970
54.6875 -179.688 928
179.688 -210.938 873
-85.9375 375 1105
218.75 -101.562 837
148.438 -406.25 1273
179.688 -85.9375 864
-15.625 -148.438 1013
70.3125 -156.25 930
-117.188 273.438 984
93.75 218.75 1004
-93.75 343.75 1060
-62.5 -289.062 925
250 171.875 1025
-484.375 -359.375 2598
7.8125 -148.438 959
210.938 187.5 1016
-156.25 195.312 906
125 -132.812 970
-429.688 195.312 1926
468.75 0 1731
31.25 156.25 928
281.25 -85.9375 843
-39.0625 -273.438 918
296.875 -445.312 1101
-85.9375 265.625 984
226.562 -343.75 910
-85.9375 328.125 1034
242.188 -109.375 839
359.375 23.4375 925
148.438 203.125 1007
-421.875 195.312 1926
-148.438 109.375 809
335.938 234.375 1173
-7.8125 -164.062 959
-460.938 -289.062 2701
289.062 15.625 851
-164.062 179.688 891
31.25 148.438 920
406.25 -242.188 811
-226.562 234.375 920
15.625 -156.25 956
242.188 -31.25 873
-101.562 312.5 1028
-54.6875 257.812 989
-15.625 -179.688 987
-250 132.812 800
398.438 -23.4375 858
0 312.5 1427
179.688 -132.812 871
-453.125 -257.812 2789
148.438 234.375 1219
-429.688 203.125 1915
-125 125 813
148.438 54.6875 833
414.062 -242.188 809
-437.5 281.25 1785
109.375 -140.625 935
-70.3125 320.312 1445
359.375 117.188 1013
343.75 -140.625 856
-218.75 250 925
-500 -421.875 2005
-70.3125 -296.875 1227
-476.562 -320.312 2618
0 -125 984
93.75 -257.812 839
343.75 -234.375 918
101.562 46.875 827
-453.125 -265.625 2789
-171.875 156.25 869
226.562 -242.188 809
140.625 -70.3125 910
250 203.125 1227
-359.375 -218.75 1177
203.125 -406.25 1119
-46.875 -281.25 923
148.438 210.938 1016
179.688 -39.0625 882
140.625 -85.9375 925
328.125 -140.625 843
-39.0625 -289.062 918
-31.25 101.562 823
-148.438 226.562 928
148.438 -398.438 1273
390.625 179.688 1496
-296.875 140.625 798
148.438 -93.75 928
0 -273.438 901
367.188 70.3125 973
140.625 -351.562 964
203.125 -39.0625 875
179.688 -250 805
398.438 179.688 1496
-78.125 85.9375 817
-500 -414.062 1981
179.688 -242.188 803
171.875 -46.875 887
-15.625 -164.062 1028
-289.062 140.625 796
140.625 -101.562 943
0 -132.812 989
-140.625 250 954
226.562 -109.375 841
210.938 -398.438 1101
-15.625 -234.375 951
-39.0625 312.5 1421
-500 -171.875 2129
226.562 210.938 1004
-484.375 -343.75 2618
-429.688 210.938 1904
-484.375 -132.812 2226
375 -242.188 854
-359.375 -265.625 1259
179.688 -85.9375 864
-281.25 328.125 1696
289.062 -39.0625 873
-242.188 195.312 882
39.0625 148.438 920
-281.25 132.812 800
234.375 -218.75 817
320.312 312.5 1278
-359.375 -257.812 1227
-351.562 328.125 1705
296.875 296.875 1292
-382.812 -265.625 2908
156.25 -140.625 908
-492.188 382.812 1632
156.25 -382.812 1273
7.8125 -148.438 959
-70.3125 -304.688 938
0 -218.75 973
-148.438 140.625 817
-460.938 -281.25 2767
-359.375 0 910
-39.0625 -273.438 918
-281.25 140.625 796
46.875 179.688 948
148.438 -70.3125 910
460.938 93.75 1458
140.625 -125 918
296.875 -109.375 835
148.438 148.438 956
15.625 328.125 1404
-460.938 -242.188 2859
-140.625 242.188 943
-460.938 -218.75 2933
-23.4375 -242.188 1130
-359.375 -250 1227
15.625 -117.188 973
-85.9375 382.812 1112
335.938 -125 847
-101.562 328.125 1034
-468.75 -296.875 2701
15.625 -156.25 956
-101.562 312.5 1028
367.188 -421.875 1038
234.375 234.375 1206
-15.625 -156.25 1019
-156.25 382.812 1094
164.062 -210.938 869
-46.875 296.875 1193
242.188 -117.188 839
-179.688 140.625 813
62.5 -171.875 928
367.188 -7.8125 856
54.6875 -171.875 925
23.4375 -203.125 973
-351.562 148.438 792
-109.375 328.125 1034
93.75 -148.438 946
-164.062 171.875 882
-218.75 125 803
-468.75 -312.5 2680
-54.6875 320.312 1415
-109.375 281.25 989
242.188 -164.062 829
-460.938 -210.938 2984
-437.5 -179.688 2835
-31.25 -257.812 940
-39.0625 328.125 1410
343.75 148.438 1038
351.562 -226.562 908
7.8125 125 896
-187.5 320.312 1013
-101.562 320.312 1031
218.75 15.625 837
203.125 -70.3125 862
476.562 62.5 1496
140.625 -93.75 930
281.25 187.5 1241
140.625 -421.875 1273
-156.25 203.125 908
367.188 -257.812 860
375 156.25 1044
187.5 -312.5 943
132.812 -445.312 1250
-39.0625 117.188 831
203.125 195.312 1019
-195.312 117.188 805
-62.5 -289.062 925
148.438 -359.375 962
132.812 -23.4375 871
367.188 -406.25 1019
-93.75 117.188 817
-335.938 93.75 831
-93.75 351.562 1070
367.188 -367.188 962
-39.0625 265.625 995
62.5 -164.062 928
-156.25 187.5 896
-148.438 218.75 923
140.625 -359.375 964
359.375 -117.188 845
78.125 -359.375 1001
-156.25 195.312 906
156.25 -62.5 906
23.4375 -156.25 956
-171.875 156.25 869
-484.375 -351.562 2598
-250 171.875 807
187.5 23.4375 835
296.875 -210.938 862
-7.8125 109.375 827
367.188 -382.812 981
226.562 -23.4375 867
226.562 -93.75 839
242.188 -23.4375 867
164.062 -218.75 860
-23.4375 -250 940
-359.375 -171.875 1112
-125 273.438 978
328.125 -140.625 843
296.875 312.5 1307
187.5 125 951
-484.375 -195.312 2143
343.75 -281.25 889
359.375 -203.125 901
210.938 -210.938 823
343.75 -117.188 847
265.625 -109.375 837
164.062 -414.062 1219
-171.875 140.625 815
-15.625 -164.062 1028
-23.4375 250 992
-156.25 390.625 1094
-468.75 -109.375 2226
156.25 -343.75 956
171.875 -117.188 854
359.375 31.25 935
-460.938 -289.062 2701
62.5 226.562 1001
242.188 -179.688 825
148.438 -429.688 1250
468.75 70.3125 1483
39.0625 171.875 938
-265.625 156.25 803
132.812 156.25 915
187.5 -78.125 869
-101.562 359.375 1073
250 -375 1025
0 -132.812 989
-132.812 437.5 1161
156.25 70.3125 841
-453.125 -250 2812
132.812 -453.125 1236
367.188 -414.062 1025
-429.688 -250 2859
-437.5 289.062 1785
-492.188 -148.438 2212
62.5 156.25 928
-164.062 179.688 891
250 -54.6875 891
257.812 -367.188 1007
-117.188 101.562 811
320.312 -132.812 839
-484.375 -203.125 2129
234.375 109.375 959
179.688 -70.3125 875
-484.375 -210.938 2129
-289.062 -296.875 1297
-70.3125 429.688 1181
7.8125 -148.438 959
203.125 -250 805
-148.438 226.562 928
265.625 226.562 1214
-195.312 320.312 1013
367.188 -375 970
265.625 218.75 1223
171.875 -54.6875 896
-359.375 -218.75 1177
367.188 -429.688 1057
7.8125 -273.438 896
156.25 -437.5 1219
-320.312 148.438 792
148.438 -125 918
-437.5 296.875 1766
23.4375 -117.188 973
187.5 -132.812 862
367.188 -398.438 1004
117.188 -281.25 1004
-500 -398.438 1959
-492.188 -390.625 1936
273.438 -109.375 831
-429.688 218.75 1894
-15.625 -281.25 908
460.938 -390.625 891
-15.625 -156.25 1019
257.812 -39.0625 878
265.625 -312.5 871
359.375 125 1022
250 -109.375 839
7.8125 -125 984
-179.688 109.375 809
218.75 -390.625 1090
-406.25 -218.75 2984
-70.3125 421.875 1165
-62.5 -296.875 925
-460.938 -273.438 2767
-468.75 -218.75 2143
335.938 -156.25 851
140.625 -351.562 964
398.438 -343.75 920
-500 -421.875 2005
257.812 -265.625 829
382.812 -85.9375 901
-15.625 -171.875 1038
132.812 -414.062 1273
-226.562 226.562 903
-468.75 -320.312 2680
-132.812 125 813
406.25 -171.875 833
-54.6875 85.9375 817
351.562 195.312 1141
-203.125 328.125 1696
148.438 -70.3125 910
-484.375 -367.188 2579
-359.375 -179.688 1119
7.8125 70.3125 821
62.5 78.125 825
148.438 -78.125 915
-453.125 -265.625 2789
62.5 -195.312 943
335.938 -164.062 849
-171.875 351.562 1050
328.125 0 854
156.25 -351.562 959
164.062 -39.0625 885
335.938 179.688 1115
-148.438 210.938 918
281.25 -23.4375 864
304.688 -320.312 943
320.312 -140.625 839
-476.562 -343.75 2618
164.062 -54.6875 896
132.812 -343.75 970
265.625 -359.375 1001
203.125 218.75 1227
23.4375 85.9375 825
-429.688 234.375 1863
93.75 -148.438 946
171.875 -78.125 871
320.312 195.312 1157
-164.062 171.875 882
-492.188 -375 1915
351.562 -109.375 847
476.562 31.25 1564
164.062 -203.125 875
-78.125 390.625 1119
-140.625 234.375 938
203.125 -117.188 845
320.312 -304.688 923
-500 -437.5 2040
210.938 -117.188 845
148.438 -390.625 1278
-140.625 242.188 943
-7.8125 -140.625 1001
-468.75 -156.25 2212
320.312 265.625 1219
-210.938 265.625 943
93.75 -289.062 1016
-335.938 171.875 792
-445.312 -226.562 2859
31.25 375 1354
203.125 -54.6875 862
-23.4375 -250 940
125 -250 821
406.25 101.562 1523
-171.875 148.438 815
-156.25 195.312 906
-210.938 335.938 1688
257.812 -109.375 837
-148.438 218.75 923
-460.938 -140.625 2241
54.6875 -187.5 935
460.938 -250 811
257.812 218.75 1210
367.188 -109.375 925
226.562 -93.75 839
140.625 -242.188 811
218.75 -109.375 839
-15.625 -234.375 951
390.625 -125 880
351.562 78.125 973
328.125 -179.688 845
203.125 39.0625 841
203.125 -125 847
390.625 117.188 1019
187.5 -78.125 869
343.75 156.25 1044
23.4375 156.25 925
-7.8125 -148.438 1010
46.875 -195.312 935
156.25 -148.438 898
132.812 -132.812 920
-101.562 320.312 1031
187.5 -125 849
-429.688 179.688 1959
125 54.6875 829
343.75 148.438 1038
-437.5 304.688 1748
-156.25 187.5 896
-7.8125 -187.5 987
328.125 -187.5 847
-437.5 -250 2812
210.938 -375 1119
132.812 -429.688 3037
23.4375 -148.438 959
-85.9375 93.75 813
132.812 -437.5 3037
195.312 -132.812 854
-359.375 -171.875 1112
195.312 132.812 956
312.5 -125 837
218.75 242.188 1197
226.562 179.688 1019
-460.938 -281.25 2767
-453.125 -273.438 2767
156.25 -179.688 903
-85.9375 367.188 1094
-39.0625 -273.438 918
-164.062 156.25 873
312.5 234.375 1189
78.125 -187.5 940
-453.125 -195.312 2958
226.562 -125 841
-218.75 242.188 925
101.562 156.25 946
117.188 78.125 837
359.375 132.812 1031
109.375 78.125 833
187.5 132.812 956
78.125 -156.25 938
367.188 -390.625 992
-273.438 132.812 800
-484.375 -140.625 2226
70.3125 -164.062 930
-54.6875 -289.062 925
-484.375 -375 2560
-359.375 -250 1227
109.375 -351.562 987
-31.25 320.312 1421
-429.688 226.562 1883
-476.562 -179.688 2170
164.062 -210.938 869
-445.312 -250 2812
148.438 -125 918
-164.062 132.812 811
-39.0625 -335.938 962
-156.25 109.375 809
312.5 242.188 1193
-101.562 117.188 817
460.938 78.125 1458
7.8125 -125 984
242.188 203.125 1236
132.812 148.438 954
375 -101.562 910
445.312 -250 811
-109.375 148.438 885
-62.5 148.438 894
-468.75 -164.062 2198
171.875 46.875 835
70.3125 -195.312 943
234.375 234.375 1206
-31.25 -265.625 920
140.625 -429.688 1250
171.875 -78.125 871
23.4375 -117.188 973
164.062 -46.875 889
-328.125 -226.562 1189
46.875 179.688 948
187.5 -132.812 862
-429.688 242.188 1853
234.375 -226.562 819
-234.375 203.125 896
-164.062 164.062 878
-101.562 312.5 1028
-437.5 -210.938 2883
39.0625 164.062 930
-164.062 171.875 882
273.438 -351.562 987
-140.625 234.375 938
-85.9375 375 1105
187.5 -187.5 854
-476.562 -289.062 2744
-242.188 187.5 882
-39.0625 312.5 1421
367.188 85.9375 987
335.938 304.688 1292
0 -132.812 989
-148.438 210.938 918
-93.75 335.938 1047
343.75 -140.625 856
281.25 -234.375 823
226.562 -117.188 839
335.938 -125 847
-164.062 125 809
351.562 -23.4375 856
203.125 101.562 938
-492.188 -406.25 1970
-101.562 351.562 1063
195.312 101.562 940
7.8125 -156.25 956
265.625 -132.812 833
140.625 -273.438 992
179.688 -437.5 1134
-70.3125 -296.875 928
343.75 -117.188 856
-460.938 -296.875 2723
218.75 -109.375 845
15.625 -304.688 995
203.125 -109.375 841
-445.312 -234.375 2859
117.188 -140.625 935
187.5 -429.688 1119
117.188 62.5 839
242.188 -382.812 1022
-484.375 -382.812 2560
195.312 -39.0625 875
-7.8125 -226.562 959
484.375 54.6875 1516
140.625 -437.5 1241
117.188 -281.25 1004
-31.25 -179.688 978
335.938 -132.812 856
484.375 101.562 1439
250 -179.688 827
382.812 7.8125 930
312.5 -312.5 915
-15.625 -289.062 903
-70.3125 320.312 1445
-187.5 109.375 809
-23.4375 78.125 821
-140.625 109.375 811
367.188 15.625 935
281.25 -343.75 959
-328.125 148.438 792
-476.562 -351.562 2598
250 -375 1010
-359.375 -257.812 1264
-148.438 203.125 915
-7.8125 -148.438 970
367.188 234.375 1376
-343.75 156.25 794
-468.75 -320.312 2659
140.625 -375 1307
234.375 -85.9375 849
-500 -179.688 2156
31.25 234.375 1001
132.812 -242.188 813
148.438 -414.062 1241
-164.062 156.25 882
-250 164.062 809
406.25 148.438 1503
414.062 46.875 1550
-117.188 312.5 1025
328.125 164.062 1041
-398.438 -265.625 2883
148.438 -242.188 809
-15.625 -242.188 946
-156.25 382.812 1090
85.9375 -289.062 1022
179.688 132.812 959
179.688 -109.375 847
148.438 -78.125 918
132.812 -250 813
-460.938 -187.5 2933
39.0625 -265.625 875
226.562 -101.562 845
-156.25 179.688 898
296.875 -140.625 839
343.75 296.875 1312
171.875 -78.125 871
304.688 -226.562 873
-218.75 343.75 1671
226.562 -179.688 831
-140.625 250 959
54.6875 85.9375 833
-54.6875 -289.062 925
-234.375 359.375 1655
70.3125 -156.25 946
-156.25 195.312 910
78.125 -257.812 847
164.062 -54.6875 896
273.438 164.062 1034
-31.25 281.25 1433
140.625 -445.312 1236
304.688 273.438 1232
-226.562 125 803
-429.688 234.375 1863
281.25 335.938 1343
335.938 -156.25 867
62.5 -179.688 938
-62.5 328.125 1410
132.812 -132.812 923
171.875 -242.188 809
335.938 -148.438 864
-210.938 -312.5 1288
343.75 156.25 1044
367.188 -93.75 910
93.75 78.125 837
234.375 31.25 854
164.062 -109.375 856
-453.125 -257.812 2812
-156.25 375 1080
296.875 320.312 1297
250 -117.188 839
265.625 -109.375 839
-132.812 429.688 1157
296.875 164.062 1044
156.25 -164.062 894
85.9375 70.3125 835
195.312 -421.875 1105
-179.688 117.188 807
-500 -187.5 2129
179.688 -70.3125 871
335.938 203.125 1134
-226.562 351.562 1663
359.375 -101.562 920
-179.688 328.125 1016
-39.0625 101.562 827
359.375 -93.75 913
257.812 -109.375 839
-437.5 -195.312 2908
125 39.0625 833
398.438 132.812 1529
23.4375 -179.688 935
343.75 164.062 1094
54.6875 -187.5 940
226.562 -164.062 833
-39.0625 -281.25 918
-148.438 218.75 925
281.25 -101.562 841
281.25 15.625 858
242.188 -320.312 889
-351.562 15.625 898
7.8125 -187.5 938
335.938 -296.875 885
437.5 -390.625 891
117.188 210.938 1007
171.875 117.188 946
343.75 -289.062 875
351.562 -281.25 864
132.812 -421.875 1268
-85.9375 398.438 1130
296.875 -328.125 938
273.438 -296.875 854
-15.625 -171.875 956
-148.438 203.125 915
-164.062 367.188 1073
328.125 234.375 1177
312.5 -320.312 915
-62.5 445.312 1214
-468.75 -304.688 2680
-54.6875 -304.688 933
320.312 -312.5 906
-484.375 -375 2541
-453.125 -273.438 2767
23.4375 -273.438 882
-140.625 414.062 1130
7.8125 -273.438 891
-250 125 802
-492.188 -382.812 1993
187.5 -39.0625 882
-78.125 414.062 1153
-492.188 -414.062 2028
171.875 -46.875 889
328.125 -304.688 894
15.625 -117.188 975
304.688 -328.125 928
-78.125 382.812 1123
101.562 -179.688 923
-171.875 148.438 817
-484.375 -210.938 2143
335.938 -132.812 856
101.562 -281.25 1013
15.625 -179.688 938
-414.062 -218.75 2984
390.625 117.188 1557
109.375 -257.812 827
-429.688 250 1833
187.5 117.188 948
250 39.0625 860
226.562 39.0625 854
-78.125 390.625 1126
-156.25 187.5 903
140.625 -343.75 962
140.625 -359.375 964
460.938 78.125 1470
335.938 -171.875 869
-23.4375 117.188 889
359.375 -46.875 873
-460.938 -304.688 2723
-109.375 281.25 987
46.875 -195.312 940
7.8125 -156.25 956
171.875 70.3125 910
382.812 -351.562 938
46.875 -203.125 913
156.25 -125 860
203.125 -70.3125 851
242.188 -54.6875 891
296.875 328.125 1302
328.125 -179.688 862
-54.6875 78.125 819
234.375 -85.9375 849
23.4375 -148.438 954
70.3125 -164.062 946
484.375 101.562 1439
-85.9375 367.188 1087
-85.9375 351.562 1392
156.25 -343.75 956
359.375 117.188 1022
93.75 414.062 1302
156.25 -429.688 1197
226.562 -101.562 845
-148.438 210.938 923
359.375 -273.438 856
-171.875 140.625 817
-39.0625 -289.062 915
-164.062 164.062 885
289.062 -250 843
15.625 -140.625 959
421.875 62.5 1550
257.812 -250 835
289.062 -335.938 948
289.062 -335.938 948
195.312 117.188 946
7.8125 304.688 1439
-85.9375 359.375 1087
-23.4375 -257.812 943
156.25 -62.5 908
320.312 210.938 1153
-101.562 343.75 1060
31.25 -265.625 880
0 -281.25 896
195.312 -93.75 843
-46.875 312.5 1433
343.75 109.375 1007
-78.125 398.438 1130
125 -125 967
304.688 -218.75 869
210.938 -109.375 843
312.5 250 1197
281.25 -218.75 825
312.5 7.8125 862
351.562 -226.562 889
39.0625 -109.375 962
-445.312 -257.812 2812
296.875 -335.938 938
-421.875 187.5 1947
148.438 -343.75 962
265.625 -117.188 837
-7.8125 -234.375 948
-62.5 85.9375 817
171.875 -195.312 858
203.125 -414.062 1084
148.438 -109.375 873
-351.562 23.4375 889
179.688 -117.188 847
171.875 -85.9375 867
179.688 -195.312 856
85.9375 -359.375 992
414.062 117.188 1483
367.188 -117.188 908
-62.5 437.5 1193
351.562 -132.812 933
101.562 -289.062 1016
-62.5 257.812 989
-85.9375 351.562 1392
-203.125 117.188 807
210.938 -359.375 1112
132.812 -273.438 1001
187.5 -226.562 835
148.438 -85.9375 878
-429.688 -54.6875 2398
132.812 -179.688 908
62.5 -273.438 856
140.625 -414.062 1264
-156.25 187.5 903
171.875 -367.188 1219
-500 -414.062 2028
367.188 -265.625 847
359.375 179.688 1232
-15.625 -242.188 946
-476.562 -335.938 2618
304.688 289.062 1250
195.312 -132.812 847
-195.312 289.062 978
-70.3125 414.062 1153
-281.25 398.438 1601
7.8125 -125 981
367.188 23.4375 940
492.188 -93.75 898
-140.625 234.375 940
109.375 -359.375 981
54.6875 164.062 920
-351.562 7.8125 906
382.812 -250 827
-164.062 148.438 817
351.562 93.75 998
234.375 -250 827
351.562 250 1273
156.25 -171.875 896
-437.5 320.312 1731
398.438 -117.188 869
117.188 -140.625 935
375 54.6875 970
375 -257.812 841
-476.562 -195.312 2170
-437.5 312.5 1739
23.4375 -117.188 973
7.8125 -132.812 973
125 -257.812 817
210.938 15.625 843
-7.8125 -179.688 956
328.125 -171.875 862
70.3125 -289.062 1022
234.375 -171.875 833
421.875 179.688 1496
390.625 15.625 930
296.875 203.125 1210
281.25 -304.688 862
-406.25 -257.812 2933
468.75 85.9375 1452
7.8125 -218.75 975
-476.562 -359.375 2598
-70.3125 265.625 992
-31.25 78.125 821
-429.688 265.625 1813
31.25 -210.938 928
-273.438 -304.688 1288
148.438 -101.562 873
-15.625 -179.688 984
312.5 234.375 1181
-125 281.25 987
-62.5 -312.5 938
101.562 -148.438 940
101.562 78.125 837
304.688 234.375 1189
-93.75 140.625 887
15.625 -148.438 956
-156.25 171.875 894
210.938 -406.25 1067
-148.438 195.312 913
93.75 -187.5 925
398.438 -7.8125 873
62.5 -265.625 856
-203.125 281.25 970
171.875 -210.938 862
-93.75 343.75 1060
179.688 -93.75 851
-54.6875 -289.062 925
-171.875 140.625 817
281.25 -351.562 962
265.625 -265.625 849
273.438 179.688 1038
-31.25 -273.438 918
328.125 265.625 1206
351.562 85.9375 987
335.938 -140.625 862
-78.125 375 1365
-421.875 195.312 1936
70.3125 -171.875 946
-140.625 226.562 935
23.4375 -156.25 954
296.875 -54.6875 891
7.8125 -132.812 973
39.0625 -117.188 962
-125 445.312 1189
320.312 15.625 867
-70.3125 406.25 1145
117.188 -218.75 860
-492.188 -390.625 1993
234.375 179.688 1031
367.188 101.562 1010
328.125 -132.812 856
304.688 -328.125 928
140.625 -421.875 1250
335.938 -148.438 864
210.938 -375 1090
164.062 -406.25 1202
-148.438 210.938 923
-23.4375 -257.812 943
148.438 -351.562 964
218.75 -93.75 843
-140.625 242.188 951
-7.8125 -226.562 959
226.562 -54.6875 854
156.25 -156.25 894
-234.375 195.312 887
54.6875 171.875 918
289.062 210.938 1223
257.812 -164.062 831
-78.125 390.625 1126
-429.688 257.812 1833
117.188 -382.812 1333
289.062 -343.75 951
164.062 -101.562 858
-62.5 -296.875 928
31.25 -117.188 964
398.438 257.812 1404
46.875 289.062 1458
140.625 -429.688 1241
234.375 -242.188 831
-117.188 304.688 1013
-257.812 132.812 800
179.688 -257.812 813
-93.75 93.75 815
-85.9375 343.75 1398
-500 -195.312 2090
117.188 -257.812 821
-140.625 -101.562 981
398.438 187.5 1496
-164.062 156.25 882
85.9375 -296.875 1025
-445.312 -109.375 2301
304.688 -226.562 873
179.688 -46.875 882
140.625 -250 811
-164.062 164.062 885
421.875 187.5 1477
-445.312 -242.188 2859
-484.375 -382.812 2560
-343.75 140.625 796
195.312 187.5 1022
-500 -257.812 1926
335.938 -132.812 856
78.125 -156.25 954
320.312 -125 854
171.875 -85.9375 867
226.562 -101.562 845
-7.8125 -234.375 948
-453.125 -281.25 2767
320.312 -312.5 906
-351.562 -257.812 1250
148.438 -85.9375 878
101.562 -15.625 871
-265.625 132.812 800
398.438 125 1529
187.5 -195.312 854
-453.125 -210.938 2883
273.438 -359.375 973
203.125 -140.625 847
406.25 156.25 1503
-164.062 359.375 1060
250 -85.9375 851
-7.8125 -281.25 903
148.438 -273.438 835
156.25 31.25 837
351.562 -234.375 885
-500 -421.875 2053
156.25 -70.3125 908
359.375 46.875 959
171.875 195.312 1016
-468.75 -328.125 2659
328.125 171.875 1108
109.375 -179.688 918
31.25 289.062 1439
-109.375 250 967
390.625 -242.188 819
140.625 -171.875 903
226.562 -335.938 906
164.062 -109.375 856
148.438 -171.875 898
-500 -265.625 1926
-492.188 -414.062 2028
328.125 179.688 1115
-156.25 375 1080
-226.562 -265.625 1223
164.062 62.5 843
-453.125 -265.625 2767
125 -179.688 889
203.125 -414.062 1084
-93.75 335.938 1060
-187.5 117.188 807
187.5 117.188 948
-375 -265.625 2933
-351.562 0 910
359.375 -125 920
117.188 -250 821
-7.8125 -164.062 962
39.0625 -203.125 948
-351.562 15.625 898
164.062 -242.188 807
460.938 -375 913
-351.562 -39.0625 946
117.188 -351.562 975
335.938 -140.625 862
265.625 -367.188 992
15.625 -148.438 956
-421.875 203.125 1915
0 242.188 998
-351.562 -203.125 1149
351.562 -281.25 864
351.562 -273.438 864
39.0625 156.25 928
-85.9375 328.125 1404
-164.062 109.375 809
46.875 -281.25 878
-140.625 218.75 933
-468.75 -335.938 2659
-187.5 304.688 989
234.375 -234.375 825
414.062 164.062 1496
-429.688 273.438 1794
-484.375 -367.188 2541
265.625 203.125 1255
195.312 -132.812 847
-70.3125 320.312 1445
351.562 164.062 1094
367.188 7.8125 869
343.75 -289.062 875
398.438 -93.75 887
281.25 -226.562 829
-156.25 164.062 887
-164.062 140.625 817
-484.375 -375 2541
-460.938 -289.062 2767
-468.75 -109.375 2226
125 -281.25 1001
85.9375 -156.25 948
218.75 -250 819
-15.625 -218.75 975
242.188 7.8125 847
312.5 -320.312 915
101.562 -289.062 1016
-101.562 93.75 815
468.75 -257.812 823
-351.562 -226.562 1197
351.562 -117.188 938
-351.562 -234.375 1210
-7.8125 -156.25 970
-351.562 23.4375 889
-54.6875 -320.312 946
421.875 -93.75 891
148.438 -445.312 1202
140.625 -132.812 915
-140.625 226.562 935
343.75 164.062 1094
-85.9375 343.75 1398
-85.9375 390.625 1126
-484.375 -390.625 2618
-164.062 156.25 882
164.062 -62.5 885
-351.562 -15.625 928
62.5 54.6875 827
187.5 -85.9375 847
-351.562 -265.625 1264
-31.25 250 995
-140.625 125 817
-132.812 242.188 956
-382.812 125 2053
-460.938 -304.688 2723
85.9375 -187.5 930
-148.438 203.125 915
296.875 -335.938 938
-492.188 -171.875 2170
-226.562 210.938 903
-171.875 343.75 1038
-210.938 250 938
414.062 7.8125 1731
-468.75 -320.312 2659
218.75 -117.188 843
23.4375 -156.25 954
164.062 -54.6875 896
62.5 70.3125 829
289.062 -54.6875 891
-93.75 312.5 1439
328.125 -148.438 860
328.125 -203.125 862
398.438 -179.688 831
-31.25 -156.25 1022
54.6875 78.125 831
273.438 -117.188 837
-31.25 -273.438 918
257.812 -375 998
218.75 -320.312 913
-46.875 -289.062 920
-234.375 125 803
289.062 -242.188 837
476.562 -257.812 821
148.438 -93.75 873
304.688 296.875 1255
210.938 -125 845
-476.562 -218.75 2143
-421.875 -62.5 2415
234.375 -125 841
-78.125 375 1365
242.188 -351.562 1038
62.5 85.9375 833
148.438 -351.562 964
-31.25 437.5 1292
-460.938 -93.75 2256
335.938 -296.875 885
406.25 70.3125 1523
117.188 39.0625 831
390.625 -351.562 935
250 -382.812 1013
15.625 -125 975
250 -328.125 889
476.562 78.125 1509
23.4375 -210.938 967
468.75 85.9375 1452
7.8125 -281.25 891
-242.188 125 802
-203.125 296.875 981
234.375 -93.75 845
-351.562 -218.75 1177
492.188 -226.562 821
-93.75 265.625 987
0 -140.625 973
234.375 -164.062 831
54.6875 296.875 1439
109.375 -351.562 981
-437.5 -218.75 2883
-351.562 7.8125 906
414.062 156.25 1496
-492.188 -242.188 2028
289.062 -296.875 973
343.75 -125 856
-54.6875 320.312 1410
187.5 -218.75 843
-7.8125 -179.688 956
304.688 281.25 1241
171.875 -132.812 862
375 -109.375 896
15.625 -164.062 938
