ply
format ascii 1.0
comment Created by Open3D
element vertex 2368
property double x
property double y
property double z
end_header
-7.8125 -195.312 869
-195.312 -273.438 987
-250 -265.625 989
203.125 0 841
78.125 132.812 918
351.562 -187.5 1283
210.938 156.25 891
210.938 171.875 894
476.562 335.938 910
31.25 -140.625 819
226.562 -132.812 792
125 -140.625 803
210.938 179.688 898
195.312 -132.812 796
-468.75 -210.938 1013
210.938 -265.625 998
78.125 -226.562 889
226.562 -140.625 790
195.312 -93.75 807
-156.25 -312.5 1219
187.5 398.438 1050
-429.688 78.125 1004
210.938 -62.5 815
304.688 132.812 862
195.312 -39.0625 829
195.312 46.875 864
492.188 367.188 1123
382.812 218.75 882
195.312 -85.9375 807
-468.75 -203.125 1013
203.125 -210.938 871
242.188 367.188 1031
195.312 7.8125 847
195.312 -23.4375 833
-39.0625 -203.125 882
-500 -179.688 978
218.75 -46.875 823
-132.812 -382.812 1022
-125 -414.062 1077
437.5 351.562 1185
-148.438 -437.5 1123
-203.125 -359.375 951
-23.4375 -257.812 928
210.938 -296.875 1108
171.875 382.812 1047
195.312 375 1034
-406.25 382.812 1410
-281.25 -398.438 938
-148.438 -382.812 1130
203.125 23.4375 847
195.312 -78.125 813
-500 -164.062 967
132.812 -140.625 802
195.312 0 843
85.9375 156.25 1624
-468.75 -218.75 1013
218.75 -304.688 1145
85.9375 375 1283
195.312 -62.5 819
-351.562 -460.938 2933
195.312 -101.562 803
101.562 328.125 1359
-156.25 -359.375 1138
-195.312 -445.312 1108
203.125 -7.8125 839
203.125 250 933
445.312 367.188 1185
-265.625 -289.062 981
-54.6875 -250 1013
195.312 -140.625 790
195.312 -70.3125 815
218.75 -54.6875 821
210.938 -85.9375 805
210.938 -257.812 987
210.938 250 930
226.562 -148.438 790
-125 -328.125 1047
23.4375 -140.625 821
414.062 320.312 925
351.562 -156.25 1197
203.125 195.312 910
210.938 23.4375 887
210.938 -304.688 1145
-39.0625 351.562 1387
-218.75 -453.125 1112
226.562 -281.25 1022
-273.438 398.438 1245
-31.25 -195.312 871
218.75 -320.312 1165
-54.6875 -195.312 873
187.5 375 1041
-46.875 -210.938 908
203.125 242.188 930
-7.8125 -210.938 860
-242.188 -343.75 954
93.75 343.75 1354
203.125 -15.625 835
-31.25 -203.125 878
-242.188 398.438 1264
109.375 335.938 1343
78.125 195.312 1671
109.375 -140.625 805
187.5 382.812 1044
85.9375 132.812 918
203.125 179.688 901
93.75 335.938 1359
195.312 -7.8125 841
203.125 7.8125 845
218.75 -62.5 815
226.562 -156.25 789
-265.625 -265.625 987
195.312 -46.875 825
23.4375 -257.812 894
-156.25 -281.25 1134
203.125 -218.75 889
195.312 -156.25 790
-234.375 -351.562 951
203.125 -203.125 856
351.562 390.625 1115
171.875 390.625 1050
218.75 0 841
210.938 148.438 887
195.312 -39.0625 829
-335.938 414.062 1241
460.938 148.438 787
23.4375 -148.438 815
-265.625 406.25 1255
-312.5 -351.562 956
-273.438 -390.625 940
210.938 140.625 882
375 343.75 1138
203.125 187.5 906
-93.75 320.312 1516
414.062 351.562 1219
-335.938 -242.188 1094
187.5 -164.062 792
195.312 -54.6875 821
-242.188 -273.438 984
304.688 390.625 1112
203.125 -23.4375 831
195.312 -31.25 831
226.562 -289.062 1084
-289.062 265.625 1317
-15.625 -218.75 867
179.688 445.312 1090
187.5 367.188 1031
-101.562 -382.812 998
226.562 -171.875 798
70.3125 445.312 1292
-492.188 -171.875 973
-7.8125 -195.312 869
203.125 265.625 940
234.375 398.438 1189
218.75 -132.812 792
140.625 -132.812 803
-210.938 -406.25 933
-500 -187.5 973
-164.062 -335.938 1165
-492.188 -195.312 1007
-148.438 -421.875 1123
-437.5 179.688 1067
-203.125 -250 995
70.3125 195.312 1671
-31.25 -218.75 867
210.938 164.062 891
54.6875 -218.75 906
195.312 -62.5 819
234.375 -187.5 825
54.6875 -257.812 915
-210.938 -304.688 973
-445.312 70.3125 995
-195.312 -328.125 964
62.5 -140.625 813
-210.938 -414.062 933
-367.188 289.062 1157
195.312 -140.625 790
-226.562 -304.688 970
148.438 -132.812 802
195.312 -70.3125 815
-109.375 203.125 1757
351.562 62.5 841
351.562 398.438 1130
-125 -437.5 1073
351.562 -164.062 1223
179.688 453.125 1094
218.75 164.062 891
-125 359.375 1464
-414.062 203.125 1073
-335.938 -226.562 998
-398.438 250 1130
210.938 -203.125 856
210.938 31.25 882
-343.75 390.625 1223
296.875 390.625 1115
-148.438 -429.688 1123
218.75 -39.0625 827
31.25 -148.438 815
281.25 421.875 1105
-289.062 -289.062 984
-218.75 -312.5 970
218.75 -46.875 823
195.312 -85.9375 807
-23.4375 -203.125 875
195.312 273.438 948
23.4375 -250 891
78.125 -132.812 811
-179.688 0 913
-109.375 -437.5 1073
187.5 421.875 1067
203.125 -250 964
195.312 320.312 1004
-359.375 296.875 1161
-343.75 359.375 1206
-335.938 -234.375 1057
125 85.9375 835
85.9375 312.5 1381
-281.25 85.9375 964
-296.875 -335.938 962
210.938 7.8125 845
132.812 -23.4375 843
-109.375 210.938 1748
39.0625 -242.188 891
-289.062 -398.438 940
195.312 7.8125 847
-109.375 -429.688 1070
-195.312 -257.812 992
-101.562 -359.375 995
164.062 -140.625 798
382.812 343.75 1145
179.688 210.938 920
203.125 390.625 1038
320.312 312.5 938
-15.625 -210.938 869
257.812 406.25 1153
-257.812 -273.438 984
195.312 312.5 995
-62.5 -226.562 938
-7.8125 328.125 1349
-242.188 414.062 1278
203.125 179.688 901
101.562 351.562 1317
398.438 210.938 875
-23.4375 -335.938 1028
195.312 -15.625 837
-132.812 -390.625 1077
93.75 -242.188 878
195.312 -132.812 796
93.75 367.188 1292
195.312 -109.375 802
23.4375 -226.562 849
234.375 -132.812 792
210.938 -195.312 841
210.938 39.0625 878
257.812 414.062 1115
234.375 421.875 1169
-406.25 226.562 1084
-468.75 -195.312 1007
226.562 -156.25 789
-226.562 -367.188 943
171.875 335.938 1022
0 -242.188 896
7.8125 -148.438 819
-296.875 -328.125 964
-23.4375 335.938 1328
-156.25 -382.812 1126
-101.562 -390.625 1077
218.75 -54.6875 821
70.3125 -281.25 910
31.25 -132.812 821
-187.5 390.625 1410
93.75 -234.375 930
46.875 226.562 1705
-421.875 218.75 1084
218.75 -125 798
203.125 242.188 930
195.312 39.0625 875
-23.4375 343.75 1297
-312.5 -273.438 992
234.375 359.375 1169
85.9375 -250 887
-359.375 359.375 1214
218.75 -70.3125 817
-210.938 -250 998
-187.5 -406.25 956
-39.0625 -210.938 875
218.75 -312.5 1145
460.938 -343.75 1025
195.312 -171.875 792
-156.25 -320.312 1206
171.875 320.312 1016
351.562 -187.5 1145
210.938 -78.125 813
195.312 335.938 1007
390.625 226.562 882
203.125 226.562 923
-148.438 -343.75 1050
23.4375 -218.75 854
210.938 -93.75 809
179.688 437.5 1084
203.125 218.75 920
-148.438 -414.062 1126
195.312 -156.25 789
-132.812 -429.688 1077
-367.188 335.938 1193
-226.562 -398.438 935
-351.562 -453.125 2984
398.438 -367.188 1044
210.938 156.25 889
-304.688 304.688 1223
-203.125 296.875 1557
203.125 148.438 887
-62.5 -210.938 903
109.375 -132.812 807
195.312 -148.438 789
367.188 367.188 1126
62.5 218.75 1696
39.0625 -234.375 896
-460.938 -195.312 964
23.4375 -234.375 891
-210.938 -234.375 1001
-179.688 -367.188 1130
-109.375 -351.562 1010
-109.375 -421.875 1073
148.438 -140.625 796
218.75 -62.5 819
93.75 359.375 1312
-218.75 -273.438 989
-226.562 -265.625 992
-289.062 -265.625 992
-7.8125 -257.812 896
-296.875 -351.562 956
101.562 437.5 1292
62.5 -148.438 811
-304.688 -265.625 995
195.312 328.125 1007
-281.25 359.375 1302
210.938 140.625 882
195.312 289.062 956
203.125 250 935
203.125 164.062 894
195.312 -140.625 790
0 -203.125 862
-218.75 296.875 1516
-156.25 -335.938 1181
-140.625 -398.438 1077
460.938 421.875 1292
187.5 359.375 1028
-242.188 -343.75 956
-39.0625 -195.312 869
429.688 351.562 1189
-164.062 -414.062 1119
23.4375 -140.625 821
-273.438 -328.125 964
218.75 -78.125 815
23.4375 -132.812 823
195.312 -101.562 803
78.125 140.625 923
210.938 7.8125 845
203.125 -31.25 831
-421.875 70.3125 1013
195.312 0 843
85.9375 -148.438 805
-484.375 -242.188 1219
210.938 -187.5 819
-203.125 -312.5 970
78.125 -132.812 811
195.312 85.9375 827
93.75 351.562 1333
-390.625 273.438 1149
-382.812 296.875 1165
-234.375 -273.438 984
429.688 359.375 1193
359.375 -171.875 1149
210.938 -85.9375 809
-312.5 85.9375 992
-265.625 -250 998
85.9375 328.125 1370
-335.938 -7.8125 954
-117.188 -343.75 1025
179.688 -156.25 790
218.75 7.8125 845
-187.5 0 918
-148.438 -375 1025
203.125 234.375 928
-234.375 -312.5 970
312.5 312.5 940
281.25 320.312 951
203.125 -39.0625 829
23.4375 -187.5 839
-335.938 406.25 1255
195.312 -132.812 796
203.125 210.938 915
-15.625 -320.312 1054
351.562 -203.125 1157
210.938 -265.625 995
218.75 -132.812 796
-382.812 289.062 1157
203.125 -226.562 898
-39.0625 -234.375 864
195.312 -39.0625 829
195.312 257.812 940
-468.75 -226.562 1028
-273.438 -390.625 940
-164.062 -234.375 989
-468.75 -265.625 1214
210.938 -203.125 847
195.312 -70.3125 817
203.125 171.875 896
0 -226.562 851
210.938 -195.312 837
-398.438 250 1134
195.312 -15.625 837
132.812 -156.25 796
-453.125 -234.375 1041
93.75 343.75 1349
171.875 296.875 967
-343.75 382.812 1232
210.938 23.4375 885
140.625 -140.625 798
195.312 -62.5 819
195.312 -109.375 802
23.4375 -289.062 915
78.125 -140.625 811
46.875 -265.625 915
203.125 156.25 891
15.625 -226.562 851
-179.688 -382.812 978
-320.312 -382.812 948
-312.5 -375 951
-93.75 328.125 1516
-218.75 -398.438 935
195.312 -85.9375 809
210.938 257.812 940
-195.312 -250 998
351.562 -179.688 1149
-257.812 -335.938 962
210.938 0 843
-39.0625 -218.75 869
-218.75 -85.9375 887
101.562 -132.812 809
-476.562 -421.875 2503
-179.688 117.188 1705
-320.312 -257.812 1001
320.312 328.125 1141
-226.562 312.5 1503
195.312 54.6875 856
-335.938 -343.75 964
328.125 312.5 940
-312.5 304.688 1223
195.312 -78.125 813
-195.312 -359.375 962
-492.188 -164.062 915
195.312 -132.812 796
-273.438 -382.812 940
-460.938 320.312 1516
195.312 -54.6875 821
226.562 320.312 962
125 234.375 1680
210.938 -7.8125 839
187.5 390.625 1050
140.625 -132.812 803
164.062 367.188 1038
203.125 -46.875 825
195.312 7.8125 847
218.75 -85.9375 813
179.688 429.688 1080
156.25 -93.75 813
-453.125 78.125 1004
85.9375 -140.625 807
62.5 -140.625 813
-109.375 -429.688 1070
-250 -343.75 956
-101.562 -242.188 989
187.5 445.312 1084
203.125 218.75 920
421.875 250 851
31.25 421.875 1273
-335.938 -226.562 998
-23.4375 -242.188 867
210.938 -210.938 864
210.938 -273.438 1019
210.938 -93.75 809
218.75 -328.125 1227
15.625 -218.75 851
-226.562 -398.438 935
23.4375 -226.562 854
218.75 -78.125 815
-226.562 -390.625 938
-375 320.312 1185
195.312 250 938
-343.75 250 1193
-320.312 -375 951
-304.688 -320.312 973
351.562 -148.438 1177
-70.3125 351.562 1349
-359.375 351.562 1197
250 398.438 1157
-500 -78.125 970
218.75 -140.625 792
195.312 0 843
-335.938 -234.375 1054
-218.75 -421.875 930
171.875 328.125 1013
218.75 -70.3125 817
-476.562 257.812 1283
-257.812 351.562 1292
203.125 203.125 910
93.75 328.125 1365
171.875 304.688 970
-250 398.438 1264
31.25 -148.438 817
-195.312 -382.812 970
117.188 -140.625 803
-296.875 335.938 1232
-218.75 289.062 1550
93.75 -148.438 805
210.938 7.8125 845
187.5 351.562 1025
-421.875 218.75 1084
-62.5 -203.125 894
-289.062 -328.125 964
-414.062 125 1050
-500 -242.188 1157
187.5 421.875 1070
203.125 -218.75 880
23.4375 7.8125 878
-312.5 -328.125 970
351.562 -195.312 1153
125 -140.625 803
218.75 -320.312 1145
31.25 390.625 1278
210.938 0 843
203.125 140.625 882
62.5 -250 891
203.125 -54.6875 821
351.562 -171.875 1236
195.312 -7.8125 841
-203.125 -328.125 964
210.938 -312.5 1157
195.312 -125 798
-242.188 320.312 1470
195.312 257.812 940
187.5 343.75 1022
203.125 -257.812 981
203.125 132.812 880
-335.938 -257.812 1001
-218.75 -414.062 930
187.5 -156.25 789
-234.375 -460.938 1119
398.438 234.375 880
-140.625 -406.25 1077
-250 -273.438 987
203.125 148.438 887
85.9375 257.812 1616
-437.5 101.562 1019
15.625 -234.375 851
359.375 -164.062 1206
179.688 445.312 1090
-484.375 -62.5 989
-351.562 375 1232
101.562 398.438 1297
195.312 -62.5 819
-93.75 335.938 1489
187.5 398.438 1054
265.625 359.375 1134
195.312 -15.625 837
0 -265.625 898
-226.562 304.688 1516
23.4375 -148.438 817
195.312 -210.938 862
-156.25 304.688 1564
195.312 -187.5 829
203.125 210.938 915
195.312 -195.312 835
-78.125 242.188 1663
164.062 -140.625 798
-132.812 -421.875 1080
-250 359.375 1278
-148.438 -328.125 1193
351.562 -203.125 1157
125 242.188 1655
-367.188 335.938 1193
-148.438 -398.438 1130
-320.312 351.562 1245
-312.5 -289.062 984
-296.875 242.188 1302
-132.812 -265.625 1073
23.4375 -234.375 891
-445.312 -234.375 1044
-156.25 -437.5 1119
195.312 -179.688 802
-195.312 281.25 1601
-289.062 296.875 1227
-156.25 -398.438 1123
-445.312 156.25 1057
-281.25 -289.062 984
375 328.125 930
-125 -437.5 1070
453.125 320.312 920
85.9375 367.188 1292
265.625 343.75 1141
-437.5 289.062 1255
-257.812 -78.125 896
-320.312 -289.062 987
-93.75 234.375 1688
210.938 -281.25 1054
-109.375 -421.875 1073
-203.125 -453.125 1108
78.125 187.5 1663
195.312 -70.3125 817
-140.625 -390.625 1067
-148.438 -414.062 1126
-250 429.688 1278
-39.0625 -242.188 864
195.312 -117.188 798
210.938 -226.562 901
-296.875 -320.312 970
85.9375 -242.188 887
-250 187.5 1439
101.562 -140.625 805
203.125 203.125 910
210.938 -210.938 864
257.812 132.812 871
15.625 -210.938 854
-62.5 382.812 1338
195.312 -226.562 896
195.312 343.75 1016
210.938 -101.562 805
203.125 226.562 923
195.312 328.125 1007
187.5 335.938 1016
-351.562 226.562 1173
187.5 -148.438 790
195.312 -218.75 887
203.125 195.312 910
218.75 -281.25 1054
-445.312 -148.438 903
289.062 320.312 954
226.562 421.875 1165
62.5 -132.812 817
210.938 -7.8125 839
203.125 -234.375 925
312.5 390.625 1108
-320.312 335.938 1245
-7.8125 359.375 1297
0 250 1632
-125 -429.688 1073
15.625 375 1278
-390.625 -7.8125 970
-31.25 -250 867
109.375 250 1624
-429.688 -7.8125 973
-250 367.188 1273
-320.312 -281.25 989
-382.812 85.9375 1105
-109.375 -414.062 1073
-421.875 -218.75 1007
-101.562 -382.812 995
203.125 187.5 906
476.562 -109.375 1080
406.25 -406.25 1022
-257.812 359.375 1283
-492.188 -187.5 998
-93.75 -234.375 970
15.625 -132.812 825
46.875 -140.625 817
70.3125 203.125 1680
-328.125 -234.375 1047
179.688 78.125 833
-109.375 -406.25 1073
375 335.938 1145
-382.812 296.875 1165
437.5 -382.812 1019
195.312 375 1041
367.188 -156.25 1185
-335.938 -351.562 962
382.812 328.125 933
257.812 398.438 1145
406.25 218.75 871
70.3125 187.5 1663
203.125 257.812 940
-226.562 -273.438 987
-312.5 -304.688 981
164.062 -132.812 800
-132.812 -382.812 1010
195.312 -31.25 831
195.312 -54.6875 821
218.75 226.562 920
-375 -7.8125 962
257.812 382.812 1134
296.875 312.5 946
-39.0625 -226.562 867
210.938 -218.75 878
-460.938 -453.125 2485
-39.0625 -203.125 880
-257.812 -242.188 1004
195.312 7.8125 847
-484.375 226.562 1338
140.625 -140.625 798
15.625 -289.062 918
117.188 -132.812 805
195.312 226.562 925
93.75 351.562 1333
-437.5 -164.062 906
46.875 -250 901
62.5 -140.625 813
335.938 328.125 940
-492.188 -304.688 2450
-203.125 -421.875 943
-39.0625 242.188 1655
-281.25 -359.375 954
265.625 390.625 1130
210.938 -15.625 837
218.75 -93.75 809
187.5 39.0625 875
-359.375 359.375 1214
-101.562 -429.688 1077
359.375 367.188 1119
0 -140.625 825
195.312 242.188 930
117.188 226.562 1688
-117.188 -390.625 1073
-195.312 398.438 1404
453.125 242.188 845
-281.25 273.438 1349
46.875 226.562 1705
-109.375 218.75 1731
23.4375 -132.812 823
-375 -460.938 2984
195.312 -23.4375 835
-343.75 398.438 1236
-218.75 -406.25 933
171.875 70.3125 839
-242.188 421.875 1288
414.062 -406.25 1019
226.562 -312.5 1153
85.9375 -140.625 807
-187.5 -382.812 978
31.25 -234.375 894
-23.4375 -226.562 869
164.062 390.625 1084
210.938 -109.375 802
-187.5 375 1392
46.875 218.75 1705
-375 312.5 1169
-7.8125 343.75 1333
257.812 414.062 1123
375 320.312 930
-414.062 250 1312
203.125 179.688 898
242.188 187.5 898
187.5 414.062 1067
195.312 234.375 928
-148.438 -445.312 1130
-7.8125 351.562 1322
-140.625 -382.812 1022
289.062 328.125 954
93.75 359.375 1312
218.75 -101.562 807
187.5 390.625 1050
-93.75 343.75 1477
-312.5 312.5 1210
-468.75 -187.5 964
-257.812 -257.812 995
-195.312 -257.812 995
203.125 414.062 1067
218.75 -85.9375 813
359.375 382.812 1115
437.5 -429.688 998
-203.125 429.688 1359
-226.562 -398.438 935
-234.375 414.062 1288
-382.812 156.25 1108
187.5 367.188 1031
195.312 429.688 1080
187.5 -140.625 792
-414.062 -164.062 901
31.25 234.375 2016
179.688 437.5 1084
-39.0625 -250 864
-468.75 -203.125 1063
148.438 -140.625 796
-226.562 -320.312 964
-492.188 -195.312 1007
195.312 -78.125 813
-210.938 -250 998
-109.375 -429.688 1070
-7.8125 -273.438 898
-468.75 -210.938 1016
-70.3125 -226.562 938
7.8125 242.188 1632
187.5 -132.812 798
-492.188 -171.875 970
195.312 320.312 1004
-156.25 -375 1025
23.4375 -234.375 891
203.125 -62.5 817
195.312 -101.562 803
-234.375 -265.625 989
-398.438 257.812 1134
-203.125 -242.188 998
265.625 382.812 1126
437.5 367.188 1189
187.5 -164.062 790
257.812 390.625 1138
70.3125 195.312 1671
7.8125 250 1632
179.688 421.875 1073
0 -148.438 821
-335.938 382.812 1232
-242.188 -328.125 964
-171.875 429.688 1354
-31.25 -210.938 873
382.812 351.562 1141
39.0625 -242.188 896
210.938 -289.062 1070
414.062 343.75 1210
218.75 -109.375 805
210.938 0 843
343.75 289.062 925
195.312 351.562 1019
-218.75 -242.188 1001
-500 250 1297
195.312 250 938
210.938 -109.375 802
171.875 343.75 1028
179.688 414.062 1070
187.5 375 1041
85.9375 320.312 1376
85.9375 398.438 1307
-273.438 179.688 1370
85.9375 312.5 1376
-78.125 351.562 1349
203.125 187.5 906
203.125 39.0625 873
70.3125 210.938 1680
-406.25 -164.062 901
304.688 312.5 946
203.125 -70.3125 817
-210.938 312.5 1543
468.75 328.125 908
-500 -445.312 2560
109.375 -140.625 805
218.75 -148.438 792
-195.312 -421.875 948
7.8125 -250 891
-335.938 414.062 1264
-31.25 -218.75 869
-31.25 250 1639
-289.062 335.938 1223
-7.8125 -210.938 856
-203.125 257.812 1609
367.188 414.062 1165
187.5 -156.25 789
-109.375 210.938 1748
203.125 195.312 910
62.5 312.5 1392
-406.25 296.875 1245
171.875 296.875 967
218.75 421.875 1165
203.125 171.875 896
-109.375 -414.062 1073
78.125 -140.625 811
125 -140.625 803
-101.562 226.562 1705
195.312 218.75 920
187.5 -132.812 798
101.562 335.938 1349
210.938 406.25 1206
218.75 -93.75 809
226.562 257.812 935
-304.688 -265.625 995
-382.812 296.875 1165
109.375 328.125 1354
195.312 -203.125 851
187.5 -93.75 807
187.5 -109.375 803
31.25 -226.562 854
-375 320.312 1185
-156.25 -429.688 1119
218.75 -101.562 807
210.938 -23.4375 833
195.312 31.25 880
-164.062 -382.812 1130
15.625 -132.812 825
226.562 398.438 1202
281.25 421.875 1097
226.562 -304.688 1138
-421.875 187.5 1070
15.625 -140.625 821
218.75 -78.125 815
0 7.8125 880
187.5 -148.438 790
-242.188 -343.75 956
78.125 -250 887
85.9375 367.188 1292
226.562 335.938 1189
210.938 -15.625 837
-234.375 -320.312 964
210.938 -7.8125 839
210.938 15.625 847
-31.25 -281.25 928
414.062 218.75 871
-484.375 203.125 1108
203.125 -242.188 933
-242.188 -312.5 970
-304.688 -320.312 973
54.6875 398.438 1283
406.25 359.375 1214
-210.938 -343.75 956
187.5 445.312 1084
-7.8125 -226.562 854
-226.562 -226.562 987
-70.3125 -218.75 928
-218.75 -453.125 1108
117.188 445.312 1312
-328.125 -7.8125 951
-164.062 0 913
226.562 312.5 962
351.562 -171.875 1236
-15.625 -195.312 864
-125 -421.875 1077
195.312 265.625 943
23.4375 -140.625 821
-382.812 312.5 1241
-46.875 -203.125 880
-242.188 31.25 906
-289.062 -226.562 1007
117.188 -140.625 803
195.312 210.938 918
210.938 -195.312 837
195.312 -195.312 835
203.125 164.062 894
351.562 -195.312 1153
304.688 429.688 1094
-492.188 -125 910
195.312 -46.875 825
-7.8125 210.938 1722
203.125 421.875 1317
-296.875 -289.062 984
7.8125 -62.5 851
-187.5 382.812 1415
187.5 -101.562 805
-367.188 343.75 1193
-367.188 304.688 1169
187.5 398.438 1054
0 320.312 1376
31.25 7.8125 875
179.688 429.688 1080
-179.688 281.25 1616
-234.375 7.8125 943
-31.25 -390.625 1004
-335.938 421.875 1264
187.5 -117.188 800
195.312 203.125 915
-304.688 -312.5 975
-156.25 0 913
-328.125 429.688 1264
-109.375 218.75 1731
460.938 -343.75 1025
187.5 -46.875 827
187.5 359.375 1028
187.5 -62.5 821
187.5 320.312 1004
187.5 -85.9375 811
-312.5 -351.562 959
-31.25 -312.5 1038
187.5 -140.625 792
-101.562 109.375 946
0 250 1632
203.125 -273.438 1025
203.125 179.688 898
-304.688 429.688 1283
-62.5 375 1338
187.5 7.8125 847
187.5 -70.3125 817
15.625 -140.625 821
-484.375 -54.6875 989
-15.625 359.375 1307
210.938 -31.25 831
359.375 375 1115
-54.6875 -210.938 901
203.125 -70.3125 817
-453.125 250 1317
226.562 -289.062 1070
-140.625 -390.625 1067
-234.375 -421.875 935
335.938 437.5 1288
367.188 359.375 1126
-140.625 -398.438 1077
-31.25 -203.125 878
132.812 359.375 1354
-421.875 179.688 1060
-398.438 -164.062 894
7.8125 375 1288
-359.375 367.188 1214
187.5 328.125 1013
-242.188 320.312 1470
125 359.375 1354
187.5 -23.4375 837
-31.25 -289.062 1050
226.562 406.25 1202
-39.0625 -273.438 928
-343.75 -7.8125 954
-453.125 -7.8125 975
-492.188 -179.688 995
-39.0625 -195.312 869
-500 -171.875 970
187.5 -39.0625 831
203.125 -250 956
46.875 -218.75 901
195.312 -234.375 925
187.5 -15.625 839
31.25 226.562 1705
70.3125 390.625 1273
382.812 -15.625 933
-218.75 -414.062 930
-117.188 -414.062 1073
-132.812 -414.062 1084
195.312 0 843
351.562 375 1115
187.5 -7.8125 843
210.938 -39.0625 829
70.3125 187.5 1663
-109.375 203.125 1757
-289.062 -320.312 970
203.125 31.25 880
218.75 -140.625 792
-140.625 -265.625 1077
-328.125 -375 951
-109.375 -406.25 1073
-281.25 -335.938 964
-242.188 -273.438 987
-39.0625 -203.125 880
-289.062 375 1250
-132.812 -429.688 1077
-148.438 -421.875 1126
-312.5 -273.438 992
210.938 -46.875 825
195.312 257.812 940
-343.75 406.25 1255
195.312 218.75 920
-132.812 429.688 1338
54.6875 421.875 1273
218.75 -109.375 805
-54.6875 -242.188 864
-437.5 140.625 1044
195.312 -7.8125 841
187.5 -187.5 823
23.4375 -148.438 817
210.938 -210.938 864
195.312 -23.4375 835
210.938 -187.5 819
218.75 -273.438 1019
78.125 -242.188 887
31.25 -242.188 894
187.5 -125 798
-156.25 -390.625 1130
203.125 -62.5 817
210.938 421.875 1338
-289.062 320.312 1223
-62.5 -250 1007
-453.125 210.938 1094
23.4375 320.312 1392
54.6875 -140.625 815
46.875 218.75 1705
179.688 406.25 1063
-226.562 -328.125 964
187.5 -171.875 794
15.625 -148.438 819
203.125 148.438 887
7.8125 242.188 1632
195.312 203.125 915
-460.938 218.75 1097
187.5 0 845
-101.562 398.438 1398
187.5 -78.125 815
187.5 -31.25 831
-31.25 -257.812 928
179.688 445.312 1090
-406.25 242.188 1101
187.5 -62.5 821
-195.312 281.25 1601
101.562 -140.625 805
179.688 -164.062 792
-265.625 -250 998
-62.5 -195.312 869
-281.25 242.188 1349
78.125 187.5 1663
-265.625 -265.625 992
-203.125 -398.438 946
-304.688 -328.125 970
-78.125 242.188 1663
195.312 226.562 925
-62.5 -203.125 894
-210.938 -335.938 962
187.5 62.5 845
187.5 -54.6875 823
23.4375 -289.062 915
-31.25 -320.312 1034
195.312 312.5 995
429.688 335.938 1185
0 -257.812 896
-109.375 -398.438 1073
-15.625 -195.312 864
-273.438 -382.812 940
-226.562 -320.312 964
15.625 -257.812 894
359.375 289.062 923
39.0625 -257.812 901
-359.375 359.375 1214
187.5 -109.375 803
-281.25 -390.625 940
156.25 -140.625 796
195.312 7.8125 847
179.688 421.875 1073
-203.125 -281.25 984
210.938 -203.125 847
70.3125 375 1288
382.812 -328.125 1063
-210.938 304.688 1564
-31.25 -195.312 864
375 343.75 1141
179.688 398.438 1054
31.25 23.4375 901
218.75 406.25 1202
445.312 421.875 1292
210.938 -117.188 800
210.938 -39.0625 829
15.625 -132.812 825
-257.812 -343.75 959
-93.75 234.375 1688
-210.938 -234.375 1001
-398.438 257.812 1134
78.125 179.688 1655
250 359.375 1145
-320.312 367.188 1241
-445.312 117.188 1028
-445.312 117.188 1028
351.562 -171.875 1236
367.188 367.188 1126
-492.188 -156.25 915
203.125 -78.125 813
195.312 195.312 913
-218.75 -359.375 951
203.125 156.25 891
210.938 -31.25 831
-85.9375 296.875 1564
-234.375 -312.5 970
-289.062 335.938 1223
187.5 -93.75 807
-179.688 156.25 1696
-273.438 -328.125 964
-203.125 289.062 1594
187.5 -156.25 789
187.5 367.188 1031
203.125 15.625 847
335.938 406.25 1126
-468.75 257.812 1288
-164.062 -382.812 1130
484.375 -359.375 1010
187.5 375 1041
-101.562 -367.188 995
468.75 289.062 901
-296.875 -398.438 940
296.875 328.125 954
-7.8125 367.188 1292
-320.312 -382.812 948
203.125 31.25 880
-359.375 140.625 1153
171.875 375 1044
-468.75 -226.562 1028
-468.75 -101.562 930
-273.438 367.188 1297
70.3125 179.688 1663
-265.625 218.75 1392
203.125 140.625 882
-117.188 -351.562 1016
187.5 -46.875 827
187.5 -15.625 839
343.75 437.5 1283
187.5 312.5 1001
-78.125 15.625 920
265.625 367.188 1130
78.125 -234.375 887
195.312 273.438 948
296.875 367.188 1115
-367.188 335.938 1193
31.25 234.375 2016
187.5 -23.4375 837
460.938 406.25 1173
132.812 -132.812 803
226.562 -281.25 1054
-31.25 -335.938 1028
390.625 218.75 880
-406.25 234.375 1101
-320.312 304.688 1250
195.312 -210.938 862
187.5 398.438 1054
187.5 78.125 831
-109.375 -390.625 1073
351.562 390.625 1115
140.625 -132.812 803
46.875 -257.812 910
164.062 375 1044
-85.9375 -210.938 906
-429.688 -296.875 2598
390.625 -359.375 1047
250 414.062 1161
0 367.188 1292
195.312 250 938
-468.75 -218.75 1019
-406.25 -343.75 2933
195.312 265.625 943
195.312 179.688 901
-500 -398.438 2333
187.5 -148.438 790
-148.438 -406.25 1126
7.8125 -210.938 854
-23.4375 -328.125 1041
23.4375 375 1273
257.812 414.062 1123
93.75 359.375 1312
218.75 -125 798
78.125 132.812 923
195.312 257.812 940
39.0625 -234.375 896
-468.75 -195.312 1010
203.125 54.6875 856
187.5 -39.0625 831
-46.875 351.562 1381
210.938 -23.4375 833
-445.312 85.9375 1007
-15.625 335.938 1333
-453.125 265.625 1297
351.562 -203.125 1157
390.625 226.562 882
-46.875 -210.938 875
93.75 351.562 1333
-226.562 -406.25 933
187.5 7.8125 847
218.75 -132.812 796
-351.562 242.188 1173
343.75 406.25 1130
-414.062 -7.8125 970
-265.625 406.25 1259
-132.812 -421.875 1080
187.5 -132.812 798
-484.375 -179.688 998
-140.625 -429.688 1084
164.062 359.375 1034
250 375 1141
-23.4375 351.562 1297
195.312 203.125 915
187.5 -125 798
210.938 -46.875 825
-351.562 382.812 1232
-171.875 -328.125 1177
203.125 148.438 887
78.125 179.688 1655
351.562 -179.688 1149
-242.188 -312.5 970
-54.6875 382.812 1317
187.5 -140.625 792
-164.062 -312.5 1219
78.125 148.438 1624
429.688 -179.688 1112
54.6875 -148.438 813
-93.75 351.562 1483
171.875 453.125 1097
195.312 -31.25 831
195.312 187.5 910
203.125 -281.25 1054
-156.25 -421.875 1119
289.062 390.625 1115
203.125 -265.625 998
187.5 -117.188 800
-375 328.125 1193
-109.375 -414.062 1073
195.312 210.938 918
-23.4375 -218.75 869
-54.6875 15.625 915
-156.25 289.062 1586
335.938 289.062 928
132.812 -140.625 802
15.625 -289.062 918
-31.25 343.75 1297
-39.0625 -218.75 869
78.125 171.875 1639
-234.375 -242.188 1001
-226.562 390.625 1292
-31.25 -273.438 928
78.125 -140.625 811
-445.312 -414.062 2598
-320.312 -281.25 989
54.6875 218.75 1705
179.688 390.625 1050
226.562 -101.562 807
-367.188 343.75 1193
-343.75 -250 1025
187.5 -101.562 805
-453.125 101.562 1019
-218.75 -257.812 998
-429.688 70.3125 1013
195.312 -85.9375 809
328.125 320.312 948
250 421.875 1123
195.312 242.188 930
-164.062 -359.375 1145
-234.375 421.875 1292
85.9375 320.312 1376
70.3125 -132.812 815
-453.125 -195.312 962
273.438 421.875 1105
-304.688 46.875 908
-171.875 375 1439
-500 -62.5 973
-203.125 -265.625 992
15.625 -140.625 821
203.125 -85.9375 809
187.5 -93.75 807
-226.562 -382.812 940
179.688 -164.062 792
195.312 -93.75 807
-312.5 320.312 1259
-226.562 312.5 1503
-39.0625 -250 864
-375 320.312 1185
210.938 -62.5 819
-164.062 -304.688 1223
62.5 210.938 1696
85.9375 367.188 1292
421.875 328.125 925
-117.188 109.375 959
-460.938 -195.312 964
203.125 23.4375 887
-476.562 -218.75 1013
187.5 -78.125 815
179.688 414.062 1070
-93.75 335.938 1489
187.5 -7.8125 843
-250 398.438 1264
132.812 31.25 887
0 250 1632
179.688 382.812 1044
-328.125 -382.812 948
-281.25 -375 946
-93.75 -375 992
203.125 164.062 894
210.938 -54.6875 821
-320.312 -390.625 946
195.312 -218.75 887
-437.5 62.5 940
-234.375 -390.625 938
-265.625 -242.188 1007
-304.688 -250 1004
-250 382.812 1259
54.6875 -218.75 898
-164.062 304.688 1564
-390.625 -164.062 894
382.812 226.562 887
437.5 437.5 1264
-31.25 -93.75 847
210.938 -46.875 825
39.0625 320.312 1404
210.938 -250 956
70.3125 171.875 1647
320.312 312.5 940
54.6875 -250 903
-171.875 -320.312 1007
-304.688 390.625 1283
7.8125 250 1632
210.938 -125 798
195.312 195.312 913
-203.125 0 923
437.5 367.188 1189
15.625 -234.375 851
15.625 -226.562 851
-500 320.312 1376
-304.688 335.938 1232
187.5 -140.625 792
218.75 -140.625 792
289.062 312.5 948
-179.688 0 915
210.938 -257.812 975
164.062 351.562 1028
218.75 -132.812 796
70.3125 -140.625 813
70.3125 218.75 1696
-140.625 -390.625 1067
195.312 250 938
203.125 15.625 847
-109.375 218.75 1731
210.938 -70.3125 819
210.938 -304.688 1097
187.5 335.938 1016
-242.188 367.188 1273
195.312 148.438 889
-250 -273.438 987
187.5 -39.0625 831
-117.188 -437.5 1070
187.5 -85.9375 811
195.312 -23.4375 835
-187.5 -390.625 964
335.938 312.5 940
375 351.562 1134
-296.875 -289.062 984
164.062 414.062 1084
406.25 320.312 925
39.0625 -140.625 819
-289.062 312.5 1223
210.938 -39.0625 829
-70.3125 -210.938 903
-257.812 -265.625 989
218.75 -125 798
187.5 -70.3125 817
156.25 -132.812 800
-484.375 -46.875 1050
15.625 242.188 1632
-312.5 296.875 1223
203.125 -304.688 1097
93.75 -132.812 811
-476.562 -210.938 1016
406.25 351.562 1227
203.125 -226.562 898
195.312 234.375 928
-210.938 -359.375 951
421.875 343.75 1202
-421.875 218.75 1084
46.875 226.562 1705
242.188 398.438 1173
-289.062 320.312 1223
187.5 -179.688 805
-31.25 -210.938 873
187.5 -132.812 798
140.625 -140.625 798
195.312 -46.875 825
195.312 226.562 925
101.562 328.125 1354
-265.625 343.75 1227
7.8125 242.188 1632
-109.375 -398.438 1073
203.125 7.8125 845
-304.688 -375 951
187.5 -62.5 821
195.312 -15.625 837
70.3125 203.125 1680
0 -250 894
7.8125 7.8125 878
164.062 343.75 1028
187.5 -195.312 835
7.8125 375 1288
-46.875 -195.312 869
468.75 242.188 843
-398.438 265.625 1241
-265.625 335.938 1232
203.125 -195.312 837
187.5 -54.6875 823
320.312 414.062 1112
109.375 250 1624
187.5 -31.25 831
242.188 390.625 1169
109.375 -140.625 805
-304.688 343.75 1236
468.75 -359.375 1016
195.312 164.062 898
-203.125 289.062 1594
-46.875 -218.75 869
210.938 -195.312 837
54.6875 -140.625 815
382.812 234.375 891
-242.188 -343.75 956
367.188 343.75 1134
195.312 -39.0625 829
-492.188 -39.0625 989
-343.75 -242.188 1025
195.312 218.75 920
195.312 156.25 891
203.125 -78.125 813
-265.625 -343.75 959
-140.625 -382.812 1022
226.562 398.438 1202
15.625 -218.75 851
-281.25 -390.625 940
-39.0625 304.688 1433
453.125 -351.562 1022
-476.562 -203.125 1010
164.062 335.938 1016
218.75 -140.625 792
-109.375 -382.812 998
195.312 179.688 901
296.875 312.5 946
187.5 273.438 951
-320.312 -273.438 995
-390.625 289.062 1245
234.375 382.812 1185
195.312 -226.562 896
132.812 -132.812 803
117.188 -140.625 803
-359.375 367.188 1214
-429.688 156.25 1047
-437.5 367.188 1433
187.5 -7.8125 843
-31.25 -226.562 867
39.0625 -226.562 898
70.3125 179.688 1663
328.125 414.062 1130
203.125 -187.5 819
39.0625 -265.625 915
250 406.25 1161
187.5 -210.938 871
187.5 351.562 1025
187.5 -171.875 794
15.625 -148.438 819
-328.125 -382.812 948
187.5 7.8125 847
-210.938 296.875 1572
-156.25 296.875 1579
23.4375 -148.438 817
-164.062 -343.75 1157
203.125 140.625 882
367.188 -148.438 1177
46.875 218.75 1705
-281.25 -328.125 964
195.312 242.188 930
7.8125 -250 891
187.5 -148.438 790
187.5 265.625 948
-375 289.062 1165
203.125 -234.375 925
-351.562 -453.125 2984
203.125 -257.812 981
156.25 390.625 1084
421.875 367.188 1214
195.312 -31.25 831
-203.125 -429.688 943
78.125 171.875 1639
195.312 218.75 920
367.188 351.562 1130
-179.688 -328.125 987
203.125 7.8125 845
7.8125 -140.625 823
-437.5 78.125 1007
171.875 164.062 1586
328.125 289.062 928
15.625 234.375 2016
203.125 0 843
187.5 -46.875 827
-312.5 -265.625 995
-250 351.562 1292
70.3125 164.062 1632
-296.875 406.25 1283
-179.688 -445.312 1115
195.312 -39.0625 829
-484.375 -179.688 998
-367.188 351.562 1477
-39.0625 -210.938 875
-320.312 328.125 1245
312.5 312.5 940
210.938 -70.3125 819
-132.812 -414.062 1084
-468.75 -203.125 1063
234.375 367.188 1169
187.5 359.375 1028
62.5 203.125 1688
195.312 164.062 898
-226.562 -414.062 930
171.875 453.125 1097
-203.125 -445.312 1108
101.562 382.812 1283
-367.188 312.5 1173
-156.25 -437.5 1119
7.8125 -234.375 851
70.3125 156.25 1632
-343.75 234.375 1189
-203.125 -351.562 956
429.688 343.75 1189
-250 375 1259
117.188 343.75 1365
-226.562 -398.438 935
-195.312 -406.25 956
-468.75 -226.562 1028
257.812 445.312 1149
-476.562 -70.3125 943
-85.9375 203.125 1757
492.188 -351.562 995
85.9375 335.938 1365
70.3125 375 1288
-437.5 -210.938 1141
-453.125 -453.125 2560
195.312 210.938 918
-242.188 -351.562 954
187.5 -93.75 807
31.25 226.562 1705
-156.25 -382.812 1134
-414.062 210.938 1080
-320.312 -343.75 964
-343.75 398.438 1236
-328.125 -375 951
187.5 375 1041
187.5 -78.125 815
-109.375 -390.625 1073
210.938 -132.812 794
195.312 140.625 887
195.312 203.125 915
7.8125 -289.062 925
195.312 187.5 910
156.25 -140.625 796
85.9375 328.125 1370
62.5 390.625 1273
-375 328.125 1193
203.125 -210.938 858
-445.312 93.75 1016
7.8125 -218.75 851
-15.625 343.75 1317
-226.562 -273.438 987
-468.75 -218.75 1019
203.125 15.625 847
210.938 -54.6875 821
15.625 242.188 1632
187.5 0 845
351.562 -164.062 1210
195.312 -250 959
-242.188 -414.062 933
187.5 -109.375 803
187.5 257.812 943
210.938 -78.125 813
70.3125 -31.25 851
-31.25 -250 867
78.125 429.688 1312
-234.375 429.688 1288
-195.312 429.688 1354
187.5 250 940
-203.125 -257.812 995
15.625 -226.562 851
-445.312 -406.25 2598
367.188 -171.875 1149
164.062 382.812 1047
-31.25 335.938 1333
351.562 382.812 1115
179.688 -179.688 809
-15.625 -195.312 864
195.312 148.438 889
203.125 -7.8125 839
195.312 132.812 882
-273.438 -265.625 992
-234.375 -328.125 964
-7.8125 320.312 1365
179.688 453.125 1094
218.75 -148.438 792
210.938 -62.5 819
7.8125 -210.938 854
187.5 -85.9375 811
398.438 343.75 1157
-7.8125 -140.625 827
-203.125 -328.125 964
140.625 -140.625 798
-492.188 -195.312 1007
70.3125 171.875 1647
187.5 -187.5 823
-273.438 125 1370
-476.562 -187.5 1010
203.125 -203.125 849
70.3125 140.625 925
179.688 367.188 1034
-250 390.625 1264
296.875 171.875 880
101.562 320.312 1365
-7.8125 -265.625 898
203.125 -195.312 837
-210.938 -312.5 970
-296.875 -265.625 995
195.312 421.875 1067
-250 -343.75 956
-226.562 -453.125 1112
85.9375 320.312 1376
187.5 -70.3125 817
210.938 -234.375 923
171.875 437.5 1087
-164.062 -312.5 1219
-39.0625 250 1655
187.5 -31.25 831
-117.188 -437.5 1070
-62.5 -265.625 1050
203.125 23.4375 887
93.75 -140.625 805
320.312 328.125 1141
187.5 265.625 948
265.625 -54.6875 1001
195.312 226.562 925
54.6875 312.5 1398
-296.875 273.438 1307
203.125 -265.625 998
390.625 320.312 930
-242.188 -273.438 987
-437.5 -367.188 2680
312.5 421.875 1097
-164.062 -375 1134
-218.75 312.5 1536
7.8125 -226.562 851
-406.25 242.188 1101
-343.75 -234.375 1057
210.938 -78.125 813
179.688 -156.25 790
210.938 -289.062 1070
-304.688 -328.125 970
78.125 156.25 1624
171.875 140.625 908
-390.625 304.688 1241
-398.438 265.625 1241
-179.688 179.688 1705
-304.688 335.938 1232
382.812 -304.688 1077
15.625 -203.125 858
78.125 164.062 1624
-46.875 -203.125 880
343.75 398.438 1119
390.625 218.75 880
46.875 -234.375 898
46.875 -210.938 889
-15.625 351.562 1307
70.3125 148.438 1632
-289.062 359.375 1317
-31.25 -296.875 1047
-484.375 -39.0625 1038
187.5 -101.562 805
343.75 -156.25 1189
367.188 406.25 1161
195.312 210.938 918
-117.188 -351.562 1016
210.938 -312.5 1157
203.125 -93.75 807
-109.375 -382.812 998
0 328.125 1376
-156.25 -414.062 1119
101.562 351.562 1322
203.125 7.8125 845
-257.812 343.75 1278
218.75 -132.812 796
382.812 85.9375 807
187.5 -39.0625 831
-328.125 -125 887
-328.125 351.562 1232
203.125 0 843
-296.875 351.562 1236
179.688 -140.625 796
210.938 -320.312 1189
203.125 -187.5 819
-15.625 375 1292
179.688 406.25 1063
-125 -343.75 1028
54.6875 -132.812 817
289.062 429.688 1094
-234.375 406.25 1283
-351.562 382.812 1232
-218.75 -250 1001
-171.875 -328.125 1177
421.875 -351.562 1034
-179.688 429.688 1349
-343.75 406.25 1255
187.5 -125 798
-414.062 226.562 1094
-273.438 414.062 1264
195.312 -46.875 825
179.688 390.625 1050
179.688 -148.438 792
218.75 -148.438 792
-179.688 421.875 1365
7.8125 -132.812 827
351.562 -187.5 1145
-281.25 312.5 1223
7.8125 250 1632
-148.438 -414.062 1126
70.3125 156.25 1632
109.375 -132.812 807
195.312 195.312 913
-7.8125 -148.438 825
-203.125 304.688 1550
429.688 351.562 1189
187.5 -218.75 882
250 414.062 1161
195.312 218.75 920
-445.312 62.5 998
-156.25 -421.875 1119
7.8125 312.5 1392
210.938 -328.125 1189
210.938 -85.9375 809
-46.875 -242.188 864
-132.812 -437.5 1077
-468.75 -210.938 1016
187.5 -15.625 839
195.312 234.375 928
-109.375 -242.188 992
179.688 359.375 1028
70.3125 132.812 925
78.125 -140.625 811
-148.438 -382.812 1025
195.312 203.125 915
-179.688 -375 987
0 -210.938 854
187.5 -117.188 800
70.3125 -140.625 813
179.688 421.875 1073
179.688 -164.062 792
-382.812 85.9375 1105
-414.062 257.812 1236
132.812 -140.625 802
-171.875 -367.188 1134
54.6875 -226.562 908
179.688 -101.562 807
-234.375 -226.562 987
-70.3125 -203.125 896
187.5 7.8125 847
70.3125 -234.375 891
-492.188 273.438 1278
0 312.5 1376
7.8125 -203.125 860
-7.8125 -140.625 827
429.688 -164.062 1115
187.5 343.75 1022
-343.75 -226.562 1044
250 132.812 873
179.688 398.438 1054
187.5 242.188 938
203.125 -7.8125 839
85.9375 343.75 1354
31.25 -78.125 843
195.312 187.5 910
78.125 304.688 1392
-140.625 -429.688 1080
-468.75 -195.312 1016
-281.25 296.875 1227
-242.188 -242.188 1004
-304.688 -78.125 908
343.75 -187.5 1273
-250 54.6875 898
-78.125 -218.75 928
210.938 -78.125 815
187.5 320.312 1001
445.312 398.438 1185
210.938 -132.812 798
195.312 23.4375 847
-78.125 -226.562 946
7.8125 -289.062 923
226.562 85.9375 823
218.75 -109.375 800
164.062 304.688 973
-484.375 -226.562 1016
-304.688 351.562 1273
242.188 367.188 1145
54.6875 -140.625 815
195.312 -265.625 995
-273.438 406.25 1259
-218.75 -406.25 935
187.5 257.812 940
-156.25 -406.25 1126
15.625 -265.625 901
187.5 375 1041
15.625 -234.375 849
-234.375 -398.438 938
-281.25 -234.375 1010
203.125 -210.938 860
367.188 328.125 930
109.375 382.812 1322
195.312 -54.6875 823
187.5 -195.312 831
-476.562 -210.938 1019
-109.375 421.875 1365
-476.562 -187.5 946
203.125 -273.438 1022
-351.562 390.625 1241
-335.938 429.688 1273
-468.75 281.25 1273
-375 335.938 1197
-250 -257.812 998
-390.625 289.062 1161
187.5 -203.125 849
117.188 242.188 1632
164.062 328.125 1016
179.688 -132.812 796
187.5 328.125 1010
-23.4375 414.062 1292
296.875 390.625 1112
187.5 250 938
-257.812 -273.438 989
171.875 445.312 1090
335.938 109.375 807
-476.562 -218.75 1019
-195.312 -335.938 984
117.188 -140.625 803
-218.75 304.688 1557
-171.875 -421.875 1115
171.875 -164.062 792
101.562 335.938 1343
187.5 234.375 930
-281.25 -328.125 970
179.688 -187.5 819
-125 109.375 962
-265.625 328.125 1245
-132.812 -429.688 1077
195.312 195.312 910
-15.625 -210.938 860
-312.5 -351.562 962
187.5 -62.5 821
-234.375 -390.625 940
359.375 -62.5 1010
210.938 -140.625 794
179.688 351.562 1025
-289.062 -289.062 987
31.25 234.375 2016
-257.812 429.688 1283
54.6875 218.75 1696
-187.5 414.062 1381
15.625 242.188 1639
-203.125 -289.062 987
-421.875 125 1044
203.125 -203.125 847
-281.25 -382.812 943
78.125 148.438 1624
187.5 226.562 925
-414.062 125 1057
-210.938 296.875 1579
257.812 171.875 887
179.688 421.875 1070
195.312 203.125 913
78.125 140.625 913
210.938 -93.75 811
210.938 -85.9375 811
54.6875 414.062 1278
85.9375 140.625 915
-15.625 335.938 1343
-234.375 -273.438 987
-296.875 -328.125 970
-218.75 -328.125 967
-335.938 -257.812 1007
85.9375 328.125 1370
343.75 -203.125 1312
15.625 -242.188 891
273.438 320.312 951
195.312 -234.375 920
234.375 351.562 1165
-335.938 421.875 1264
-351.562 -460.938 2933
179.688 31.25 882
-500 -39.0625 998
234.375 -101.562 1084
62.5 382.812 1273
179.688 -140.625 794
-210.938 -304.688 975
-31.25 -195.312 864
-117.188 -437.5 1070
-265.625 -257.812 998
-195.312 382.812 1415
359.375 359.375 1126
54.6875 210.938 1696
-39.0625 -390.625 1001
-367.188 351.562 1210
187.5 -23.4375 837
-156.25 -429.688 1126
78.125 132.812 913
15.625 234.375 2040
-101.562 359.375 1458
109.375 -140.625 805
-328.125 -351.562 962
-234.375 343.75 1503
-390.625 -453.125 3064
179.688 382.812 1044
0 -257.812 894
-296.875 382.812 1255
-445.312 -421.875 2579
15.625 -140.625 823
179.688 -101.562 807
70.3125 375 1288
179.688 39.0625 875
-164.062 -335.938 1181
195.312 -62.5 821
31.25 226.562 1705
390.625 343.75 1157
70.3125 164.062 1639
-140.625 -421.875 1084
-414.062 226.562 1097
46.875 -140.625 817
210.938 -70.3125 819
-62.5 -250 1007
179.688 -85.9375 811
-78.125 367.188 1338
0 -148.438 821
-234.375 -367.188 948
-367.188 343.75 1210
-359.375 367.188 1219
179.688 -93.75 807
195.312 171.875 896
-476.562 -203.125 1016
-15.625 -203.125 864
-320.312 -390.625 948
-226.562 -414.062 930
62.5 -148.438 809
70.3125 148.438 1632
39.0625 -148.438 815
-210.938 -437.5 1108
93.75 351.562 1307
-296.875 -335.938 967
-132.812 148.438 1722
195.312 -242.188 928
-250 382.812 1264
-406.25 250 1134
164.062 273.438 959
85.9375 335.938 1359
156.25 398.438 1054
70.3125 -148.438 809
-476.562 -187.5 946
23.4375 -234.375 894
343.75 -187.5 1273
-453.125 70.3125 1007
-476.562 -195.312 1016
179.688 -109.375 805
367.188 -31.25 962
-320.312 -304.688 984
203.125 -195.312 835
46.875 312.5 1404
179.688 7.8125 849
203.125 -101.562 805
-148.438 -390.625 1070
-117.188 -421.875 1077
-140.625 -382.812 1016
210.938 -62.5 821
203.125 -93.75 809
429.688 367.188 1189
-343.75 -351.562 964
-15.625 359.375 1302
-312.5 -320.312 975
39.0625 -218.75 903
-437.5 -375 2680
-109.375 320.312 1529
203.125 -15.625 837
187.5 -281.25 1054
187.5 218.75 920
-39.0625 -203.125 878
85.9375 359.375 1307
7.8125 -140.625 823
171.875 429.688 1080
203.125 -7.8125 841
-304.688 382.812 1268
-304.688 -335.938 967
179.688 335.938 1016
7.8125 -210.938 854
-468.75 -7.8125 981
-328.125 -375 954
414.062 328.125 923
70.3125 203.125 1680
-320.312 -289.062 987
78.125 320.312 1376
296.875 367.188 1119
-132.812 -335.938 1041
179.688 -70.3125 819
179.688 -31.25 833
-343.75 367.188 1219
31.25 -273.438 915
78.125 257.812 1616
250 382.812 1138
85.9375 343.75 1349
203.125 -23.4375 835
210.938 -93.75 811
7.8125 -148.438 819
343.75 375 1115
343.75 -195.312 1292
78.125 382.812 1283
-156.25 -335.938 1185
492.188 -343.75 998
23.4375 -226.562 896
210.938 -101.562 807
93.75 -140.625 805
-328.125 406.25 1259
-62.5 382.812 1328
62.5 210.938 1696
351.562 -164.062 1206
195.312 187.5 908
-328.125 -281.25 995
31.25 -289.062 913
328.125 406.25 1126
359.375 367.188 1123
304.688 421.875 1094
203.125 -218.75 878
187.5 -7.8125 841
-265.625 304.688 1259
-31.25 343.75 1317
187.5 7.8125 847
203.125 31.25 880
-304.688 335.938 1264
-117.188 -414.062 1077
-210.938 109.375 967
-195.312 390.625 1410
-46.875 -250 864
195.312 -218.75 885
109.375 343.75 1328
-179.688 -296.875 1001
210.938 -85.9375 811
-500 -171.875 975
203.125 -109.375 805
-15.625 -273.438 933
15.625 -148.438 819
179.688 343.75 1022
-312.5 398.438 1273
-343.75 -234.375 1060
-281.25 414.062 1273
54.6875 218.75 1696
-132.812 -296.875 1028
406.25 218.75 871
179.688 390.625 1050
-500 -70.3125 973
-203.125 398.438 1387
203.125 -289.062 1077
367.188 359.375 1130
-117.188 -429.688 1073
195.312 31.25 880
-242.188 312.5 1470
70.3125 140.625 918
-320.312 -375 954
179.688 -156.25 790
-39.0625 -195.312 867
-164.062 -320.312 1223
343.75 390.625 1115
171.875 -164.062 792
-164.062 -437.5 1123
-70.3125 -382.812 989
343.75 -203.125 1312
179.688 421.875 1070
148.438 -140.625 796
187.5 242.188 933
179.688 -78.125 815
-492.188 -101.562 930
117.188 226.562 1688
210.938 54.6875 854
179.688 7.8125 849
187.5 0 845
-62.5 -382.812 995
351.562 367.188 1115
46.875 398.438 1278
-39.0625 -257.812 930
-343.75 -226.562 1007
-257.812 390.625 1259
70.3125 132.812 918
-171.875 367.188 1322
-421.875 203.125 1084
-187.5 -320.312 998
62.5 -132.812 815
195.312 179.688 901
179.688 -15.625 839
-78.125 -218.75 928
31.25 -226.562 898
203.125 -281.25 1047
-109.375 226.562 1722
187.5 226.562 925
-312.5 265.625 1278
-234.375 -398.438 938
-242.188 -328.125 964
171.875 437.5 1084
203.125 218.75 918
-273.438 -257.812 998
179.688 -46.875 827
187.5 195.312 910
109.375 312.5 1370
46.875 -140.625 817
367.188 351.562 1130
-39.0625 -218.75 869
203.125 -31.25 831
78.125 445.312 1283
179.688 -7.8125 841
-23.4375 -195.312 864
-62.5 -210.938 903
-429.688 117.188 1034
187.5 -46.875 825
210.938 -265.625 995
-7.8125 -140.625 827
445.312 320.312 920
359.375 -148.438 1177
-382.812 312.5 1185
-296.875 -289.062 987
-312.5 -265.625 998
210.938 -320.312 1189
179.688 -23.4375 837
179.688 -39.0625 829
343.75 62.5 837
179.688 -62.5 821
-164.062 -429.688 1119
195.312 -70.3125 815
343.75 -179.688 1245
-281.25 132.812 1359
320.312 414.062 1115
54.6875 390.625 1273
-250 -343.75 962
125 234.375 1647
-265.625 -257.812 998
-171.875 -382.812 1130
23.4375 -257.812 898
46.875 -148.438 813
210.938 -218.75 878
85.9375 -234.375 889
46.875 -218.75 898
-281.25 -382.812 943
-46.875 -203.125 878
54.6875 210.938 1696
-312.5 320.312 1227
187.5 203.125 913
-7.8125 -210.938 856
179.688 -140.625 794
-171.875 -375 1134
-500 -109.375 930
-460.938 132.812 1047
70.3125 195.312 1671
-445.312 -382.812 2618
171.875 -171.875 798
187.5 312.5 998
421.875 320.312 923
398.438 335.938 1161
203.125 -187.5 821
-7.8125 367.188 1292
-445.312 132.812 1041
85.9375 335.938 1359
125 -140.625 803
-54.6875 -203.125 880
-203.125 -250 1001
-335.938 -234.375 1050
179.688 -171.875 796
351.562 390.625 1115
203.125 -109.375 805
195.312 164.062 891
-210.938 -421.875 938
179.688 -109.375 805
117.188 -132.812 805
78.125 312.5 1387
-218.75 -343.75 959
328.125 382.812 1112
-31.25 -218.75 867
492.188 -351.562 995
-62.5 -242.188 869
367.188 382.812 1101
-218.75 -234.375 1004
187.5 -210.938 873
351.562 382.812 1115
117.188 242.188 1632
406.25 -351.562 1041
210.938 -93.75 811
-226.562 -421.875 933
187.5 218.75 920
39.0625 -289.062 910
179.688 296.875 964
187.5 210.938 918
234.375 7.8125 910
-117.188 -421.875 1077
226.562 -203.125 878
15.625 234.375 2040
-398.438 273.438 1153
85.9375 351.562 1328
367.188 -156.25 1157
343.75 -164.062 1214
187.5 -15.625 839
179.688 328.125 1010
132.812 -140.625 802
179.688 -31.25 833
-328.125 -257.812 1004
156.25 273.438 1586
-468.75 -203.125 1073
-445.312 179.688 1073
195.312 -250 959
-382.812 195.312 1119
335.938 398.438 1123
-328.125 -289.062 989
234.375 398.438 1177
203.125 -31.25 831
62.5 -140.625 813
62.5 -250 889
195.312 148.438 887
343.75 398.438 1126
-375 335.938 1197
-46.875 -273.438 933
179.688 -148.438 792
-39.0625 -296.875 1047
-375 328.125 1193
-242.188 -296.875 978
-171.875 -304.688 1219
187.5 257.812 940
132.812 226.562 1671
343.75 -179.688 1245
7.8125 375 1278
179.688 -54.6875 823
85.9375 367.188 1292
179.688 320.312 1007
296.875 414.062 1097
195.312 156.25 891
179.688 -132.812 796
210.938 -273.438 1019
-257.812 359.375 1288
195.312 31.25 880
187.5 320.312 1001
210.938 -281.25 1047
250 414.062 1115
195.312 171.875 896
-234.375 -328.125 964
-93.75 367.188 1439
179.688 0 847
-367.188 -453.125 2984
70.3125 171.875 1655
390.625 -304.688 1070
-289.062 367.188 1255
359.375 -156.25 1189
250 414.062 1115
-398.438 46.875 933
70.3125 -218.75 894
15.625 -242.188 891
-140.625 367.188 1445
-117.188 -414.062 1077
-484.375 -179.688 928
343.75 -171.875 1232
-31.25 -242.188 869
203.125 -195.312 835
218.75 62.5 843
-335.938 -226.562 998
148.438 -132.812 800
-312.5 -320.312 975
78.125 328.125 1370
-437.5 -359.375 2680
85.9375 -460.938 2812
296.875 429.688 1094
-312.5 -312.5 975
85.9375 343.75 1349
156.25 375 1047
46.875 226.562 1696
-320.312 -304.688 984
-46.875 343.75 1398
179.688 382.812 1044
367.188 320.312 928
7.8125 -132.812 827
210.938 148.438 885
-195.312 -289.062 992
-304.688 335.938 1264
-15.625 359.375 1302
-156.25 -421.875 1126
250 406.25 1115
-210.938 429.688 1359
54.6875 218.75 1696
492.188 -218.75 1054
210.938 -109.375 803
-257.812 0 933
-164.062 -335.938 1181
-273.438 -250 1001
78.125 132.812 913
78.125 -218.75 898
210.938 -78.125 815
101.562 -250 938
0 -140.625 825
390.625 70.3125 823
210.938 7.8125 845
-250 414.062 1283
-242.188 -312.5 973
-85.9375 343.75 1365
23.4375 -140.625 821
62.5 375 1292
-406.25 226.562 1094
7.8125 -140.625 823
117.188 406.25 1333
-93.75 343.75 1483
140.625 -93.75 813
-226.562 437.5 1338
210.938 -101.562 807
195.312 15.625 847
-226.562 -406.25 933
-109.375 -367.188 998
