ply
format ascii 1.0
comment Created by Open3D
element vertex 2408
property double x
property double y
property double z
end_header
-289.062 -234.375 978
-250 -359.375 1359
-187.5 0 800
156.25 -351.562 771
179.688 -406.25 771
-312.5 -93.75 854
46.875 -171.875 647
164.062 -312.5 767
265.625 -265.625 747
468.75 -125 687
70.3125 304.688 636
179.688 -85.9375 686
-296.875 -70.3125 851
179.688 -281.25 766
-453.125 -304.688 2883
156.25 375 603
453.125 -70.3125 657
-125 156.25 714
398.438 281.25 601
265.625 445.312 571
-273.438 -265.625 1010
-367.188 218.75 1863
-164.062 -70.3125 956
398.438 -234.375 923
15.625 0 769
-78.125 -148.438 1094
265.625 453.125 567
-312.5 -320.312 1307
273.438 328.125 594
-148.438 -125 860
242.188 -414.062 733
109.375 -7.8125 706
-23.4375 242.188 668
-296.875 -218.75 964
39.0625 281.25 648
195.312 -85.9375 825
312.5 234.375 653
320.312 -78.125 713
-15.625 429.688 749
195.312 -421.875 762
320.312 -54.6875 655
390.625 -140.625 730
-335.938 -148.438 889
-312.5 101.562 930
179.688 54.6875 746
-250 78.125 767
-187.5 289.062 823
-226.562 31.25 787
-398.438 390.625 1663
85.9375 46.875 754
398.438 195.312 602
437.5 328.125 607
-296.875 -62.5 849
171.875 -367.188 762
-140.625 398.438 1415
304.688 -46.875 661
398.438 -164.062 719
328.125 382.812 591
203.125 -171.875 885
-320.312 -453.125 3120
-171.875 289.062 819
-328.125 -164.062 903
406.25 281.25 601
101.562 -117.188 641
156.25 -375 774
-117.188 367.188 1241
125 -187.5 646
289.062 -343.75 733
421.875 312.5 587
-7.8125 -132.812 691
210.938 -156.25 871
-117.188 -140.625 998
-398.438 109.375 1398
-195.312 7.8125 796
85.9375 -132.812 640
359.375 -46.875 644
476.562 195.312 659
-179.688 117.188 738
-343.75 -15.625 878
132.812 -179.688 642
359.375 -109.375 750
203.125 -117.188 845
-398.438 382.812 1680
398.438 -78.125 714
320.312 -140.625 711
70.3125 312.5 634
343.75 -54.6875 649
203.125 15.625 766
-195.312 351.562 1477
210.938 406.25 588
-85.9375 -156.25 1101
-140.625 140.625 722
-468.75 0 1016
78.125 -15.625 717
-62.5 390.625 767
125 -132.812 625
195.312 398.438 592
15.625 -210.938 667
-320.312 -31.25 880
7.8125 265.625 655
343.75 -156.25 707
-312.5 -187.5 935
445.312 320.312 610
343.75 -359.375 742
-476.562 -210.938 1206
-179.688 109.375 739
-421.875 39.0625 975
-421.875 39.0625 975
414.062 -289.062 2503
-109.375 -109.375 1001
-195.312 -31.25 811
195.312 429.688 588
-85.9375 187.5 697
375 226.562 604
171.875 -78.125 668
93.75 -125 641
-343.75 210.938 1594
296.875 -335.938 734
-7.8125 -148.438 682
289.062 468.75 562
54.6875 -453.125 2349
-7.8125 -140.625 686
-328.125 39.0625 880
390.625 -117.188 744
-304.688 281.25 1794
-265.625 -171.875 1013
-265.625 -187.5 1022
23.4375 -23.4375 746
476.562 203.125 655
78.125 312.5 634
-78.125 195.312 691
-195.312 93.75 750
304.688 23.4375 672
234.375 421.875 580
421.875 -39.0625 643
320.312 -296.875 739
429.688 234.375 586
335.938 -156.25 707
210.938 -85.9375 821
-265.625 -296.875 1019
328.125 -312.5 738
164.062 -382.812 773
-132.812 -85.9375 843
78.125 -46.875 697
179.688 -273.438 769
406.25 -203.125 898
312.5 250 648
-273.438 -250 1001
-328.125 164.062 910
-328.125 328.125 1739
-382.812 132.812 1439
-46.875 343.75 787
226.562 -203.125 798
-117.188 -54.6875 827
375 -101.562 757
31.25 -203.125 661
39.0625 -335.938 1278
343.75 250 606
382.812 -78.125 714
-265.625 -382.812 3037
242.188 -335.938 736
7.8125 7.8125 781
210.938 414.062 585
-164.062 132.812 728
156.25 -281.25 783
-156.25 -171.875 885
-125 351.562 789
-304.688 -335.938 1322
335.938 -62.5 655
476.562 242.188 638
-226.562 179.688 878
-85.9375 -273.438 1214
7.8125 -218.75 671
46.875 289.062 642
-117.188 -218.75 940
-109.375 -179.688 1038
-7.8125 -156.25 674
460.938 -39.0625 649
484.375 203.125 657
-210.938 -62.5 856
117.188 -210.938 659
-187.5 101.562 746
398.438 -156.25 720
-281.25 -234.375 989
-195.312 281.25 833
-93.75 -70.3125 837
179.688 382.812 598
-335.938 -304.688 1292
171.875 -242.188 796
-468.75 -218.75 1210
492.188 -101.562 819
-265.625 -265.625 1016
476.562 281.25 607
242.188 335.938 613
-218.75 328.125 1489
-85.9375 -265.625 1206
93.75 328.125 624
171.875 -398.438 769
-54.6875 -46.875 819
78.125 -39.0625 701
-7.8125 -117.188 703
328.125 -125 711
-320.312 -148.438 894
101.562 -46.875 683
-109.375 -242.188 967
398.438 -46.875 638
-203.125 -93.75 843
453.125 -62.5 653
-171.875 125 731
312.5 -93.75 716
-226.562 320.312 1509
-117.188 -414.062 1398
-132.812 265.625 825
320.312 -101.562 714
179.688 -296.875 762
70.3125 -70.3125 686
328.125 -70.3125 707
-265.625 -15.625 869
-242.188 -414.062 3120
-343.75 -117.188 864
156.25 -273.438 787
-7.8125 -226.562 678
156.25 -195.312 657
-382.812 320.312 1748
226.562 -421.875 734
-250 125 829
242.188 429.688 577
-335.938 -164.062 896
-195.312 -23.4375 811
-54.6875 210.938 684
7.8125 -226.562 676
195.312 -406.25 757
484.375 -117.188 682
187.5 -101.562 678
109.375 -109.375 641
187.5 -328.125 754
-117.188 164.062 710
-328.125 -171.875 908
-234.375 -210.938 1044
-15.625 -367.188 1312
406.25 -187.5 722
195.312 -117.188 845
242.188 -421.875 728
-281.25 -250 992
-304.688 -187.5 948
390.625 -101.562 750
367.188 -125 747
-125 -156.25 1007
289.062 367.188 579
-375 -250 1227
-101.562 179.688 700
-210.938 335.938 1483
453.125 -7.8125 762
406.25 257.812 594
-195.312 101.562 747
390.625 250 606
132.812 -296.875 798
-328.125 -101.562 858
7.8125 257.812 661
-320.312 -179.688 923
171.875 -289.062 767
265.625 -335.938 733
-179.688 281.25 821
210.938 -78.125 819
437.5 203.125 596
-164.062 -15.625 809
187.5 -343.75 750
-125 171.875 707
0 -62.5 739
-296.875 -460.938 3064
328.125 351.562 603
187.5 -70.3125 817
0 -85.9375 720
0 273.438 655
-125 210.938 739
0 -78.125 723
273.438 375 598
187.5 -304.688 755
-289.062 -15.625 871
-15.625 351.562 778
382.812 -328.125 766
320.312 -85.9375 714
-328.125 -468.75 3010
-468.75 -7.8125 1016
125 351.562 614
-289.062 -250 987
-328.125 335.938 1731
328.125 -289.062 741
148.438 359.375 609
-164.062 125 731
148.438 -265.625 800
-265.625 281.25 1543
-101.562 -265.625 981
226.562 -54.6875 803
-234.375 39.0625 780
-62.5 210.938 684
351.562 351.562 602
-390.625 -273.438 1255
-101.562 -218.75 1161
476.562 234.375 643
273.438 -257.812 749
273.438 -406.25 730
171.875 -187.5 646
-93.75 31.25 778
-328.125 156.25 910
156.25 31.25 723
54.6875 -164.062 644
-343.75 -15.625 878
257.812 437.5 573
375 -179.688 711
-54.6875 437.5 1328
-210.938 0 803
140.625 31.25 714
382.812 218.75 601
78.125 328.125 627
-296.875 109.375 923
187.5 -85.9375 686
179.688 -234.375 796
-398.438 375 1680
351.562 -101.562 706
273.438 312.5 593
-257.812 78.125 773
-382.812 312.5 1757
320.312 242.188 650
-203.125 -54.6875 889
-31.25 -375 1328
343.75 304.688 597
-359.375 414.062 1647
351.562 -109.375 708
296.875 -187.5 707
-359.375 -7.8125 878
-46.875 218.75 680
70.3125 -171.875 642
-312.5 -85.9375 862
46.875 -125 664
421.875 304.688 589
39.0625 -46.875 720
312.5 -125 741
-242.188 -62.5 847
-460.938 0 1007
421.875 265.625 593
234.375 429.688 578
234.375 -187.5 811
421.875 -46.875 646
-7.8125 -164.062 672
359.375 -375 754
390.625 -93.75 723
93.75 320.312 628
406.25 -179.688 722
-234.375 -39.0625 847
257.812 -78.125 688
156.25 -367.188 774
-179.688 -101.562 849
-54.6875 429.688 1322
-70.3125 335.938 787
132.812 -62.5 658
-15.625 250 664
351.562 -93.75 706
343.75 -226.562 693
195.312 -195.312 815
-328.125 39.0625 880
312.5 -117.188 746
164.062 46.875 749
0 -187.5 661
-265.625 -281.25 1013
-132.812 -93.75 1010
0 -70.3125 728
-132.812 -140.625 1001
0 -31.25 759
375 -109.375 752
367.188 -101.562 757
250 -390.625 736
-492.188 -31.25 1038
7.8125 0 780
320.312 -148.438 708
210.938 -62.5 809
148.438 -125 623
-343.75 -7.8125 878
312.5 -101.562 714
335.938 328.125 596
-171.875 117.188 734
-15.625 242.188 670
359.375 -46.875 644
-218.75 93.75 754
-242.188 -195.312 1031
351.562 -351.562 746
-7.8125 -148.438 682
125 15.625 710
-390.625 351.562 1705
492.188 -343.75 2381
-7.8125 -156.25 674
-156.25 -31.25 817
-328.125 -15.625 873
148.438 -289.062 785
-23.4375 -156.25 686
-85.9375 -273.438 1214
210.938 -70.3125 813
-31.25 234.375 672
-140.625 148.438 719
273.438 468.75 563
335.938 -414.062 764
398.438 -140.625 725
234.375 -414.062 736
218.75 -164.062 875
148.438 -343.75 776
-312.5 62.5 878
-273.438 -265.625 1010
460.938 -62.5 653
406.25 -226.562 918
-148.438 -296.875 1010
492.188 -70.3125 798
-320.312 -46.875 851
203.125 23.4375 761
54.6875 -226.562 674
-156.25 7.8125 794
414.062 273.438 602
-31.25 257.812 668
382.812 281.25 598
70.3125 -156.25 640
109.375 335.938 621
351.562 -15.625 644
406.25 335.938 585
-93.75 195.312 693
328.125 -406.25 750
140.625 359.375 610
398.438 -148.438 722
289.062 296.875 604
148.438 -328.125 778
-93.75 -164.062 1108
54.6875 -429.688 2415
242.188 -289.062 741
382.812 -234.375 683
203.125 -445.312 773
-242.188 62.5 771
445.312 296.875 610
281.25 -39.0625 672
187.5 -226.562 794
203.125 -234.375 780
-250 78.125 767
-257.812 23.4375 794
257.812 -382.812 734
-93.75 359.375 781
242.188 -296.875 739
429.688 226.562 587
54.6875 -421.875 2432
132.812 -171.875 637
-289.062 -78.125 856
-78.125 -85.9375 843
-234.375 187.5 875
453.125 -78.125 661
7.8125 23.4375 774
62.5 304.688 635
218.75 -421.875 741
54.6875 -335.938 1268
31.25 273.438 650
-125 -46.875 825
289.062 -312.5 734
390.625 -234.375 923
359.375 281.25 595
70.3125 -23.4375 714
343.75 -78.125 701
210.938 -335.938 742
281.25 -343.75 731
398.438 -54.6875 704
289.062 460.938 565
101.562 -54.6875 679
171.875 -15.625 711
-320.312 -54.6875 851
54.6875 304.688 636
265.625 437.5 573
-320.312 -39.0625 885
-171.875 250 835
242.188 -46.875 752
-140.625 85.9375 750
234.375 -46.875 752
-304.688 -39.0625 847
-164.062 -15.625 809
-335.938 203.125 1594
398.438 445.312 564
390.625 -7.8125 647
-31.25 351.562 781
0 -203.125 666
-117.188 -179.688 1038
-328.125 -93.75 858
203.125 -93.75 829
398.438 -46.875 638
195.312 -281.25 757
31.25 281.25 649
218.75 -148.438 864
-70.3125 -93.75 847
195.312 -398.438 755
117.188 23.4375 719
203.125 398.438 591
-195.312 -390.625 1392
-101.562 398.438 1322
-62.5 203.125 687
0 -93.75 713
250 23.4375 757
-93.75 -70.3125 837
-148.438 132.812 727
117.188 -195.312 653
406.25 -218.75 910
-203.125 273.438 839
-320.312 -62.5 856
-375 140.625 1445
210.938 -195.312 827
-304.688 -15.625 869
-421.875 -250 1236
398.438 203.125 600
398.438 343.75 602
414.062 -273.438 2503
125 343.75 618
156.25 -23.4375 686
109.375 15.625 719
-218.75 85.9375 755
210.938 -445.312 739
296.875 468.75 561
117.188 -304.688 823
-312.5 -187.5 935
-281.25 -132.812 873
109.375 -140.625 628
-132.812 -421.875 1410
289.062 312.5 595
398.438 -132.812 731
375 -125 746
148.438 -335.938 776
109.375 -195.312 652
0 -39.0625 754
-343.75 -117.188 864
101.562 328.125 624
-85.9375 -78.125 841
484.375 -54.6875 792
281.25 460.938 565
-7.8125 -164.062 672
476.562 257.812 614
-101.562 171.875 706
351.562 -226.562 686
343.75 -304.688 744
257.812 -195.312 798
187.5 -54.6875 805
-54.6875 210.938 684
406.25 -390.625 2579
-226.562 70.3125 764
0 -85.9375 720
203.125 -210.938 805
-312.5 93.75 933
31.25 -382.812 2503
289.062 335.938 585
375 -203.125 701
-296.875 62.5 875
-242.188 54.6875 776
-179.688 -39.0625 823
218.75 -156.25 869
0 257.812 661
250 15.625 762
328.125 281.25 601
164.062 -335.938 764
23.4375 -117.188 682
39.0625 -54.6875 714
54.6875 -445.312 2349
-328.125 -156.25 901
-78.125 -101.562 854
242.188 -328.125 734
-62.5 -93.75 847
281.25 -296.875 736
320.312 -93.75 714
-93.75 -242.188 1181
-187.5 109.375 741
117.188 -101.562 644
7.8125 -7.8125 773
406.25 -156.25 719
250 351.562 607
343.75 257.812 602
-164.062 375 1445
15.625 265.625 655
78.125 453.125 728
203.125 -351.562 747
375 -218.75 698
62.5 -62.5 694
-70.3125 226.562 683
406.25 -187.5 722
-148.438 312.5 807
406.25 -179.688 722
23.4375 390.625 759
-343.75 -132.812 873
429.688 320.312 588
15.625 -46.875 734
375 -117.188 749
-132.812 -39.0625 821
437.5 234.375 587
-31.25 -375 1328
-31.25 -117.188 717
46.875 -398.438 2467
-179.688 125 733
156.25 367.188 606
437.5 242.188 587
39.0625 281.25 648
-500 -39.0625 1044
-93.75 179.688 700
-328.125 -39.0625 882
101.562 460.938 723
-70.3125 375 769
-296.875 -453.125 3092
421.875 281.25 600
328.125 -132.812 710
-203.125 187.5 873
140.625 39.0625 719
-132.812 164.062 711
398.438 242.188 592
-101.562 179.688 700
210.938 -54.6875 803
109.375 -117.188 636
390.625 -109.375 746
-320.312 195.312 1609
210.938 -46.875 800
148.438 -304.688 781
-226.562 85.9375 757
234.375 421.875 580
375 242.188 609
-312.5 85.9375 940
164.062 375 603
-242.188 -398.438 3120
375 -210.938 700
195.312 -140.625 862
375 -195.312 706
351.562 -242.188 684
46.875 -382.812 2485
-132.812 148.438 717
-78.125 -109.375 858
406.25 -195.312 891
-414.062 46.875 970
39.0625 -171.875 649
-85.9375 187.5 697
-140.625 140.625 722
-390.625 85.9375 948
484.375 -351.562 2365
-187.5 -398.438 1398
-132.812 320.312 800
210.938 -375 744
187.5 390.625 595
-335.938 -23.4375 878
171.875 -250 785
39.0625 -203.125 661
-203.125 15.625 792
-140.625 171.875 714
-195.312 -39.0625 880
242.188 -62.5 752
187.5 46.875 749
-140.625 -203.125 930
476.562 -46.875 652
437.5 351.562 597
109.375 -164.062 635
335.938 320.312 598
-343.75 39.0625 891
23.4375 -351.562 1292
-234.375 70.3125 764
-132.812 156.25 714
-70.3125 203.125 688
-335.938 -109.375 858
93.75 -62.5 678
281.25 453.125 566
492.188 -109.375 825
-445.312 -234.375 1223
375 320.312 598
296.875 359.375 575
-265.625 -257.812 1016
62.5 -101.562 668
-265.625 -156.25 1001
218.75 -375 741
-312.5 -140.625 878
-320.312 -460.938 3037
-382.812 179.688 1557
-125 -101.562 1001
171.875 70.3125 738
367.188 -62.5 710
54.6875 -437.5 2398
218.75 -140.625 860
164.062 -382.812 773
421.875 203.125 596
-117.188 -164.062 1010
-195.312 7.8125 796
304.688 468.75 560
-367.188 195.312 1550
-390.625 359.375 1696
-328.125 -125 871
-46.875 218.75 680
-375 289.062 1785
0 250 663
85.9375 -171.875 640
218.75 -367.188 741
70.3125 -281.25 1214
257.812 -265.625 747
-70.3125 -125 867
7.8125 257.812 661
375 -164.062 723
156.25 -367.188 774
265.625 -289.062 738
-39.0625 -375 1328
312.5 -109.375 752
-109.375 -281.25 989
-7.8125 -179.688 663
0 -101.562 710
-148.438 140.625 723
-156.25 -109.375 851
476.562 -132.812 843
476.562 296.875 606
382.812 -70.3125 710
210.938 406.25 588
203.125 -437.5 773
-328.125 -70.3125 860
140.625 -171.875 637
320.312 -132.812 710
195.312 -179.688 642
78.125 -171.875 641
7.8125 -15.625 769
117.188 -210.938 659
-265.625 -148.438 998
-187.5 289.062 823
-328.125 234.375 1609
-7.8125 242.188 667
78.125 312.5 634
-195.312 101.562 747
335.938 54.6875 725
-7.8125 -171.875 667
-109.375 -234.375 954
234.375 -429.688 728
-46.875 -382.812 1333
-335.938 -140.625 882
7.8125 -187.5 657
-148.438 -85.9375 933
234.375 460.938 573
312.5 -70.3125 663
382.812 -187.5 707
-117.188 -210.938 940
-140.625 -132.812 862
398.438 218.75 594
304.688 296.875 608
54.6875 -406.25 2450
171.875 375 600
-343.75 -15.625 878
414.062 -210.938 903
-312.5 54.6875 875
406.25 -171.875 717
-203.125 85.9375 754
351.562 367.188 596
398.438 -242.188 930
-101.562 -62.5 831
117.188 335.938 620
398.438 -125 734
-171.875 -7.8125 803
429.688 -46.875 647
304.688 -328.125 734
296.875 460.938 565
390.625 -312.5 774
-234.375 62.5 769
-281.25 -242.188 987
101.562 -195.312 652
-234.375 -367.188 1365
101.562 -125 636
335.938 -62.5 655
78.125 -140.625 642
351.562 -179.688 706
281.25 304.688 594
-312.5 -78.125 858
-23.4375 234.375 672
210.938 -148.438 867
-109.375 -140.625 998
375 281.25 596
-78.125 414.062 1288
-132.812 -78.125 843
-382.812 304.688 1757
164.062 -265.625 783
93.75 320.312 628
-242.188 62.5 771
-289.062 -226.562 973
-70.3125 -85.9375 843
-359.375 -289.062 1268
437.5 -31.25 644
445.312 203.125 598
421.875 250 588
-234.375 39.0625 780
468.75 257.812 614
-242.188 -203.125 1038
-320.312 -101.562 854
-23.4375 -203.125 670
-210.938 85.9375 755
429.688 -140.625 707
132.812 351.562 614
-78.125 -140.625 1087
-203.125 -54.6875 889
343.75 320.312 598
-70.3125 398.438 771
-101.562 -289.062 1241
335.938 304.688 598
421.875 -31.25 643
218.75 -132.812 854
382.812 -218.75 700
164.062 -257.812 787
273.438 -265.625 747
-281.25 -226.562 989
-125 390.625 1302
210.938 -39.0625 796
281.25 -304.688 734
148.438 367.188 607
54.6875 -476.562 2349
-187.5 101.562 746
460.938 -140.625 696
-179.688 109.375 739
-179.688 109.375 739
-398.438 101.562 1387
93.75 328.125 624
195.312 414.062 585
281.25 -289.062 738
460.938 -39.0625 649
85.9375 -101.562 658
179.688 -304.688 761
-62.5 203.125 687
-101.562 351.562 787
210.938 -445.312 739
359.375 312.5 598
85.9375 -132.812 640
0 -109.375 703
179.688 -39.0625 716
312.5 -101.562 714
414.062 -281.25 2503
46.875 -140.625 657
164.062 -367.188 766
62.5 296.875 640
-85.9375 -265.625 1206
-367.188 257.812 1813
140.625 -46.875 663
-210.938 265.625 837
-242.188 46.875 778
-156.25 -46.875 825
195.312 -70.3125 815
335.938 218.75 628
-164.062 -15.625 809
320.312 -85.9375 714
148.438 -335.938 776
390.625 -39.0625 638
304.688 -320.312 736
-343.75 -140.625 880
351.562 -171.875 707
-125 156.25 714
382.812 -78.125 714
7.8125 -39.0625 749
382.812 -210.938 700
-367.188 171.875 1516
54.6875 -335.938 1268
187.5 -93.75 672
46.875 289.062 642
218.75 -148.438 864
210.938 -187.5 827
-140.625 -31.25 815
-70.3125 -132.812 867
-78.125 218.75 687
132.812 -179.688 642
320.312 -62.5 657
187.5 -179.688 642
-429.688 398.438 1655
343.75 -70.3125 701
-390.625 179.688 1557
171.875 382.812 599
-250 70.3125 767
421.875 -46.875 646
390.625 -101.562 750
-78.125 -156.25 1101
203.125 -109.375 839
335.938 -46.875 650
-250 -406.25 3120
-234.375 226.562 854
-78.125 375 774
156.25 -39.0625 676
164.062 -117.188 648
375 -281.25 764
218.75 -117.188 843
218.75 -125 849
210.938 -31.25 790
398.438 -46.875 638
492.188 273.438 615
-101.562 -218.75 1161
273.438 -335.938 733
156.25 -281.25 783
-429.688 -242.188 1227
0 -46.875 749
226.562 -429.688 731
-414.062 179.688 1926
-117.188 -414.062 1398
328.125 289.062 601
421.875 -382.812 2579
406.25 -164.062 717
429.688 312.5 588
351.562 -390.625 755
343.75 -242.188 696
-179.688 226.562 849
351.562 289.062 594
-7.8125 -187.5 663
-257.812 -421.875 3208
-242.188 -171.875 1013
-296.875 -210.938 962
375 -101.562 757
23.4375 -179.688 654
-335.938 -23.4375 878
140.625 -171.875 637
-234.375 -78.125 854
-250 -187.5 1025
-406.25 -257.812 1241
414.062 343.75 582
375 -179.688 711
351.562 -85.9375 703
148.438 -296.875 783
-164.062 -398.438 1392
-93.75 -406.25 1365
-210.938 23.4375 789
375 -203.125 701
148.438 -312.5 780
117.188 -109.375 637
375 -218.75 698
-453.125 -226.562 1219
-187.5 -70.3125 896
-367.188 -296.875 1273
-109.375 164.062 708
-70.3125 -117.188 862
0 -117.188 698
281.25 -398.438 734
250 -398.438 734
328.125 328.125 593
46.875 7.8125 755
-7.8125 -179.688 663
-132.812 -39.0625 821
343.75 218.75 627
320.312 359.375 571
-289.062 70.3125 873
406.25 -250 938
250 429.688 575
-429.688 31.25 981
-234.375 257.812 1564
93.75 -132.812 637
-226.562 -468.75 3333
-101.562 -210.938 1149
-382.812 328.125 1731
429.688 187.5 598
-195.312 281.25 833
234.375 -54.6875 803
54.6875 289.062 642
-273.438 -343.75 1333
-265.625 78.125 789
414.062 -203.125 898
-484.375 -31.25 1034
328.125 -148.438 707
54.6875 -468.75 2349
-312.5 -320.312 1307
-179.688 -62.5 903
382.812 -85.9375 719
31.25 273.438 650
164.062 54.6875 746
351.562 -187.5 706
62.5 -164.062 642
132.812 -31.25 676
-23.4375 250 666
85.9375 -23.4375 706
-218.75 78.125 759
367.188 -250 780
-500 -46.875 1050
343.75 265.625 599
429.688 -156.25 706
218.75 15.625 764
382.812 234.375 598
460.938 -46.875 649
460.938 257.812 619
328.125 -156.25 707
351.562 -195.312 701
31.25 -234.375 682
85.9375 320.312 629
85.9375 312.5 632
437.5 39.0625 738
421.875 -304.688 2579
351.562 -109.375 708
-460.938 195.312 1904
148.438 -320.312 778
210.938 -437.5 739
367.188 242.188 609
187.5 -414.062 767
343.75 226.562 627
390.625 -46.875 703
171.875 -187.5 646
117.188 -171.875 637
125 -187.5 646
328.125 -78.125 707
359.375 -46.875 644
-289.062 -437.5 3120
445.312 -156.25 706
-148.438 132.812 727
-296.875 -39.0625 847
398.438 -140.625 725
-54.6875 242.188 678
-203.125 335.938 1489
-156.25 -78.125 975
398.438 -117.188 738
179.688 382.812 598
195.312 -187.5 896
117.188 343.75 618
-70.3125 195.312 691
210.938 -140.625 862
-78.125 195.312 691
226.562 421.875 581
-164.062 -101.562 849
-46.875 398.438 761
-203.125 273.438 839
-250 296.875 1529
-265.625 -31.25 843
23.4375 -210.938 666
23.4375 -226.562 676
-140.625 -101.562 1004
343.75 -203.125 697
54.6875 296.875 640
132.812 -187.5 646
171.875 -250 785
414.062 -226.562 918
187.5 -375 754
140.625 -164.062 632
164.062 -335.938 764
117.188 -164.062 635
-437.5 54.6875 981
437.5 -117.188 707
-234.375 242.188 851
203.125 -421.875 762
-429.688 -421.875 3064
-343.75 -7.8125 878
-273.438 -140.625 873
312.5 -117.188 746
414.062 242.188 588
-335.938 218.75 1616
-101.562 -132.812 1001
-171.875 -7.8125 803
31.25 -179.688 652
-312.5 -31.25 882
414.062 -218.75 910
-23.4375 234.375 672
492.188 -218.75 896
242.188 -375 736
375 250 606
-109.375 171.875 706
-273.438 -257.812 1001
375 234.375 612
-367.188 210.938 1873
421.875 46.875 736
46.875 312.5 637
148.438 359.375 609
429.688 -109.375 717
203.125 398.438 591
-343.75 7.8125 880
242.188 7.8125 766
351.562 -179.688 706
468.75 195.312 659
320.312 -140.625 711
-164.062 -62.5 956
-226.562 234.375 847
164.062 -265.625 783
445.312 328.125 606
257.812 437.5 573
421.875 -39.0625 643
171.875 70.3125 738
195.312 -125 851
-140.625 148.438 719
-492.188 -39.0625 1041
0 -93.75 713
125 23.4375 714
429.688 -46.875 647
187.5 -390.625 757
382.812 -62.5 707
460.938 -109.375 680
382.812 -210.938 700
-101.562 -140.625 1001
0 -109.375 703
-398.438 62.5 959
367.188 328.125 610
257.812 -132.812 713
398.438 257.812 603
7.8125 -46.875 744
70.3125 304.688 636
406.25 -179.688 722
7.8125 -210.938 668
-242.188 54.6875 776
-210.938 -296.875 1022
382.812 -218.75 700
-343.75 31.25 894
398.438 -54.6875 704
0 -187.5 661
-210.938 78.125 759
-70.3125 -140.625 1087
23.4375 7.8125 774
-375 -289.062 1268
-195.312 -218.75 1041
382.812 -203.125 701
125 343.75 618
429.688 179.688 672
296.875 296.875 608
-226.562 250 847
-320.312 -31.25 880
15.625 -218.75 670
453.125 312.5 611
-187.5 -46.875 825
-179.688 343.75 1470
-335.938 -46.875 862
109.375 359.375 614
304.688 328.125 586
-179.688 -398.438 1398
414.062 -210.938 903
23.4375 -351.562 1292
54.6875 -54.6875 707
445.312 242.188 588
343.75 -164.062 707
250 -367.188 734
0 250 663
-7.8125 250 664
343.75 -234.375 691
335.938 273.438 599
390.625 -54.6875 706
-289.062 -210.938 970
-117.188 164.062 710
109.375 -195.312 652
195.312 -203.125 815
117.188 -195.312 653
-289.062 242.188 1579
210.938 -23.4375 787
179.688 -242.188 789
140.625 351.562 613
289.062 304.688 595
156.25 -351.562 771
93.75 15.625 728
406.25 -234.375 923
265.625 445.312 571
-132.812 -289.062 998
281.25 -265.625 746
218.75 -109.375 839
93.75 -85.9375 664
398.438 -46.875 638
-39.0625 335.938 789
210.938 -406.25 744
-101.562 -203.125 1145
39.0625 -46.875 720
179.688 -367.188 757
171.875 -7.8125 723
-195.312 -70.3125 896
-281.25 -242.188 987
-140.625 156.25 716
-335.938 -304.688 1292
148.438 -328.125 778
-179.688 117.188 738
492.188 -62.5 792
164.062 367.188 604
-273.438 -242.188 1004
7.8125 -359.375 1297
-351.562 195.312 1564
101.562 328.125 624
-78.125 -398.438 1365
343.75 359.375 600
203.125 -312.5 749
351.562 -101.562 706
-179.688 0 796
-273.438 140.625 903
234.375 -390.625 741
195.312 -78.125 819
398.438 -132.812 731
218.75 -117.188 843
351.562 -164.062 725
421.875 -312.5 2598
218.75 -171.875 880
242.188 -273.438 747
156.25 62.5 742
0 -132.812 683
445.312 -31.25 644
234.375 -406.25 736
335.938 -164.062 706
226.562 414.062 584
39.0625 281.25 648
-390.625 367.188 1688
-7.8125 -164.062 672
218.75 406.25 586
-39.0625 226.562 676
-343.75 210.938 1594
93.75 335.938 622
-70.3125 406.25 1268
-242.188 218.75 858
367.188 -335.938 754
210.938 -15.625 781
-78.125 210.938 687
406.25 -187.5 722
-281.25 -15.625 869
-156.25 132.812 727
328.125 312.5 599
-234.375 62.5 769
265.625 335.938 612
-328.125 62.5 885
187.5 -62.5 811
31.25 15.625 773
351.562 -54.6875 649
-312.5 156.25 898
265.625 328.125 592
-179.688 -31.25 817
156.25 -304.688 776
187.5 -265.625 769
-406.25 382.812 1680
445.312 -78.125 661
-328.125 31.25 878
406.25 343.75 584
414.062 -164.062 711
23.4375 273.438 652
257.812 429.688 575
343.75 -85.9375 703
359.375 257.812 599
-328.125 0 869
70.3125 445.312 730
398.438 -382.812 2618
406.25 -171.875 717
-156.25 296.875 811
390.625 -250 787
-117.188 156.25 713
78.125 31.25 755
85.9375 -62.5 683
210.938 -437.5 739
390.625 445.312 565
-328.125 -62.5 858
-375 0 998
414.062 -203.125 898
398.438 312.5 593
0 -117.188 698
476.562 234.375 643
421.875 242.188 586
62.5 23.4375 759
-335.938 -156.25 894
132.812 -187.5 646
250 -421.875 725
109.375 -187.5 647
-382.812 101.562 943
-304.688 -93.75 851
-500 -195.312 1189
179.688 -312.5 759
289.062 23.4375 736
296.875 289.062 609
437.5 328.125 607
312.5 289.062 609
164.062 -382.812 773
414.062 296.875 595
-7.8125 242.188 667
-54.6875 -382.812 1343
226.562 -195.312 803
-351.562 179.688 1536
-218.75 31.25 787
-250 -226.562 1034
-85.9375 367.188 778
-257.812 -179.688 1019
-171.875 -54.6875 825
406.25 -210.938 903
-343.75 7.8125 880
-210.938 -382.812 1381
156.25 31.25 723
140.625 359.375 610
-39.0625 273.438 697
398.438 -148.438 722
-343.75 31.25 894
-164.062 -70.3125 956
62.5 -195.312 655
-78.125 187.5 696
-203.125 171.875 825
382.812 -70.3125 710
-93.75 179.688 700
203.125 -117.188 845
-78.125 -78.125 839
85.9375 39.0625 754
351.562 -70.3125 700
-289.062 -70.3125 851
-70.3125 -125 867
-289.062 46.875 869
195.312 -140.625 862
-171.875 109.375 739
-335.938 -109.375 858
257.812 39.0625 749
54.6875 -460.938 2349
-7.8125 -367.188 1307
140.625 -179.688 642
320.312 -125 708
-460.938 7.8125 1007
-85.9375 -171.875 1115
382.812 -203.125 701
210.938 -429.688 741
7.8125 -23.4375 759
-328.125 -7.8125 871
460.938 -7.8125 762
-390.625 171.875 1543
382.812 -78.125 714
492.188 -117.188 829
289.062 -328.125 733
46.875 -328.125 1268
-70.3125 -109.375 860
226.562 -437.5 731
382.812 -226.562 697
-328.125 164.062 910
132.812 -296.875 798
250 437.5 573
-296.875 7.8125 860
421.875 -289.062 2560
328.125 -78.125 707
453.125 257.812 615
-85.9375 -156.25 1101
-31.25 226.562 676
23.4375 265.625 655
351.562 -39.0625 644
390.625 -210.938 906
78.125 -117.188 653
468.75 -39.0625 652
273.438 414.062 582
-367.188 156.25 1483
382.812 -85.9375 719
382.812 -195.312 706
-343.75 -140.625 880
109.375 -117.188 636
-23.4375 -312.5 1255
0 -125 690
-70.3125 -117.188 862
-164.062 226.562 849
-46.875 -31.25 807
414.062 -195.312 891
273.438 445.312 570
-195.312 101.562 747
156.25 -359.375 773
218.75 -101.562 835
375 -351.562 761
164.062 -375 767
179.688 398.438 592
343.75 -210.938 696
335.938 -148.438 707
187.5 -320.312 754
-195.312 -390.625 1392
-109.375 -54.6875 827
210.938 -117.188 845
320.312 -117.188 711
-390.625 78.125 951
320.312 -39.0625 654
-242.188 234.375 860
429.688 -39.0625 643
-109.375 343.75 789
15.625 0 769
15.625 382.812 764
-304.688 -195.312 948
39.0625 296.875 642
398.438 296.875 598
398.438 -109.375 741
-164.062 289.062 817
-296.875 -15.625 869
-70.3125 -85.9375 843
7.8125 257.812 661
218.75 -125 849
-140.625 320.312 802
31.25 -343.75 1288
304.688 257.812 643
-46.875 218.75 680
-156.25 -85.9375 930
257.812 -390.625 734
0 -132.812 683
335.938 367.188 598
-187.5 210.938 858
-125 -109.375 1001
-93.75 -39.0625 817
171.875 -375 762
375 -289.062 762
-359.375 226.562 1853
-250 210.938 862
-62.5 203.125 687
-265.625 -273.438 1013
210.938 -109.375 839
-70.3125 320.312 796
148.438 460.938 687
445.312 -85.9375 704
273.438 453.125 567
171.875 382.812 599
390.625 421.875 573
-335.938 46.875 885
179.688 -187.5 642
-296.875 -445.312 3120
382.812 -93.75 722
-265.625 195.312 871
242.188 421.875 580
-343.75 -125 867
-140.625 140.625 722
320.312 -132.812 710
-195.312 93.75 750
-156.25 125 731
109.375 328.125 623
234.375 421.875 580
-203.125 0 802
218.75 -93.75 827
7.8125 -78.125 719
-93.75 359.375 781
-171.875 375 1452
375 -62.5 707
164.062 375 603
-148.438 -23.4375 811
-195.312 109.375 742
125 -210.938 657
62.5 296.875 640
273.438 -187.5 798
-101.562 -62.5 831
-257.812 148.438 896
132.812 -132.812 623
-265.625 78.125 789
-70.3125 195.312 691
492.188 195.312 657
179.688 62.5 742
375 -109.375 752
-335.938 156.25 910
335.938 296.875 597
-132.812 -296.875 998
-210.938 23.4375 789
367.188 -242.188 683
-93.75 203.125 693
414.062 320.312 585
-445.312 7.8125 998
-343.75 23.4375 894
-70.3125 210.938 686
117.188 335.938 620
-273.438 -257.812 1001
210.938 -7.8125 776
187.5 382.812 597
335.938 -70.3125 703
78.125 312.5 634
359.375 296.875 594
320.312 -93.75 714
-148.438 320.312 807
367.188 -46.875 646
195.312 -359.375 749
351.562 -148.438 733
15.625 15.625 776
-171.875 -46.875 825
-23.4375 234.375 672
-226.562 -203.125 1038
164.062 -367.188 766
445.312 203.125 598
15.625 -218.75 670
210.938 -93.75 827
39.0625 -359.375 2541
23.4375 -226.562 676
-257.812 78.125 773
-289.062 187.5 887
-70.3125 -140.625 1087
351.562 343.75 606
-296.875 -328.125 1317
109.375 335.938 621
-70.3125 203.125 688
218.75 -164.062 875
-343.75 0 878
7.8125 -187.5 657
109.375 15.625 719
109.375 46.875 742
273.438 -328.125 734
-226.562 -39.0625 849
453.125 304.688 614
414.062 335.938 583
484.375 234.375 642
78.125 -140.625 642
312.5 -78.125 663
-289.062 -226.562 973
-132.812 -125 998
-289.062 -46.875 845
-328.125 7.8125 869
414.062 234.375 588
406.25 281.25 601
-101.562 -250 970
351.562 -171.875 707
164.062 -195.312 643
421.875 -328.125 2639
367.188 -109.375 754
-156.25 304.688 811
-460.938 -406.25 2984
-453.125 0 1007
-312.5 164.062 898
203.125 31.25 757
234.375 -289.062 742
406.25 -148.438 719
-203.125 93.75 750
-328.125 31.25 878
453.125 320.312 608
-312.5 148.438 901
484.375 195.312 659
-125 -148.438 1001
195.312 -328.125 749
46.875 289.062 642
335.938 -312.5 741
117.188 -109.375 637
-109.375 179.688 700
-85.9375 -250 1189
-320.312 46.875 878
406.25 -140.625 723
-179.688 0 796
289.062 -335.938 733
-78.125 -93.75 849
195.312 398.438 592
-398.438 406.25 1647
304.688 351.562 574
250 -289.062 741
-218.75 -296.875 1019
-375 296.875 1766
187.5 -335.938 750
210.938 0 774
-156.25 382.812 1439
281.25 -187.5 803
31.25 273.438 650
-85.9375 -257.812 1202
320.312 289.062 604
304.688 468.75 560
-367.188 257.812 1813
328.125 -117.188 711
-125 -93.75 1007
-109.375 289.062 813
78.125 304.688 636
-335.938 -23.4375 878
304.688 -335.938 734
218.75 -78.125 817
328.125 -140.625 708
-93.75 -273.438 984
-164.062 117.188 734
-234.375 -70.3125 849
-210.938 85.9375 755
328.125 -164.062 706
343.75 -265.625 754
398.438 -125 734
-218.75 -85.9375 856
-304.688 0 862
-304.688 -7.8125 867
7.8125 -62.5 728
-70.3125 312.5 800
203.125 -351.562 747
15.625 257.812 658
-273.438 78.125 780
-132.812 -78.125 843
7.8125 -70.3125 723
234.375 -296.875 741
-85.9375 -281.25 1223
-218.75 31.25 787
-343.75 31.25 894
-242.188 -70.3125 849
164.062 -281.25 776
140.625 -179.688 642
70.3125 -93.75 671
-117.188 -46.875 825
-85.9375 187.5 697
-304.688 -23.4375 869
406.25 -156.25 719
-70.3125 -101.562 856
359.375 -70.3125 704
-234.375 62.5 769
-125 -203.125 935
390.625 -398.438 2598
46.875 -132.812 658
0 -140.625 682
-78.125 187.5 696
453.125 250 615
-476.562 -382.812 2984
187.5 -406.25 766
-312.5 -15.625 864
-187.5 101.562 746
-218.75 -375 1370
406.25 -164.062 717
242.188 -101.562 703
375 -70.3125 711
15.625 265.625 655
-125 -289.062 998
218.75 -132.812 854
-31.25 226.562 676
-125 -117.188 998
46.875 7.8125 755
-328.125 23.4375 873
164.062 39.0625 754
-242.188 -164.062 1004
-117.188 -203.125 935
-476.562 -210.938 1206
320.312 -156.25 708
-15.625 242.188 670
-390.625 -453.125 3120
-187.5 7.8125 796
398.438 -117.188 738
-296.875 39.0625 869
-234.375 -367.188 1365
-132.812 -117.188 1001
390.625 250 606
382.812 -195.312 706
-281.25 195.312 882
382.812 -234.375 683
312.5 -109.375 752
85.9375 312.5 632
-218.75 -476.562 3399
218.75 -156.25 869
195.312 -101.562 835
273.438 -265.625 747
296.875 -234.375 762
-7.8125 429.688 747
-390.625 70.3125 954
304.688 -179.688 723
-234.375 242.188 851
421.875 -281.25 2541
273.438 437.5 572
289.062 -398.438 736
-39.0625 -109.375 727
-117.188 -62.5 833
46.875 -171.875 647
195.312 -250 771
-328.125 15.625 871
375 210.938 604
-421.875 39.0625 975
195.312 -414.062 761
218.75 -70.3125 811
-320.312 140.625 903
-156.25 -109.375 851
-93.75 -226.562 1169
-125 148.438 716
343.75 328.125 596
210.938 15.625 764
468.75 -140.625 696
-54.6875 -109.375 858
-78.125 -78.125 839
-132.812 -93.75 1010
437.5 -93.75 711
-312.5 46.875 875
31.25 -23.4375 742
-46.875 -101.562 730
375 -226.562 697
265.625 -265.625 747
335.938 351.562 603
-320.312 234.375 1594
-234.375 -203.125 1038
-343.75 -132.812 873
375 335.938 607
320.312 468.75 559
7.8125 -78.125 719
484.375 265.625 615
-250 -289.062 1016
414.062 -187.5 887
320.312 234.375 653
-31.25 359.375 776
-375 -304.688 2859
492.188 -351.562 2317
-148.438 234.375 843
-257.812 46.875 781
-226.562 70.3125 764
-187.5 265.625 829
156.25 367.188 606
-265.625 210.938 873
226.562 -164.062 878
164.062 -375 767
-70.3125 -117.188 862
382.812 -101.562 754
218.75 -359.375 741
0 -156.25 671
-39.0625 218.75 679
-195.312 187.5 871
-140.625 -437.5 3208
429.688 -39.0625 643
-328.125 367.188 1688
273.438 343.75 610
343.75 -62.5 700
351.562 -78.125 701
351.562 -226.562 686
-351.562 -62.5 864
7.8125 -39.0625 749
-382.812 335.938 1722
414.062 -195.312 891
179.688 -289.062 762
101.562 -54.6875 679
437.5 296.875 619
484.375 242.188 638
304.688 -312.5 736
140.625 -171.875 637
304.688 -78.125 666
54.6875 -179.688 647
218.75 -85.9375 821
281.25 -257.812 749
-320.312 -171.875 920
-179.688 359.375 1464
-218.75 101.562 752
-226.562 -476.562 3300
210.938 7.8125 767
-343.75 7.8125 880
359.375 -312.5 750
-101.562 -429.688 3120
312.5 320.312 596
414.062 -359.375 2618
414.062 -39.0625 642
265.625 -312.5 734
0 -164.062 670
15.625 7.8125 780
195.312 -62.5 809
398.438 -93.75 725
-78.125 -156.25 1101
421.875 273.438 604
-101.562 171.875 706
281.25 453.125 566
-125 -140.625 998
-296.875 164.062 889
-117.188 164.062 710
-148.438 -23.4375 811
54.6875 -476.562 2349
-367.188 265.625 1804
390.625 281.25 600
-328.125 -148.438 894
273.438 -429.688 722
390.625 -250 787
-171.875 304.688 823
203.125 -273.438 755
-164.062 125 731
343.75 218.75 627
-70.3125 -109.375 860
179.688 -242.188 789
101.562 -125 636
-93.75 -406.25 1365
93.75 320.312 628
226.562 -156.25 869
437.5 320.312 610
-367.188 203.125 1594
195.312 -179.688 642
203.125 -421.875 762
-101.562 390.625 1302
359.375 -109.375 750
429.688 -164.062 707
281.25 445.312 569
-382.812 -273.438 1259
265.625 -250 752
406.25 -85.9375 720
-203.125 85.9375 754
-328.125 23.4375 873
70.3125 -31.25 710
140.625 -62.5 658
-179.688 -23.4375 815
-281.25 -437.5 3149
-78.125 -132.812 1080
273.438 -421.875 722
148.438 31.25 714
-187.5 335.938 1483
109.375 382.812 637
429.688 -46.875 647
132.812 351.562 614
-85.9375 179.688 698
-421.875 31.25 975
296.875 460.938 565
125 -101.562 638
-320.312 -23.4375 875
-257.812 203.125 867
414.062 54.6875 731
414.062 -179.688 717
-78.125 -148.438 1094
-382.812 328.125 1731
-359.375 -289.062 1268
109.375 -46.875 680
-179.688 -62.5 903
265.625 445.312 571
-156.25 -414.062 1415
-54.6875 390.625 766
335.938 -70.3125 703
421.875 -335.938 2659
296.875 382.812 594
343.75 343.75 606
-281.25 -85.9375 854
-406.25 54.6875 964
-406.25 -257.812 1241
-257.812 171.875 885
-367.188 210.938 1873
0 250 663
-320.312 46.875 878
-70.3125 -148.438 1090
171.875 54.6875 746
-226.562 39.0625 780
-453.125 -226.562 1219
351.562 -54.6875 649
-148.438 132.812 727
-140.625 -125 946
187.5 -304.688 755
-54.6875 234.375 678
23.4375 -179.688 654
-382.812 78.125 948
414.062 -203.125 898
7.8125 -476.562 2333
406.25 -46.875 638
-226.562 250 847
-101.562 187.5 697
-257.812 62.5 773
398.438 187.5 602
-23.4375 257.812 664
-429.688 -242.188 1227
242.188 -414.062 733
-62.5 -101.562 851
-406.25 46.875 967
-367.188 -289.062 1268
226.562 414.062 584
7.8125 -85.9375 710
148.438 23.4375 710
-257.812 218.75 869
-250 -179.688 1019
39.0625 -171.875 649
218.75 414.062 584
-132.812 -85.9375 843
0 -171.875 662
-250 -203.125 1038
-101.562 -187.5 1038
7.8125 -359.375 1297
-484.375 -203.125 1193
-70.3125 390.625 771
-257.812 -351.562 1343
-187.5 117.188 738
46.875 289.062 642
203.125 -445.312 773
164.062 -273.438 781
-320.312 -101.562 854
-304.688 -85.9375 860
445.312 343.75 599
-125 414.062 1410
164.062 367.188 604
468.75 -46.875 652
-367.188 93.75 938
398.438 -242.188 930
-265.625 -273.438 1013
-343.75 0 878
-70.3125 218.75 683
320.312 -101.562 714
320.312 359.375 571
-281.25 125 913
382.812 -132.812 739
-164.062 132.812 728
-234.375 54.6875 773
187.5 -281.25 762
-367.188 195.312 1550
187.5 -296.875 759
484.375 -125 837
46.875 281.25 647
-320.312 242.188 1609
-398.438 398.438 1647
265.625 31.25 754
-132.812 140.625 722
-195.312 -453.125 3238
-187.5 203.125 862
414.062 -218.75 910
7.8125 -54.6875 736
54.6875 304.688 636
359.375 273.438 596
-234.375 312.5 1509
-234.375 85.9375 759
296.875 367.188 575
171.875 375 600
414.062 -210.938 903
-7.8125 -367.188 1307
109.375 -54.6875 675
-250 226.562 860
328.125 -296.875 739
289.062 375 597
195.312 46.875 749
-218.75 195.312 867
148.438 -54.6875 661
156.25 -195.312 657
-320.312 -320.312 1307
234.375 -421.875 730
-312.5 -171.875 935
-140.625 320.312 802
-62.5 -390.625 1349
54.6875 -367.188 2522
-335.938 140.625 913
179.688 -15.625 711
-15.625 -125 703
218.75 -62.5 807
164.062 -265.625 783
375 -101.562 757
-210.938 78.125 759
-125 -101.562 1001
414.062 -171.875 717
70.3125 -164.062 641
93.75 -132.812 637
-320.312 -453.125 3120
-320.312 -453.125 3120
-320.312 31.25 873
-85.9375 -164.062 1105
0 -164.062 670
359.375 367.188 596
117.188 -117.188 632
101.562 328.125 624
132.812 375 606
203.125 -140.625 862
367.188 -46.875 646
78.125 -23.4375 711
335.938 210.938 628
289.062 453.125 566
226.562 -437.5 731
-164.062 140.625 725
-54.6875 210.938 684
468.75 -39.0625 652
-101.562 -203.125 1145
187.5 390.625 595
312.5 -179.688 704
-109.375 -117.188 998
-320.312 -15.625 871
226.562 -148.438 864
-140.625 312.5 803
375 328.125 609
62.5 -117.188 661
-171.875 242.188 841
15.625 -203.125 663
-375 304.688 1748
273.438 445.312 570
359.375 -203.125 706
382.812 234.375 598
78.125 304.688 636
351.562 312.5 598
343.75 -156.25 707
-78.125 304.688 803
-23.4375 -375 1328
484.375 203.125 657
-234.375 -70.3125 849
-289.062 -218.75 970
31.25 -429.688 2415
-70.3125 -93.75 847
-117.188 156.25 713
445.312 -31.25 644
203.125 -203.125 809
437.5 328.125 607
375 -265.625 769
289.062 -273.438 742
31.25 164.062 700
421.875 -218.75 910
7.8125 -210.938 668
-140.625 -421.875 1410
-226.562 296.875 1523
218.75 -54.6875 803
-234.375 46.875 776
359.375 -226.562 684
289.062 -296.875 736
-343.75 15.625 896
445.312 -375 2541
-390.625 375 1680
359.375 -85.9375 703
31.25 -117.188 678
93.75 -54.6875 682
-109.375 164.062 708
140.625 351.562 613
-296.875 -328.125 1317
398.438 -101.562 744
343.75 273.438 597
140.625 -296.875 790
179.688 -7.8125 711
398.438 -109.375 741
281.25 351.562 584
304.688 375 596
421.875 179.688 674
54.6875 429.688 739
-281.25 -210.938 989
421.875 -31.25 643
15.625 0 769
-304.688 -140.625 875
226.562 -382.812 739
117.188 -164.062 635
39.0625 281.25 648
-234.375 -406.25 3120
-359.375 179.688 1529
0 -132.812 683
179.688 -398.438 766
-390.625 93.75 940
148.438 359.375 609
-304.688 171.875 891
460.938 335.938 601
23.4375 -351.562 1292
234.375 0 773
-62.5 382.812 767
-125 -93.75 1007
203.125 -406.25 754
265.625 437.5 573
187.5 -234.375 787
-15.625 437.5 750
-335.938 125 915
-304.688 -54.6875 849
-304.688 -31.25 847
437.5 265.625 611
-93.75 -234.375 1177
-7.8125 382.812 762
437.5 226.562 588
390.625 234.375 594
320.312 -93.75 714
-273.438 265.625 1557
156.25 -343.75 769
351.562 -359.375 747
-210.938 85.9375 755
156.25 359.375 608
-93.75 179.688 700
15.625 -210.938 667
140.625 367.188 607
85.9375 -156.25 636
-195.312 15.625 792
101.562 31.25 736
-7.8125 265.625 658
46.875 -203.125 659
210.938 23.4375 759
109.375 328.125 623
445.312 234.375 589
382.812 -289.062 769
468.75 -54.6875 652
-289.062 -62.5 849
414.062 328.125 583
125 54.6875 736
0 -171.875 662
210.938 -296.875 746
156.25 -39.0625 676
0 -179.688 661
359.375 -242.188 683
-375 289.062 1785
484.375 257.812 614
7.8125 -93.75 708
-273.438 -343.75 1333
-70.3125 -101.562 856
46.875 23.4375 769
-390.625 367.188 1688
203.125 -187.5 896
359.375 -218.75 694
-117.188 -46.875 825
289.062 -289.062 738
406.25 -140.625 723
-179.688 -54.6875 825
-70.3125 234.375 686
-125 -414.062 1404
-218.75 70.3125 762
-320.312 23.4375 869
406.25 -156.25 719
-164.062 234.375 845
-328.125 31.25 878
382.812 -39.0625 643
-46.875 210.938 684
242.188 -54.6875 749
179.688 375 600
476.562 210.938 652
-328.125 -46.875 851
-343.75 203.125 1579
-148.438 -164.062 882
31.25 -359.375 2541
210.938 -210.938 796
-23.4375 23.4375 778
382.812 242.188 609
54.6875 289.062 642
382.812 -218.75 700
15.625 257.812 658
-320.312 156.25 903
-156.25 -15.625 807
54.6875 -140.625 653
351.562 234.375 613
187.5 -406.25 766
-312.5 -179.688 933
140.625 -46.875 663
117.188 335.938 620
250 0 701
-179.688 273.438 823
-273.438 -406.25 3120
39.0625 273.438 650
187.5 -273.438 764
195.312 -414.062 761
-85.9375 -250 1189
70.3125 296.875 640
335.938 -257.812 694
273.438 328.125 594
-179.688 -101.562 849
164.062 -7.8125 710
132.812 343.75 618
242.188 -429.688 725
210.938 -359.375 742
39.0625 -382.812 2485
210.938 -351.562 742
-85.9375 187.5 697
312.5 -187.5 704
382.812 -117.188 746
-109.375 -125 998
-234.375 -78.125 854
-156.25 -23.4375 813
-93.75 171.875 704
164.062 -367.188 766
-23.4375 234.375 672
328.125 312.5 599
210.938 -445.312 739
-156.25 125 731
203.125 -109.375 839
218.75 -226.562 774
390.625 -54.6875 706
-328.125 398.438 1663
85.9375 226.562 668
-117.188 -203.125 935
-125 156.25 714
-187.5 7.8125 796
382.812 -156.25 727
382.812 -203.125 701
39.0625 -15.625 742
453.125 250 615
218.75 -46.875 800
-296.875 -203.125 962
-195.312 125 739
-132.812 -101.562 1001
7.8125 -70.3125 723
-39.0625 218.75 679
359.375 226.562 622
218.75 -375 741
382.812 -195.312 706
226.562 -132.812 854
70.3125 -281.25 1214
70.3125 -101.562 663
320.312 -109.375 713
-257.812 -148.438 998
406.25 -375 2579
414.062 -195.312 891
289.062 460.938 565
31.25 -210.938 666
125 -210.938 657
242.188 429.688 577
-125 -85.9375 843
171.875 -375 762
-85.9375 179.688 698
-156.25 -93.75 930
429.688 296.875 620
148.438 -375 781
164.062 -195.312 643
218.75 -171.875 880
117.188 -78.125 655
-437.5 -421.875 3037
406.25 -132.812 727
203.125 -78.125 819
203.125 -398.438 752
343.75 -148.438 708
304.688 359.375 573
-117.188 359.375 789
-54.6875 -93.75 847
164.062 -23.4375 694
187.5 -46.875 802
-156.25 -70.3125 956
46.875 -70.3125 700
382.812 -164.062 723
7.8125 257.812 661
-312.5 257.812 1579
7.8125 -101.562 703
164.062 -39.0625 688
-281.25 -234.375 989
7.8125 -85.9375 710
445.312 -23.4375 647
453.125 203.125 598
54.6875 359.375 664
-242.188 234.375 860
328.125 -85.9375 710
-117.188 -257.812 975
-476.562 -23.4375 1028
-171.875 -101.562 849
31.25 -437.5 2398
-62.5 320.312 796
359.375 234.375 613
-320.312 78.125 894
-179.688 -15.625 809
-171.875 -70.3125 954
406.25 -148.438 719
359.375 281.25 595
-125 179.688 707
312.5 304.688 603
234.375 -429.688 728
125 -296.875 815
328.125 -132.812 710
-85.9375 -70.3125 835
218.75 406.25 586
31.25 7.8125 769
148.438 -171.875 637
-375 109.375 923
-195.312 203.125 862
156.25 -304.688 776
382.812 -210.938 700
343.75 -164.062 707
328.125 -148.438 707
335.938 281.25 598
-359.375 164.062 1503
-140.625 -296.875 1010
-78.125 203.125 688
-101.562 -281.25 984
281.25 390.625 590
343.75 -375 746
-320.312 187.5 1609
156.25 367.188 606
-187.5 -31.25 819
429.688 -46.875 647
85.9375 312.5 632
390.625 -218.75 700
242.188 421.875 580
-93.75 -31.25 811
15.625 -187.5 657
414.062 -171.875 717
31.25 -93.75 693
164.062 46.875 749
-304.688 -85.9375 860
-203.125 23.4375 789
-460.938 -218.75 1210
-320.312 -312.5 1302
-78.125 70.3125 754
429.688 -31.25 643
-304.688 -179.688 948
203.125 -437.5 773
23.4375 23.4375 773
-320.312 -171.875 920
390.625 -171.875 720
0 -171.875 662
39.0625 -179.688 650
226.562 -140.625 860
250 -179.688 811
421.875 -218.75 910
-304.688 -93.75 851
187.5 382.812 597
-335.938 218.75 1616
414.062 -226.562 918
359.375 320.312 598
-304.688 -187.5 948
-367.188 250 1823
210.938 -445.312 739
-203.125 164.062 827
-171.875 -39.0625 823
-70.3125 195.312 691
156.25 -335.938 769
-328.125 -148.438 894
234.375 414.062 583
-93.75 -62.5 829
-335.938 -15.625 878
171.875 46.875 749
414.062 -187.5 887
-70.3125 -148.438 1090
414.062 320.312 585
398.438 -46.875 638
31.25 -226.562 675
437.5 -46.875 647
-312.5 -46.875 849
-281.25 179.688 880
31.25 421.875 744
429.688 250 587
-179.688 -398.438 1398
-140.625 -117.188 1001
39.0625 -210.938 663
-125 148.438 716
-460.938 -7.8125 1010
171.875 -335.938 761
148.438 -164.062 631
-148.438 -109.375 925
476.562 -359.375 2503
226.562 -117.188 843
-164.062 304.688 815
46.875 7.8125 755
-210.938 -210.938 1041
421.875 304.688 589
351.562 -210.938 696
0 -187.5 661
179.688 70.3125 738
-39.0625 -382.812 1328
-281.25 -382.812 3064
429.688 -117.188 714
-78.125 187.5 696
343.75 -117.188 710
-62.5 390.625 767
-164.062 -7.8125 803
187.5 -78.125 691
335.938 -78.125 703
414.062 187.5 607
-171.875 117.188 734
-46.875 218.75 680
421.875 -273.438 2503
-296.875 179.688 889
320.312 265.625 607
164.062 -289.062 773
195.312 -93.75 829
-203.125 210.938 858
-304.688 265.625 1572
-367.188 31.25 928
7.8125 -109.375 700
-250 85.9375 771
-125 -39.0625 821
-46.875 210.938 684
343.75 359.375 600
226.562 -125 849
125 -195.312 653
226.562 429.688 578
-203.125 101.562 746
-93.75 -218.75 1161
335.938 328.125 596
-164.062 117.188 734
-242.188 281.25 1543
250 -296.875 738
406.25 -54.6875 706
-15.625 250 664
437.5 226.562 588
156.25 -296.875 778
-140.625 -85.9375 1047
23.4375 265.625 655
-273.438 203.125 878
359.375 -171.875 719
-218.75 78.125 759
31.25 -460.938 2333
-289.062 187.5 887
468.75 -304.688 2579
351.562 218.75 624
335.938 -296.875 744
101.562 15.625 723
0 -179.688 661
-234.375 -62.5 847
218.75 -218.75 785
-304.688 156.25 894
218.75 -39.0625 794
335.938 250 607
382.812 -140.625 736
-15.625 414.062 752
210.938 406.25 588
-195.312 85.9375 752
-218.75 304.688 1516
62.5 -335.938 1264
390.625 -70.3125 710
257.812 -367.188 734
421.875 -343.75 2618
234.375 445.312 570
-195.312 93.75 750
312.5 328.125 585
-85.9375 -242.188 1181
-398.438 414.062 1647
-343.75 15.625 896
140.625 -179.688 642
351.562 -242.188 684
-156.25 242.188 841
437.5 257.812 589
-70.3125 -93.75 847
421.875 -210.938 903
-437.5 -234.375 1223
-203.125 -15.625 811
375 -140.625 738
460.938 -367.188 2522
78.125 304.688 636
-382.812 93.75 940
-273.438 -78.125 854
-312.5 -31.25 882
226.562 -132.812 854
93.75 -23.4375 703
-148.438 -78.125 975
375 234.375 612
-101.562 -179.688 1038
382.812 -218.75 700
359.375 -179.688 716
-195.312 15.625 792
-23.4375 -375 1328
359.375 -15.625 646
15.625 -23.4375 752
382.812 -281.25 771
15.625 -7.8125 764
-179.688 101.562 744
7.8125 -187.5 657
390.625 -218.75 700
132.812 -187.5 646
335.938 -132.812 710
-218.75 -375 1370
-164.062 -78.125 959
203.125 -218.75 790
195.312 -375 750
101.562 -195.312 652
78.125 7.8125 733
31.25 -179.688 652
-367.188 203.125 1594
-78.125 -335.938 1292
31.25 -148.438 659
-304.688 7.8125 862
46.875 281.25 647
-281.25 195.312 882
-312.5 273.438 1766
218.75 -148.438 864
-234.375 289.062 1529
281.25 -335.938 733
-398.438 406.25 1647
-289.062 -218.75 970
164.062 -367.188 766
-343.75 23.4375 894
-156.25 -15.625 807
398.438 70.3125 727
484.375 210.938 653
-367.188 -281.25 1264
15.625 -39.0625 744
62.5 429.688 741
-257.812 -164.062 1007
-62.5 -109.375 858
289.062 445.312 569
328.125 289.062 601
351.562 -164.062 725
406.25 -125 730
-210.938 242.188 841
-257.812 265.625 1557
414.062 -179.688 717
445.312 242.188 588
-226.562 62.5 769
-132.812 148.438 717
195.312 390.625 593
-281.25 -78.125 854
406.25 -140.625 723
414.062 -164.062 711
335.938 -125 710
148.438 -164.062 631
-234.375 54.6875 773
101.562 -132.812 636
15.625 257.812 658
125 335.938 620
-187.5 -39.0625 878
406.25 -242.188 794
46.875 351.562 682
437.5 54.6875 730
-226.562 39.0625 780
-367.188 164.062 1483
-125 -460.938 3269
