ply
format ascii 1.0
comment Created by Open3D
element vertex 2375
property double x
property double y
property double z
end_header
-445.312 -78.125 3120
-265.625 132.812 913
-54.6875 148.438 928
7.8125 -93.75 948
-367.188 289.062 995
-210.938 -85.9375 1317
-31.25 -156.25 951
-242.188 335.938 1038
-429.688 -164.062 2958
-15.625 -109.375 943
281.25 -367.188 1007
62.5 -7.8125 946
-109.375 23.4375 1057
226.562 23.4375 981
-54.6875 0 948
-398.438 203.125 954
-85.9375 0 967
93.75 351.562 1236
-335.938 367.188 1041
257.812 -250 1044
-39.0625 335.938 1601
62.5 -85.9375 973
-179.688 -85.9375 1112
-203.125 -93.75 1333
210.938 15.625 973
117.188 132.812 989
-156.25 398.438 1206
-93.75 359.375 1245
-23.4375 -156.25 951
-234.375 429.688 1165
23.4375 390.625 1483
-93.75 414.062 1458
125 429.688 1202
-62.5 -7.8125 954
-382.812 359.375 1031
210.938 -359.375 995
-156.25 375 1245
203.125 -359.375 995
328.125 140.625 1748
7.8125 398.438 1477
132.812 31.25 995
15.625 351.562 1264
117.188 187.5 1016
46.875 -23.4375 940
-234.375 375 1245
-101.562 390.625 1206
281.25 -125 928
140.625 406.25 1181
-78.125 382.812 1483
234.375 23.4375 984
210.938 -132.812 930
242.188 -343.75 1004
-78.125 -93.75 1001
39.0625 -335.938 3092
15.625 0 935
156.25 -125 923
-101.562 23.4375 1057
-218.75 -46.875 1219
-109.375 -179.688 1181
39.0625 -109.375 956
-46.875 15.625 943
-78.125 320.312 1050
93.75 -281.25 1255
78.125 -23.4375 948
-31.25 101.562 928
125 125 987
23.4375 46.875 992
-242.188 406.25 1206
-54.6875 312.5 1050
203.125 -273.438 1025
265.625 312.5 1579
289.062 195.312 1785
7.8125 351.562 1264
148.438 445.312 1202
-484.375 351.562 1926
125 -289.062 1227
-15.625 -70.3125 943
296.875 0 981
-210.938 -23.4375 1165
125 406.25 1181
-265.625 335.938 1031
210.938 -140.625 943
351.562 -164.062 959
359.375 -281.25 1126
-312.5 398.438 1060
-304.688 390.625 1060
78.125 -39.0625 956
70.3125 -296.875 1255
281.25 -359.375 1007
445.312 -148.438 938
234.375 -312.5 1013
-492.188 -437.5 2659
-156.25 -7.8125 1067
-195.312 -31.25 1087
-460.938 -46.875 2333
-390.625 148.438 906
-203.125 23.4375 1070
289.062 -234.375 1060
125 398.438 1181
328.125 -250 1153
-156.25 367.188 1250
117.188 218.75 1031
0 -78.125 943
226.562 -312.5 1013
-210.938 421.875 1169
-468.75 156.25 898
-62.5 218.75 1001
-109.375 -15.625 1050
-257.812 398.438 1206
-7.8125 -156.25 967
242.188 234.375 2078
195.312 343.75 1227
78.125 265.625 1047
367.188 -164.062 951
-54.6875 -148.438 946
-320.312 164.062 910
85.9375 7.8125 967
156.25 -343.75 1173
-195.312 -85.9375 1115
-148.438 343.75 1307
-414.062 -62.5 1312
-468.75 -31.25 2333
-109.375 -132.812 954
-476.562 -343.75 2744
250 15.625 981
492.188 -187.5 954
-23.4375 70.3125 967
226.562 429.688 1255
265.625 218.75 1785
148.438 203.125 1028
-46.875 54.6875 959
-375 257.812 978
312.5 218.75 2090
250 234.375 2090
281.25 -351.562 1010
46.875 382.812 1227
343.75 343.75 1392
-164.062 -78.125 1063
-390.625 226.562 964
125 351.562 1145
-500 390.625 1823
23.4375 -93.75 1028
-23.4375 351.562 1264
101.562 7.8125 970
-46.875 -132.812 943
140.625 242.188 1047
85.9375 -93.75 987
328.125 242.188 1543
437.5 -31.25 989
164.062 218.75 1038
-328.125 382.812 1050
-195.312 304.688 1028
-109.375 31.25 1038
-437.5 -93.75 3037
70.3125 -23.4375 948
-101.562 367.188 1245
125 421.875 1202
-179.688 265.625 1010
250 -218.75 1054
414.062 203.125 1739
390.625 250 1496
-468.75 -289.062 2812
414.062 -23.4375 989
39.0625 343.75 1273
281.25 -375 1007
-39.0625 -101.562 948
-62.5 62.5 975
117.188 156.25 1001
250 31.25 984
93.75 -343.75 1197
62.5 312.5 1063
-54.6875 375 1543
70.3125 -70.3125 959
-460.938 320.312 1993
78.125 -390.625 1206
93.75 312.5 1307
-140.625 -117.188 1013
0 390.625 1509
-70.3125 351.562 1586
-62.5 54.6875 970
-39.0625 62.5 959
-70.3125 -15.625 956
-164.062 398.438 1206
-171.875 -7.8125 1087
78.125 -54.6875 959
-109.375 406.25 1219
-54.6875 -7.8125 951
140.625 -343.75 1173
195.312 23.4375 973
281.25 -343.75 1016
-203.125 -7.8125 1130
-46.875 320.312 1050
328.125 -7.8125 984
148.438 -382.812 1169
-421.875 -117.188 3037
-39.0625 359.375 1259
-343.75 351.562 1031
-70.3125 109.375 925
-125 328.125 1044
140.625 -375 1169
-85.9375 343.75 1594
-101.562 359.375 1245
39.0625 -140.625 981
117.188 242.188 1041
203.125 -250 1034
-187.5 414.062 1181
-70.3125 343.75 1586
-460.938 343.75 1936
125 242.188 1044
-296.875 226.562 973
296.875 187.5 1785
-476.562 328.125 1981
-109.375 54.6875 1001
-304.688 257.812 987
7.8125 -15.625 938
-117.188 -117.188 989
46.875 -296.875 1445
-429.688 289.062 2090
117.188 234.375 1038
-460.938 218.75 2286
-460.938 335.938 1959
117.188 250 1047
-281.25 367.188 1181
234.375 -304.688 1016
46.875 -15.625 940
-187.5 359.375 1278
-93.75 -78.125 1007
7.8125 132.812 933
250 226.562 2103
-70.3125 -70.3125 1010
-468.75 -296.875 2812
148.438 39.0625 981
-179.688 390.625 1214
-195.312 -70.3125 1119
-62.5 250 981
218.75 -203.125 1054
460.938 -179.688 959
0 -148.438 964
7.8125 390.625 1483
-281.25 171.875 910
85.9375 375 1206
140.625 445.312 1206
93.75 359.375 1236
-171.875 414.062 1181
78.125 -382.812 1206
-132.812 -179.688 1169
484.375 -31.25 995
-85.9375 7.8125 973
-93.75 -23.4375 1041
156.25 437.5 1197
398.438 93.75 1731
62.5 -23.4375 946
117.188 148.438 992
320.312 7.8125 989
242.188 -226.562 1050
-93.75 15.625 975
210.938 -382.812 998
226.562 -382.812 1007
117.188 210.938 1025
-195.312 390.625 1206
171.875 375 1138
15.625 -31.25 938
-140.625 -179.688 1165
-210.938 -101.562 1359
-367.188 281.25 989
-117.188 156.25 973
390.625 -23.4375 984
171.875 437.5 1245
-218.75 -46.875 1219
39.0625 -117.188 956
-492.188 367.188 1883
125 437.5 1250
-187.5 148.438 920
62.5 367.188 1232
-218.75 -70.3125 1278
-210.938 -15.625 1157
117.188 367.188 1210
-156.25 -62.5 1070
-453.125 -62.5 3178
54.6875 -15.625 943
-62.5 -125 935
203.125 312.5 1609
304.688 -156.25 948
-210.938 -117.188 1101
203.125 304.688 1624
-187.5 -15.625 1090
7.8125 -250 3178
0 -132.812 964
-218.75 -54.6875 1236
179.688 335.938 1126
-164.062 367.188 1250
70.3125 -437.5 2933
-218.75 335.938 1041
-203.125 125 918
-70.3125 312.5 1047
62.5 343.75 1268
265.625 304.688 1601
-93.75 343.75 1594
-85.9375 382.812 1489
54.6875 31.25 954
0 140.625 933
70.3125 -15.625 948
46.875 343.75 1273
-70.3125 -132.812 938
-390.625 218.75 959
-132.812 406.25 1181
-375 218.75 962
-78.125 -140.625 943
117.188 390.625 1197
-39.0625 -46.875 959
-476.562 -15.625 2349
78.125 -31.25 954
171.875 -242.188 1087
7.8125 -164.062 970
-39.0625 -132.812 946
-429.688 -109.375 3010
-195.312 234.375 992
-140.625 -31.25 1063
39.0625 390.625 1489
70.3125 -62.5 956
210.938 -203.125 1054
-179.688 414.062 1181
-7.8125 179.688 992
-164.062 0 1077
117.188 218.75 1031
257.812 -148.438 946
23.4375 -78.125 959
-85.9375 23.4375 978
-39.0625 -15.625 951
-31.25 390.625 1516
109.375 -15.625 981
-93.75 -101.562 989
-320.312 140.625 906
-265.625 421.875 1169
54.6875 0 943
-335.938 156.25 903
93.75 -335.938 1202
-85.9375 335.938 1050
359.375 -15.625 981
-148.438 414.062 1177
-93.75 -132.812 946
125 -390.625 1177
187.5 429.688 1241
218.75 -390.625 1206
-93.75 -93.75 998
-132.812 328.125 1047
7.8125 -140.625 967
453.125 -23.4375 995
226.562 -351.562 998
101.562 15.625 1028
78.125 85.9375 933
125 445.312 1250
195.312 -132.812 930
390.625 -7.8125 992
195.312 351.562 1219
-296.875 406.25 1073
406.25 -15.625 992
218.75 398.438 1439
218.75 398.438 1439
-164.062 -132.812 1022
54.6875 -93.75 981
-7.8125 390.625 1509
289.062 7.8125 981
93.75 -273.438 1359
406.25 -171.875 956
164.062 -132.812 935
171.875 23.4375 967
375 -7.8125 989
-101.562 -15.625 1050
-62.5 -7.8125 954
-70.3125 -125 935
-500 406.25 1785
-46.875 -148.438 967
-484.375 343.75 1947
15.625 -156.25 970
7.8125 -125 956
343.75 281.25 1445
117.188 234.375 1038
140.625 250 1054
117.188 242.188 1041
46.875 -7.8125 940
-23.4375 -70.3125 946
0 7.8125 940
304.688 -375 1007
-234.375 406.25 1206
156.25 429.688 1193
15.625 93.75 930
492.188 156.25 1338
39.0625 7.8125 938
117.188 250 1047
-78.125 7.8125 964
-78.125 -101.562 995
109.375 23.4375 1013
-156.25 406.25 1206
-125 -156.25 1169
-109.375 15.625 1067
210.938 -351.562 995
-242.188 375 1232
-85.9375 375 1489
281.25 -351.562 1010
93.75 0 970
335.938 -328.125 1097
351.562 289.062 1421
-148.438 -39.0625 1063
-250 375 1232
-140.625 406.25 1177
179.688 445.312 1250
-414.062 328.125 1981
-15.625 375 1496
281.25 93.75 951
-109.375 31.25 1038
187.5 -234.375 1063
-203.125 -7.8125 1130
-156.25 -46.875 1063
156.25 -351.562 1028
117.188 164.062 1004
-453.125 -234.375 2789
-39.0625 328.125 1057
-460.938 -218.75 2659
117.188 179.688 1010
46.875 367.188 1232
-132.812 -7.8125 1070
-210.938 -23.4375 1165
101.562 429.688 1410
15.625 7.8125 935
242.188 15.625 981
78.125 -39.0625 956
312.5 171.875 1776
54.6875 -54.6875 948
-156.25 78.125 970
210.938 -328.125 1004
-23.4375 -171.875 1097
-359.375 312.5 1007
-148.438 406.25 1214
117.188 187.5 1016
289.062 -218.75 1067
257.812 31.25 984
-304.688 367.188 1054
-46.875 -140.625 946
31.25 -85.9375 975
-164.062 -62.5 1067
-62.5 -109.375 992
164.062 -406.25 1169
15.625 273.438 1041
31.25 -132.812 964
242.188 -242.188 1047
484.375 304.688 1392
-203.125 -31.25 1181
-39.0625 -140.625 946
-85.9375 406.25 1489
156.25 31.25 970
31.25 296.875 1057
-289.062 171.875 910
-39.0625 46.875 948
-257.812 171.875 915
-359.375 187.5 954
117.188 23.4375 1013
164.062 -203.125 1101
156.25 -234.375 1189
328.125 -156.25 948
203.125 210.938 1785
179.688 335.938 1126
203.125 -359.375 995
-140.625 15.625 1067
46.875 -31.25 943
-15.625 -117.188 948
85.9375 -382.812 1197
85.9375 -382.812 1197
343.75 -156.25 940
-78.125 148.438 928
-7.8125 -148.438 962
-203.125 7.8125 1101
-46.875 312.5 1050
-54.6875 7.8125 946
-101.562 -156.25 1181
0 70.3125 967
-78.125 375 1483
-187.5 367.188 1278
-460.938 -257.812 2859
335.938 132.812 1748
156.25 437.5 1197
-468.75 -281.25 2812
257.812 -257.812 1041
-187.5 -46.875 1084
-15.625 101.562 930
-7.8125 -156.25 967
304.688 179.688 1785
-367.188 296.875 998
-296.875 367.188 1054
-226.562 -156.25 1094
-46.875 -132.812 943
-484.375 390.625 1823
-31.25 328.125 1060
-218.75 398.438 1210
-85.9375 -46.875 1028
250 -210.938 1057
-31.25 -46.875 948
-23.4375 -140.625 954
-218.75 -54.6875 1236
117.188 437.5 1250
70.3125 382.812 1202
226.562 -117.188 923
-132.812 -195.312 1173
148.438 359.375 1141
-62.5 -15.625 956
93.75 328.125 1268
-414.062 -125 3092
39.0625 -132.812 967
78.125 -351.562 1206
-132.812 -171.875 1169
-156.25 0 1073
164.062 328.125 1119
156.25 -406.25 1169
281.25 -250 1050
-54.6875 -23.4375 962
265.625 -320.312 1019
93.75 -406.25 1202
-234.375 -140.625 1090
-210.938 -15.625 1157
-203.125 250 1001
-46.875 -125 948
179.688 351.562 1223
-398.438 187.5 946
-101.562 46.875 1016
171.875 -390.625 1169
0 367.188 1264
140.625 -195.312 1087
281.25 -148.438 940
265.625 -140.625 935
140.625 367.188 1153
156.25 351.562 1134
93.75 398.438 1197
-328.125 140.625 906
273.438 -296.875 1031
117.188 296.875 1067
-85.9375 31.25 978
-15.625 -179.688 1090
-218.75 -46.875 1219
-46.875 328.125 1050
273.438 210.938 1785
257.812 218.75 1794
-195.312 367.188 1250
-218.75 -31.25 1181
-492.188 -15.625 2333
164.062 -375 1010
-187.5 7.8125 1101
203.125 320.312 1586
-39.0625 242.188 984
-85.9375 -23.4375 1028
289.062 -234.375 1060
265.625 -390.625 1019
242.188 234.375 2078
265.625 218.75 1785
-93.75 -109.375 989
70.3125 -31.25 951
117.188 23.4375 1013
304.688 210.938 1804
179.688 343.75 1126
281.25 -335.938 1016
78.125 -453.125 2933
296.875 218.75 2103
-296.875 429.688 1080
-109.375 39.0625 1025
-85.9375 109.375 925
-375 273.438 987
421.875 -31.25 987
-375 414.062 1070
-23.4375 -125 962
320.312 -7.8125 981
-398.438 -125 1470
101.562 -15.625 973
46.875 -117.188 964
-203.125 -7.8125 1130
476.562 15.625 970
-132.812 -156.25 1165
-62.5 -156.25 1153
-296.875 390.625 1070
296.875 -54.6875 959
-484.375 -281.25 2859
218.75 -382.812 998
140.625 -382.812 1169
-476.562 -195.312 2432
-23.4375 304.688 1054
-226.562 375 1245
-85.9375 62.5 989
46.875 -109.375 956
-210.938 -62.5 1119
109.375 -46.875 981
484.375 -187.5 973
-109.375 382.812 1206
54.6875 0 943
-125 -62.5 1063
101.562 15.625 1028
78.125 -46.875 956
242.188 -218.75 1054
359.375 -164.062 954
-398.438 171.875 906
164.062 351.562 1134
-203.125 -31.25 1181
-109.375 -7.8125 1105
-70.3125 -15.625 956
281.25 0 978
7.8125 -234.375 3208
179.688 -382.812 1010
390.625 171.875 1785
-398.438 148.438 906
289.062 0 981
-171.875 -70.3125 1067
296.875 195.312 1794
218.75 406.25 1427
117.188 132.812 989
-125 -164.062 1173
109.375 101.562 935
-437.5 -109.375 3010
-179.688 -15.625 1090
453.125 -265.625 1202
-117.188 0 1094
125 -406.25 1181
-195.312 328.125 1044
62.5 -78.125 962
46.875 -101.562 1010
203.125 -273.438 1025
-375 351.562 1028
304.688 -296.875 1034
-406.25 187.5 946
-78.125 -132.812 938
-210.938 -46.875 1214
156.25 296.875 1105
0 -164.062 978
-492.188 -328.125 2723
-218.75 -78.125 1292
-250 398.438 1214
-70.3125 70.3125 973
242.188 -265.625 1034
109.375 390.625 1197
289.062 -226.562 1063
164.062 -328.125 1034
0 23.4375 951
109.375 -359.375 1181
-93.75 54.6875 998
78.125 -39.0625 956
-117.188 31.25 1038
343.75 -335.938 1097
210.938 -367.188 995
-7.8125 -109.375 943
109.375 0 973
-218.75 359.375 1268
-218.75 250 998
117.188 210.938 1025
-78.125 218.75 1001
-31.25 312.5 1057
-140.625 -179.688 1165
-343.75 179.688 903
-453.125 -70.3125 3178
-359.375 250 975
70.3125 -15.625 948
-179.688 -23.4375 1094
117.188 250 1047
203.125 250 1705
242.188 -304.688 1019
0 -140.625 964
-234.375 -31.25 1185
132.812 132.812 992
78.125 -31.25 954
-62.5 312.5 1050
117.188 320.312 1189
140.625 257.812 1054
117.188 445.312 1317
7.8125 -242.188 3208
210.938 414.062 1245
-484.375 -367.188 2723
70.3125 85.9375 933
62.5 390.625 1489
-85.9375 23.4375 978
281.25 179.688 1776
-125 -101.562 1004
-70.3125 -23.4375 970
343.75 281.25 1445
203.125 -210.938 1054
-125 117.188 920
-117.188 15.625 1070
-398.438 210.938 954
23.4375 -148.438 975
179.688 -414.062 1181
-164.062 375 1250
281.25 -343.75 1016
250 7.8125 978
31.25 -148.438 981
-203.125 -148.438 1060
-421.875 312.5 2028
-226.562 -125 1445
-140.625 414.062 1177
351.562 -15.625 981
109.375 117.188 935
445.312 250 1452
-203.125 -93.75 1333
62.5 320.312 1302
-312.5 414.062 1070
-476.562 -320.312 2789
-289.062 382.812 1070
-218.75 -39.0625 1197
250 234.375 2090
-203.125 -23.4375 1165
46.875 -23.4375 940
-70.3125 320.312 1050
-296.875 398.438 1073
-265.625 398.438 1206
445.312 -23.4375 995
453.125 148.438 1601
242.188 -367.188 995
-476.562 156.25 898
78.125 125 938
-445.312 -85.9375 3064
117.188 218.75 1031
-85.9375 -85.9375 1001
125 429.688 1202
-203.125 257.812 1004
-257.812 335.938 1034
109.375 -39.0625 978
-23.4375 398.438 1470
-62.5 0 951
39.0625 -164.062 989
-93.75 31.25 1038
-187.5 -78.125 1119
85.9375 -39.0625 959
-453.125 -179.688 2560
-46.875 382.812 1210
-203.125 335.938 1038
-500 -382.812 2701
-210.938 304.688 1028
203.125 -351.562 995
-476.562 -335.938 2744
-132.812 156.25 967
-382.812 257.812 981
140.625 375 1153
-93.75 -78.125 1007
-179.688 -39.0625 1063
-296.875 414.062 1084
156.25 320.312 1119
375 304.688 1381
-117.188 -132.812 946
109.375 320.312 1259
-203.125 0 1105
-218.75 -109.375 1370
-164.062 78.125 970
-109.375 23.4375 984
-210.938 -15.625 1145
-476.562 -164.062 2333
-234.375 -140.625 1087
-242.188 343.75 1038
-109.375 7.8125 987
117.188 171.875 1004
156.25 -359.375 1025
15.625 -273.438 1404
148.438 -273.438 1264
132.812 -359.375 1169
-250 390.625 1210
101.562 -7.8125 970
31.25 320.312 1302
-171.875 367.188 1250
39.0625 -54.6875 943
-31.25 335.938 1283
23.4375 -140.625 973
117.188 328.125 1153
15.625 -156.25 978
-93.75 23.4375 975
-23.4375 335.938 1288
46.875 328.125 1302
-101.562 46.875 1010
460.938 -250 1034
85.9375 289.062 1063
54.6875 390.625 1193
117.188 312.5 1119
-117.188 7.8125 1077
210.938 343.75 1227
62.5 -7.8125 946
54.6875 -93.75 973
-93.75 335.938 1044
-218.75 -31.25 1177
46.875 359.375 1236
-367.188 289.062 995
-250 414.062 1181
328.125 132.812 1748
-85.9375 234.375 978
-195.312 -23.4375 1090
7.8125 328.125 1292
-390.625 226.562 964
-460.938 -210.938 2618
265.625 210.938 1794
289.062 -375 1007
93.75 320.312 1302
-367.188 406.25 1060
-429.688 -54.6875 1288
-476.562 -23.4375 2317
125 -125 928
179.688 -234.375 1054
187.5 -203.125 1060
101.562 -39.0625 978
-85.9375 31.25 975
23.4375 -15.625 935
15.625 -109.375 948
-101.562 -78.125 1007
460.938 0 987
250 -320.312 1016
117.188 296.875 1067
109.375 375 1206
-70.3125 -62.5 973
-132.812 -62.5 1016
351.562 320.312 1404
109.375 296.875 1067
-93.75 156.25 975
-54.6875 390.625 1210
-101.562 -15.625 1038
281.25 15.625 995
78.125 -54.6875 964
-109.375 -156.25 1177
85.9375 -15.625 951
-367.188 195.312 956
-132.812 -156.25 1165
117.188 78.125 935
359.375 -296.875 1101
70.3125 93.75 930
125 304.688 1115
320.312 218.75 2078
-187.5 390.625 1206
117.188 156.25 1001
39.0625 -109.375 956
-296.875 421.875 1084
39.0625 375 1227
398.438 -242.188 1130
132.812 -320.312 1185
-257.812 421.875 1173
46.875 335.938 1273
-132.812 242.188 978
-31.25 -171.875 978
468.75 -242.188 1047
414.062 -171.875 951
-398.438 125 923
-398.438 195.312 951
335.938 140.625 1748
-328.125 390.625 1057
343.75 -242.188 1149
351.562 289.062 1415
210.938 23.4375 981
414.062 -15.625 995
328.125 -312.5 1115
54.6875 367.188 1232
-390.625 234.375 967
-62.5 218.75 1001
78.125 -46.875 962
117.188 289.062 1067
117.188 117.188 935
62.5 -23.4375 948
-46.875 -164.062 978
-70.3125 289.062 1038
226.562 -304.688 1016
31.25 367.188 1227
-367.188 296.875 1001
-101.562 382.812 1245
234.375 -203.125 1057
304.688 187.5 1785
-39.0625 -132.812 946
62.5 382.812 1197
-101.562 -125 943
-31.25 70.3125 959
-78.125 -93.75 1001
-484.375 -382.812 2723
101.562 -23.4375 967
62.5 -296.875 1259
-46.875 -54.6875 951
-445.312 -93.75 2984
109.375 312.5 1259
109.375 -437.5 1197
460.938 -39.0625 989
-70.3125 -54.6875 975
140.625 -328.125 1181
15.625 78.125 946
-54.6875 0 943
257.812 -296.875 1025
-156.25 -85.9375 1047
460.938 -265.625 1047
453.125 -179.688 959
164.062 382.812 1157
-70.3125 -195.312 1141
281.25 7.8125 981
179.688 343.75 1223
257.812 359.375 1470
218.75 359.375 1503
-62.5 359.375 1250
468.75 281.25 1421
-398.438 367.188 1034
-492.188 -7.8125 2349
85.9375 351.562 1236
54.6875 -31.25 946
31.25 359.375 1236
367.188 -242.188 1141
203.125 -109.375 925
-101.562 -62.5 1022
-62.5 -31.25 956
70.3125 -62.5 959
203.125 -250 1034
359.375 -7.8125 987
132.812 164.062 1004
375 257.812 1496
-437.5 -132.812 2984
289.062 382.812 1439
-62.5 406.25 1185
23.4375 257.812 1038
195.312 -265.625 1028
-289.062 335.938 1031
-453.125 -203.125 2701
-23.4375 406.25 1197
203.125 -265.625 1028
320.312 -156.25 938
23.4375 -109.375 954
117.188 23.4375 1004
93.75 15.625 1022
234.375 -140.625 928
351.562 -250 1145
-156.25 -125 1007
54.6875 -101.562 989
-218.75 -39.0625 1193
101.562 -296.875 1223
-70.3125 210.938 1001
-117.188 382.812 1214
-23.4375 -109.375 940
-195.312 234.375 992
-203.125 390.625 1210
-15.625 -31.25 935
78.125 335.938 1268
-109.375 39.0625 1022
203.125 320.312 1594
-453.125 234.375 967
-375 265.625 984
296.875 -296.875 1038
-70.3125 -101.562 987
-500 382.812 1833
-78.125 23.4375 967
0 -7.8125 935
265.625 31.25 978
-117.188 -54.6875 1047
-164.062 156.25 923
-320.312 -101.562 1387
273.438 234.375 1705
-492.188 -421.875 2659
46.875 382.812 1197
171.875 31.25 973
-382.812 250 975
195.312 -351.562 995
-78.125 -109.375 989
78.125 31.25 1004
-445.312 -171.875 2908
117.188 304.688 1115
70.3125 -390.625 1202
-148.438 296.875 1034
468.75 -31.25 995
320.312 0 984
-265.625 421.875 1169
-39.0625 31.25 946
39.0625 -132.812 967
-492.188 -312.5 2040
203.125 -382.812 1010
23.4375 15.625 946
-23.4375 281.25 1041
429.688 296.875 1415
-156.25 -54.6875 1067
109.375 -351.562 1177
210.938 -296.875 1019
-335.938 140.625 903
-226.562 -125 1433
-437.5 -101.562 2984
226.562 414.062 1404
46.875 -101.562 987
132.812 187.5 1016
179.688 -328.125 1004
-218.75 421.875 1177
-7.8125 -78.125 943
109.375 7.8125 1028
-148.438 390.625 1210
265.625 -226.562 1060
-93.75 31.25 975
54.6875 -78.125 959
-203.125 -70.3125 1119
-46.875 23.4375 940
-23.4375 -70.3125 943
132.812 31.25 984
242.188 -359.375 998
-210.938 -101.562 1343
31.25 -117.188 956
62.5 -78.125 962
320.312 -312.5 1038
367.188 -250 1153
-210.938 257.812 1004
-218.75 -31.25 1177
203.125 312.5 1609
39.0625 7.8125 943
117.188 187.5 1016
-257.812 -164.062 3120
-140.625 -171.875 1165
-320.312 406.25 1067
-62.5 0 943
367.188 -164.062 946
335.938 125 1739
-265.625 312.5 1022
-156.25 -46.875 1063
-484.375 -85.9375 2286
-148.438 -31.25 1063
132.812 179.688 1013
-78.125 -70.3125 978
-132.812 -23.4375 1073
54.6875 320.312 1297
31.25 -101.562 956
-273.438 156.25 910
101.562 -375 1177
476.562 296.875 1439
78.125 -390.625 1197
-7.8125 -164.062 970
-46.875 -187.5 1112
492.188 320.312 1381
109.375 -85.9375 1044
468.75 -179.688 951
171.875 -320.312 1025
117.188 250 1047
109.375 125 987
54.6875 -23.4375 946
117.188 343.75 1145
328.125 125 1748
312.5 85.9375 1004
7.8125 -171.875 984
-195.312 -46.875 1073
148.438 -101.562 915
-476.562 320.312 1993
-101.562 78.125 959
398.438 -171.875 951
23.4375 -132.812 964
23.4375 -132.812 964
-492.188 -414.062 2680
-421.875 -54.6875 1288
-500 -132.812 2170
-195.312 -70.3125 1119
-54.6875 -117.188 951
-54.6875 -70.3125 959
242.188 234.375 2078
-242.188 125 913
132.812 -375 1169
-484.375 343.75 1936
273.438 -328.125 1019
250 -335.938 1010
117.188 242.188 1041
-31.25 -117.188 946
109.375 343.75 1245
117.188 148.438 995
46.875 125 930
218.75 23.4375 984
-70.3125 234.375 981
85.9375 -375 1185
179.688 -218.75 1070
101.562 -46.875 981
-85.9375 -117.188 938
-140.625 -46.875 1073
-15.625 -54.6875 938
101.562 414.062 1427
125 -375 1169
156.25 445.312 1202
-445.312 -164.062 2908
-93.75 15.625 973
242.188 -210.938 1057
242.188 7.8125 978
-406.25 351.562 1028
-359.375 289.062 998
-210.938 375 1245
-85.9375 -101.562 998
125 -382.812 1169
296.875 7.8125 984
257.812 210.938 1804
70.3125 289.062 1063
-46.875 -125 959
-156.25 -39.0625 1063
-492.188 -320.312 2078
-218.75 -109.375 1370
117.188 179.688 1010
289.062 -250 1057
70.3125 -31.25 954
-62.5 210.938 1001
320.312 156.25 1757
-132.812 -187.5 1173
117.188 31.25 998
-289.062 359.375 1138
-359.375 304.688 1004
-195.312 -85.9375 1105
101.562 406.25 1439
117.188 226.562 1034
101.562 390.625 1202
70.3125 -15.625 946
7.8125 -85.9375 1022
0 343.75 1259
101.562 23.4375 1010
-54.6875 7.8125 940
-7.8125 328.125 1288
-70.3125 -140.625 943
289.062 -148.438 933
367.188 -7.8125 989
-39.0625 -156.25 978
390.625 148.438 1776
132.812 148.438 998
-46.875 359.375 1245
-500 -140.625 2198
-31.25 -140.625 956
-382.812 242.188 973
156.25 70.3125 938
-484.375 156.25 896
-382.812 351.562 1028
203.125 -367.188 992
-406.25 148.438 903
23.4375 -140.625 973
437.5 -23.4375 995
-218.75 -39.0625 1193
320.312 -125 930
-273.438 421.875 1165
109.375 148.438 992
132.812 -117.188 923
429.688 -250 1149
-101.562 -23.4375 1038
-117.188 15.625 1063
-101.562 390.625 1496
31.25 -15.625 938
117.188 335.938 1145
-492.188 -117.188 2170
7.8125 -132.812 959
-54.6875 140.625 928
265.625 15.625 984
-273.438 335.938 1034
62.5 -7.8125 946
-343.75 140.625 903
109.375 335.938 1250
140.625 273.438 1067
31.25 382.812 1197
78.125 -359.375 1193
-187.5 273.438 1013
-46.875 351.562 1255
-203.125 -78.125 1119
132.812 226.562 1038
234.375 242.188 1705
-453.125 242.188 2198
62.5 -46.875 951
-343.75 148.438 903
460.938 -226.562 1070
-46.875 -148.438 946
109.375 132.812 989
460.938 -281.25 1250
-62.5 -148.438 943
335.938 382.812 1398
31.25 -125 956
-179.688 -78.125 1115
132.812 156.25 1001
-125 46.875 1013
-335.938 375 1044
234.375 -335.938 1007
-7.8125 132.812 933
-101.562 -7.8125 962
-406.25 195.312 951
171.875 -125 918
-195.312 7.8125 1094
281.25 -218.75 1067
-171.875 -203.125 1161
46.875 -218.75 1185
343.75 273.438 1439
-195.312 0 1105
-203.125 328.125 1038
257.812 -328.125 1016
109.375 328.125 1210
54.6875 -15.625 943
-445.312 -85.9375 3037
437.5 -179.688 956
156.25 -132.812 930
-140.625 328.125 1044
-460.938 -218.75 2723
-492.188 -156.25 2184
-117.188 -15.625 1119
117.188 234.375 1038
93.75 7.8125 1038
-117.188 23.4375 1050
-54.6875 -125 959
156.25 -367.188 1025
164.062 70.3125 938
-164.062 -7.8125 1067
62.5 -70.3125 959
23.4375 -23.4375 938
-125 406.25 1185
-62.5 0 943
-468.75 171.875 898
-101.562 54.6875 995
-125 -70.3125 1013
-148.438 85.9375 956
179.688 -109.375 918
0 304.688 1057
-101.562 109.375 923
70.3125 -54.6875 959
-109.375 39.0625 1022
312.5 179.688 1785
203.125 62.5 946
335.938 117.188 1739
187.5 382.812 1223
-117.188 7.8125 1077
-250 335.938 1034
-328.125 156.25 903
312.5 46.875 954
-117.188 406.25 1185
171.875 375 1223
273.438 -296.875 1031
-62.5 -93.75 989
-125 -195.312 1177
62.5 -62.5 956
-242.188 -468.75 2789
-195.312 -31.25 1084
-62.5 226.562 1007
-148.438 351.562 1278
-210.938 234.375 992
312.5 171.875 1776
-218.75 242.188 998
109.375 156.25 1001
-117.188 0 1090
93.75 382.812 1202
250 -148.438 946
-148.438 421.875 1177
390.625 -148.438 933
101.562 117.188 935
-359.375 312.5 1007
148.438 312.5 1115
-304.688 414.062 1077
382.812 -23.4375 984
-257.812 398.438 1202
-296.875 390.625 1108
390.625 -156.25 935
-226.562 242.188 998
85.9375 -265.625 1322
-23.4375 -23.4375 940
-476.562 328.125 1981
-351.562 375 1044
46.875 -78.125 956
398.438 39.0625 962
-382.812 390.625 1054
109.375 140.625 989
39.0625 -31.25 938
273.438 203.125 1785
-218.75 164.062 918
-210.938 -54.6875 1115
351.562 -335.938 1094
-62.5 62.5 959
-218.75 -62.5 1250
468.75 -234.375 1054
-15.625 -140.625 962
31.25 -31.25 938
101.562 23.4375 1010
132.812 210.938 1028
70.3125 -70.3125 964
234.375 31.25 984
125 -335.938 1177
226.562 -320.312 1013
101.562 101.562 933
-476.562 -320.312 2767
164.062 -382.812 1019
320.312 -265.625 1060
140.625 -367.188 1165
-179.688 132.812 918
-39.0625 382.812 1219
7.8125 398.438 1197
-7.8125 -70.3125 943
390.625 -23.4375 984
-203.125 -140.625 1057
-31.25 375 1227
-203.125 -46.875 1105
-46.875 140.625 928
0 375 1227
171.875 23.4375 967
-500 -367.188 2744
-210.938 -39.0625 1087
7.8125 0 935
-390.625 242.188 973
-7.8125 304.688 1057
93.75 335.938 1264
-7.8125 -132.812 956
70.3125 -414.062 1223
-156.25 -15.625 1063
-179.688 390.625 1210
-218.75 -54.6875 1227
164.062 359.375 1138
15.625 304.688 1063
-375 390.625 1054
281.25 195.312 1785
54.6875 0 948
304.688 179.688 1785
273.438 -210.938 1067
7.8125 351.562 1268
101.562 351.562 1236
-296.875 382.812 1108
62.5 -54.6875 954
-46.875 109.375 925
-23.4375 -140.625 956
281.25 -304.688 1028
-492.188 359.375 1904
-476.562 -328.125 2767
-140.625 351.562 1273
203.125 -132.812 925
-296.875 375 1126
-296.875 359.375 1138
210.938 -140.625 933
-234.375 -15.625 1149
-101.562 23.4375 984
171.875 -328.125 1019
-171.875 -23.4375 1060
296.875 -289.062 1041
195.312 -359.375 992
-93.75 -437.5 2908
226.562 -312.5 1013
210.938 -382.812 1007
140.625 328.125 1123
39.0625 296.875 1063
-140.625 -62.5 1073
-218.75 250 998
140.625 359.375 1141
148.438 -343.75 1169
148.438 -343.75 1169
7.8125 39.0625 948
140.625 351.562 1138
210.938 -210.938 1050
281.25 -289.062 1038
15.625 -85.9375 948
-101.562 -70.3125 1010
-296.875 343.75 1028
148.438 437.5 1197
335.938 343.75 1398
-164.062 -62.5 1070
460.938 421.875 1338
109.375 164.062 1001
-39.0625 406.25 1193
-46.875 -7.8125 946
328.125 85.9375 1013
-125 398.438 1210
-46.875 23.4375 940
0 -117.188 946
-265.625 179.688 962
70.3125 -23.4375 948
-23.4375 46.875 956
109.375 117.188 935
39.0625 -23.4375 938
-398.438 218.75 959
-132.812 -39.0625 1067
85.9375 -328.125 1202
-54.6875 15.625 940
-62.5 7.8125 940
281.25 -281.25 1041
-375 281.25 989
382.812 250 1496
132.812 234.375 1041
-273.438 132.812 910
148.438 -242.188 1177
15.625 343.75 1268
-156.25 -31.25 1060
164.062 -421.875 1181
-210.938 -31.25 1084
-273.438 -328.125 2908
156.25 -375 1019
-375 273.438 989
351.562 -15.625 981
-54.6875 -54.6875 956
-203.125 -23.4375 1084
-460.938 226.562 2271
-343.75 343.75 1028
62.5 296.875 1063
-484.375 -375 2723
-328.125 179.688 951
164.062 23.4375 964
-312.5 406.25 1067
78.125 -54.6875 964
328.125 117.188 1739
-210.938 -15.625 1145
-164.062 421.875 1173
257.812 23.4375 987
117.188 359.375 1157
296.875 296.875 1470
203.125 328.125 1572
-304.688 398.438 1077
-242.188 398.438 1206
117.188 265.625 1057
-328.125 398.438 1060
-296.875 367.188 1126
492.188 -210.938 975
382.812 304.688 1381
265.625 -210.938 1067
-164.062 -54.6875 1067
164.062 -414.062 1173
296.875 -156.25 940
-93.75 421.875 1169
-242.188 406.25 1206
164.062 -210.938 1112
-453.125 -70.3125 3178
-203.125 0 1105
-62.5 210.938 1001
335.938 109.375 1731
-101.562 46.875 1010
-7.8125 -125 951
-31.25 -70.3125 943
281.25 0 981
296.875 320.312 1458
-39.0625 335.938 1283
117.188 218.75 1031
-132.812 351.562 1273
-398.438 210.938 956
54.6875 343.75 1268
273.438 -382.812 1004
117.188 -335.938 1181
335.938 101.562 1031
320.312 156.25 1757
109.375 15.625 1022
132.812 242.188 1047
-54.6875 375 1214
-390.625 234.375 967
117.188 343.75 1145
-164.062 -109.375 1041
-296.875 351.562 1028
132.812 -375 1169
109.375 179.688 1010
-429.688 242.188 970
117.188 -437.5 1193
187.5 156.25 1731
-210.938 250 1001
-148.438 343.75 1050
203.125 -351.562 995
-367.188 296.875 1001
-46.875 156.25 978
-31.25 312.5 1057
-140.625 367.188 1250
-187.5 375 1241
-101.562 -117.188 943
109.375 148.438 992
-85.9375 320.312 1050
-171.875 7.8125 1087
-226.562 -70.3125 1268
390.625 218.75 1713
203.125 335.938 1227
-39.0625 -109.375 946
-437.5 -179.688 2908
-62.5 -7.8125 946
-62.5 0 943
0 312.5 1057
398.438 -15.625 987
62.5 -70.3125 959
-39.0625 -148.438 951
-492.188 -429.688 2659
-46.875 -132.812 943
164.062 -351.562 1016
226.562 375 1470
-101.562 23.4375 984
156.25 382.812 1157
109.375 -23.4375 967
296.875 195.312 1794
-476.562 -312.5 2789
-85.9375 -148.438 920
-101.562 15.625 984
171.875 -304.688 1028
117.188 -351.562 1173
-7.8125 367.188 1227
-156.25 -39.0625 1063
226.562 406.25 1415
-70.3125 -101.562 987
109.375 171.875 1004
101.562 -70.3125 978
-226.562 359.375 1264
39.0625 359.375 1236
-476.562 -23.4375 2317
70.3125 -398.438 1210
-78.125 -23.4375 954
132.812 -382.812 1169
203.125 -140.625 938
242.188 -335.938 1007
273.438 -351.562 1007
93.75 -23.4375 973
85.9375 -273.438 1354
164.062 312.5 1119
-445.312 265.625 2143
-484.375 -359.375 2744
-85.9375 -109.375 992
335.938 -335.938 1094
226.562 390.625 1439
187.5 -132.812 923
140.625 -335.938 1173
-101.562 367.188 1250
273.438 -234.375 1057
-203.125 -85.9375 1119
-109.375 359.375 1259
312.5 0 984
109.375 359.375 1236
-85.9375 -195.312 1153
-156.25 -23.4375 1060
-414.062 125 930
-343.75 156.25 903
-39.0625 101.562 928
0 -78.125 943
-109.375 390.625 1214
218.75 -398.438 1219
93.75 -39.0625 973
148.438 -226.562 1161
-93.75 -78.125 1007
257.812 -265.625 1041
-203.125 -7.8125 1119
-101.562 -23.4375 1038
-492.188 375 1853
351.562 -226.562 1105
257.812 15.625 981
54.6875 125 930
242.188 -359.375 998
117.188 210.938 1025
23.4375 39.0625 1001
359.375 -23.4375 981
437.5 289.062 1415
187.5 335.938 1232
15.625 367.188 1227
54.6875 -62.5 954
117.188 351.562 1149
226.562 382.812 1452
46.875 -85.9375 967
-148.438 15.625 1067
250 15.625 981
85.9375 15.625 1025
0 -164.062 970
85.9375 375 1197
23.4375 93.75 928
218.75 304.688 1616
93.75 414.062 1439
203.125 23.4375 975
-343.75 304.688 1010
117.188 375 1202
101.562 328.125 1268
-125 250 978
328.125 93.75 1031
109.375 187.5 1013
23.4375 -15.625 935
164.062 437.5 1245
179.688 375 1223
-70.3125 -15.625 954
-460.938 -250 2883
-31.25 -148.438 956
-15.625 -148.438 959
-54.6875 15.625 940
-140.625 -179.688 1165
117.188 328.125 1153
109.375 195.312 1016
-93.75 -148.438 933
226.562 -304.688 1016
7.8125 375 1232
125 -328.125 1181
-117.188 -7.8125 1101
148.438 304.688 1108
242.188 -234.375 1054
-78.125 312.5 1050
46.875 -109.375 1001
117.188 367.188 1202
-46.875 15.625 940
101.562 0 1047
445.312 -179.688 956
-46.875 -101.562 940
-148.438 414.062 1177
-171.875 265.625 975
-70.3125 218.75 1004
132.812 265.625 1060
273.438 210.938 1794
-101.562 -78.125 1007
-93.75 0 964
-195.312 -23.4375 1090
234.375 242.188 1705
-218.75 -62.5 1250
-265.625 132.812 908
140.625 -421.875 1181
0 -148.438 970
-187.5 414.062 1177
-289.062 414.062 1084
-62.5 398.438 1189
101.562 398.438 1202
7.8125 -70.3125 943
-132.812 -23.4375 1073
-117.188 23.4375 1050
-132.812 -156.25 1165
85.9375 -39.0625 964
117.188 203.125 1022
-320.312 414.062 1073
429.688 -257.812 1169
-70.3125 242.188 978
54.6875 -85.9375 967
148.438 -218.75 1134
23.4375 -156.25 981
15.625 15.625 943
70.3125 -23.4375 948
-93.75 -23.4375 1025
-171.875 -62.5 1070
-85.9375 7.8125 962
70.3125 -70.3125 964
-296.875 312.5 1019
-328.125 304.688 1013
-101.562 54.6875 995
46.875 0 946
-101.562 -39.0625 1034
312.5 -7.8125 981
-203.125 125 915
-148.438 117.188 920
0 -7.8125 935
273.438 -375 1004
-226.562 421.875 1177
93.75 296.875 1067
-85.9375 -93.75 1001
23.4375 304.688 1060
132.812 343.75 1138
156.25 -312.5 1044
-320.312 343.75 1031
85.9375 -390.625 1193
468.75 -273.438 1057
117.188 250 1047
-187.5 250 978
-218.75 -78.125 1119
132.812 335.938 1134
421.875 265.625 1477
148.438 132.812 992
62.5 -62.5 956
93.75 117.188 935
62.5 85.9375 930
109.375 179.688 1010
304.688 328.125 1433
101.562 -15.625 978
78.125 328.125 1278
-101.562 -7.8125 962
203.125 15.625 973
-101.562 -93.75 995
-54.6875 -15.625 948
-367.188 179.688 908
484.375 -46.875 987
312.5 -304.688 1038
-234.375 -132.812 1087
273.438 -367.188 1004
-70.3125 210.938 1001
210.938 -296.875 1019
125 218.75 1031
476.562 -304.688 1338
-437.5 -101.562 2984
468.75 -218.75 1044
-179.688 -7.8125 1080
-468.75 -281.25 2835
101.562 -31.25 967
-171.875 398.438 1206
-54.6875 156.25 978
-210.938 -93.75 1328
-382.812 265.625 984
-445.312 -140.625 2933
-78.125 -117.188 935
156.25 375 1149
273.438 -382.812 1004
453.125 -39.0625 987
-140.625 -164.062 1165
281.25 296.875 1470
-93.75 109.375 923
-445.312 -179.688 2908
203.125 -195.312 1057
-226.562 390.625 1206
15.625 390.625 1193
289.062 312.5 1458
-54.6875 351.562 1250
195.312 23.4375 975
-226.562 234.375 992
7.8125 -164.062 975
-93.75 -85.9375 1001
-78.125 -140.625 935
296.875 46.875 951
195.312 -359.375 992
-117.188 -187.5 1177
406.25 -171.875 951
156.25 359.375 1138
-70.3125 -109.375 978
132.812 359.375 1145
-406.25 187.5 903
-70.3125 -7.8125 954
-203.125 -70.3125 1119
171.875 187.5 1748
210.938 -234.375 1044
210.938 312.5 1601
-210.938 -70.3125 1119
109.375 15.625 1022
109.375 375 1206
-70.3125 -125 935
328.125 101.562 1031
203.125 -203.125 1054
-312.5 375 1057
328.125 109.375 1739
-70.3125 -23.4375 967
453.125 -250 1034
328.125 132.812 1748
-351.562 343.75 1028
-203.125 -23.4375 1084
-125 -140.625 954
492.188 -218.75 975
250 54.6875 948
195.312 -132.812 925
-117.188 31.25 1031
109.375 203.125 1019
0 -125 951
148.438 -210.938 1119
-156.25 351.562 1283
335.938 93.75 1031
15.625 -195.312 1044
-93.75 23.4375 975
-15.625 -117.188 946
132.812 -351.562 1169
281.25 226.562 2078
-468.75 -234.375 2744
382.812 -164.062 940
-132.812 -171.875 1173
-117.188 -132.812 946
210.938 -328.125 1007
203.125 -351.562 995
210.938 320.312 1586
109.375 210.938 1025
-281.25 335.938 1034
62.5 93.75 928
-7.8125 -54.6875 938
-54.6875 -132.812 940
-171.875 -132.812 1016
-171.875 -132.812 1016
234.375 -367.188 995
-15.625 398.438 1193
132.812 328.125 1123
-70.3125 62.5 975
-218.75 -85.9375 1307
31.25 -54.6875 940
234.375 -312.5 1016
-460.938 -234.375 2744
93.75 -359.375 1185
273.438 -148.438 933
-125 -85.9375 1004
-156.25 -70.3125 1077
132.812 304.688 1112
-218.75 304.688 1025
-101.562 15.625 984
-15.625 304.688 1054
39.0625 -93.75 975
85.9375 -281.25 1250
-492.188 -304.688 2040
109.375 195.312 1016
-265.625 421.875 1169
39.0625 -125 964
-31.25 -109.375 943
-312.5 367.188 1060
78.125 -54.6875 964
109.375 148.438 992
23.4375 -132.812 964
218.75 -265.625 1031
-218.75 242.188 998
-117.188 -78.125 1007
-39.0625 -132.812 946
492.188 429.688 1288
-109.375 -85.9375 1001
-62.5 375 1210
101.562 359.375 1189
117.188 335.938 1145
31.25 -140.625 973
125 31.25 992
203.125 -382.812 1010
281.25 -375 1007
-171.875 250 973
-484.375 -265.625 2883
-453.125 250 2184
0 132.812 933
-375 195.312 954
-296.875 335.938 1031
-148.438 132.812 920
-117.188 -179.688 1177
257.812 -375 1004
-7.8125 23.4375 948
210.938 -242.188 1041
-101.562 -101.562 989
359.375 296.875 1398
156.25 -382.812 1169
125 -265.625 1288
171.875 -421.875 1185
62.5 -70.3125 959
132.812 367.188 1149
-85.9375 -85.9375 1001
132.812 351.562 1138
429.688 312.5 1370
304.688 -250 1057
70.3125 -54.6875 959
218.75 -351.562 995
203.125 -289.062 1019
-398.438 375 1041
218.75 -117.188 923
164.062 -375 1019
148.438 -414.062 1173
429.688 -23.4375 992
-101.562 23.4375 984
0 23.4375 948
78.125 -382.812 1197
-406.25 203.125 954
109.375 218.75 1028
203.125 -390.625 1010
234.375 78.125 948
31.25 -117.188 956
0 351.562 1259
-85.9375 23.4375 973
132.812 382.812 1161
-46.875 218.75 992
0 -15.625 938
-125 -109.375 992
-476.562 -70.3125 2301
234.375 -226.562 1050
70.3125 -31.25 954
46.875 -54.6875 946
273.438 -218.75 1067
164.062 218.75 1038
117.188 15.625 1013
15.625 -164.062 978
-476.562 -31.25 2349
296.875 -304.688 1031
-117.188 -15.625 1119
-54.6875 46.875 948
-7.8125 46.875 992
-117.188 320.312 1047
-445.312 -85.9375 3037
-343.75 164.062 906
-226.562 -46.875 1214
-31.25 351.562 1255
-109.375 351.562 1283
140.625 367.188 1149
-93.75 343.75 1283
140.625 445.312 1202
-148.438 -125 1004
62.5 -46.875 951
203.125 -367.188 992
242.188 54.6875 948
-226.562 -117.188 1398
70.3125 343.75 1268
62.5 -23.4375 948
-203.125 -54.6875 1073
242.188 7.8125 978
273.438 7.8125 981
-195.312 -15.625 1087
273.438 7.8125 981
-203.125 -31.25 1084
-93.75 -15.625 956
-148.438 7.8125 1087
-343.75 367.188 1038
-54.6875 15.625 940
93.75 7.8125 1038
-109.375 -78.125 1007
-453.125 -210.938 2701
164.062 -242.188 1077
54.6875 -85.9375 967
-15.625 -78.125 948
15.625 -78.125 948
-257.812 132.812 913
-164.062 -101.562 1047
-429.688 -117.188 2984
23.4375 -46.875 938
54.6875 -101.562 989
62.5 -15.625 946
-492.188 93.75 987
-78.125 218.75 1001
-39.0625 -109.375 946
-460.938 -62.5 3208
93.75 328.125 1273
-78.125 -109.375 989
-203.125 0 1105
210.938 -304.688 1016
7.8125 -289.062 3120
-101.562 -78.125 1007
15.625 -93.75 973
-54.6875 398.438 1193
-85.9375 -23.4375 956
367.188 265.625 1489
195.312 -367.188 992
-31.25 -125 956
257.812 304.688 1609
-171.875 156.25 923
226.562 -304.688 1016
-312.5 343.75 1028
226.562 398.438 1427
460.938 -179.688 951
-78.125 -93.75 1001
-257.812 398.438 1202
179.688 -382.812 992
93.75 -320.312 1202
101.562 351.562 1236
328.125 -320.312 1105
-101.562 54.6875 995
132.812 195.312 1022
-31.25 -140.625 956
-101.562 414.062 1169
-54.6875 -140.625 943
-85.9375 -132.812 938
109.375 382.812 1206
101.562 -7.8125 970
-210.938 382.812 1245
-85.9375 31.25 975
320.312 -7.8125 981
421.875 -31.25 987
-468.75 320.312 1993
-164.062 -54.6875 1067
46.875 -101.562 987
257.812 101.562 1016
-210.938 125 915
-218.75 -101.562 1349
-156.25 117.188 920
-109.375 148.438 925
-54.6875 382.812 1210
85.9375 296.875 1067
117.188 195.312 1019
-273.438 312.5 1019
179.688 -195.312 1060
-375 281.25 989
132.812 125 989
-132.812 250 975
109.375 226.562 1034
85.9375 -343.75 1197
-218.75 -23.4375 1161
250 -250 1044
46.875 0 946
132.812 250 1050
70.3125 -304.688 1245
109.375 234.375 1038
148.438 250 1054
-109.375 46.875 1010
273.438 -367.188 1004
109.375 132.812 989
156.25 250 1050
-484.375 -304.688 2812
-398.438 226.562 964
-62.5 390.625 1210
296.875 359.375 1452
125 -445.312 1185
203.125 -242.188 1038
-296.875 250 984
328.125 125 1748
-484.375 -15.625 2349
148.438 343.75 1134
-46.875 -46.875 951
109.375 187.5 1013
234.375 101.562 948
-31.25 -117.188 946
492.188 -31.25 995
-179.688 414.062 1177
-23.4375 390.625 1193
-210.938 359.375 1278
-62.5 7.8125 940
-304.688 429.688 1084
-117.188 31.25 1031
195.312 -257.812 1031
15.625 0 935
-468.75 -203.125 2598
281.25 -203.125 1057
70.3125 -39.0625 959
-101.562 -85.9375 1001
281.25 -296.875 1034
39.0625 31.25 948
-164.062 0 1073
171.875 46.875 967
-210.938 -7.8125 1123
15.625 -171.875 984
335.938 15.625 984
-93.75 62.5 987
-179.688 250 975
46.875 -375 1236
382.812 -296.875 1138
78.125 -15.625 948
93.75 -281.25 1250
-179.688 -70.3125 1070
281.25 -234.375 1060
343.75 -234.375 1123
140.625 -351.562 1169
109.375 203.125 1019
-164.062 -46.875 1063
78.125 -46.875 962
367.188 -265.625 1145
132.812 320.312 1119
-78.125 -15.625 954
0 390.625 1197
218.75 429.688 1381
226.562 437.5 1370
-23.4375 -140.625 956
132.812 -343.75 1177
-414.062 320.312 1013
359.375 -250 1153
-78.125 -7.8125 954
93.75 304.688 1067
-7.8125 7.8125 938
-101.562 -109.375 989
101.562 312.5 1292
109.375 210.938 1025
-101.562 0 964
-492.188 -406.25 2701
-257.812 375 1236
171.875 343.75 1223
148.438 351.562 1138
296.875 226.562 1713
-101.562 -117.188 943
31.25 7.8125 938
23.4375 -125 956
-234.375 -132.812 1087
101.562 132.812 989
132.812 -382.812 1169
398.438 7.8125 987
0 -93.75 946
-468.75 -46.875 2349
-210.938 -93.75 1328
-125 -46.875 1060
-93.75 23.4375 975
-398.438 218.75 959
273.438 -359.375 1007
468.75 -265.625 1047
445.312 242.188 1624
445.312 -234.375 1097
-382.812 203.125 956
-62.5 0 943
-171.875 0 1073
109.375 218.75 1028
-468.75 -273.438 2835
-218.75 -70.3125 1119
46.875 -15.625 943
-70.3125 -156.25 946
109.375 23.4375 1004
117.188 -390.625 1169
-406.25 195.312 951
-78.125 -70.3125 978
0 -85.9375 1019
-375 210.938 962
281.25 -250 1054
93.75 15.625 1022
289.062 15.625 995
335.938 85.9375 1016
312.5 179.688 1785
39.0625 46.875 987
437.5 281.25 1427
-125 15.625 1067
328.125 117.188 1739
-109.375 -15.625 1038
109.375 242.188 1041
-46.875 -164.062 978
-23.4375 -179.688 1084
7.8125 -148.438 973
-453.125 -78.125 3120
-46.875 -132.812 943
-117.188 39.0625 1022
109.375 179.688 1010
156.25 375 1149
-148.438 -15.625 1067
54.6875 335.938 1273
85.9375 320.312 1297
210.938 390.625 1338
-78.125 -195.312 1145
-132.812 -93.75 1010
23.4375 -31.25 938
257.812 210.938 1804
226.562 -140.625 930
-429.688 -140.625 2984
-164.062 78.125 970
-210.938 265.625 1010
132.812 406.25 1181
195.312 -359.375 992
46.875 -93.75 973
226.562 -218.75 1054
281.25 -242.188 1057
101.562 -265.625 1312
-62.5 -23.4375 954
7.8125 -31.25 935
-93.75 31.25 975
-210.938 250 1001
148.438 312.5 1115
70.3125 39.0625 992
187.5 0 959
-62.5 7.8125 940
31.25 -93.75 973
-140.625 -7.8125 1077
-156.25 -39.0625 1063
-148.438 -179.688 1165
-62.5 210.938 1001
31.25 -335.938 3037
109.375 250 1044
351.562 382.812 1387
101.562 -437.5 1202
421.875 0 995
117.188 312.5 1119
203.125 -343.75 995
101.562 -304.688 1210
140.625 437.5 1197
-218.75 -23.4375 1161
-54.6875 -125 959
179.688 -234.375 1054
39.0625 -328.125 1255
-203.125 304.688 1028
-500 -460.938 2579
148.438 -210.938 1119
273.438 -351.562 1007
273.438 -375 1004
-171.875 -62.5 1070
304.688 -320.312 1031
-164.062 117.188 920
54.6875 -23.4375 946
-414.062 343.75 1947
70.3125 -46.875 959
289.062 -156.25 943
187.5 359.375 1219
234.375 -304.688 1016
109.375 234.375 1038
-304.688 406.25 1073
328.125 382.812 1410
46.875 -312.5 1255
101.562 -289.062 1236
-117.188 31.25 1031
0 93.75 928
-210.938 -31.25 1084
273.438 203.125 1785
-85.9375 406.25 1185
23.4375 -101.562 954
-125 0 1087
-406.25 359.375 1034
-148.438 390.625 1210
-343.75 421.875 1073
-117.188 -62.5 1013
62.5 -31.25 948
-210.938 -7.8125 1123
0 39.0625 948
171.875 359.375 1219
132.812 375 1157
23.4375 -85.9375 967
85.9375 -101.562 984
382.812 -23.4375 984
54.6875 -414.062 1227
-109.375 46.875 1010
39.0625 -320.312 3120
-250 375 1241
-500 375 1863
62.5 109.375 933
15.625 -148.438 981
-62.5 -125 940
93.75 -15.625 978
203.125 -328.125 1004
-23.4375 -156.25 959
-171.875 -125 1022
171.875 -328.125 1019
164.062 23.4375 964
15.625 15.625 943
445.312 -242.188 1044
109.375 226.562 1034
0 -39.0625 935
54.6875 -39.0625 948
23.4375 -132.812 964
-70.3125 -7.8125 954
156.25 -203.125 1087
148.438 320.312 1119
-31.25 -70.3125 943
-210.938 -39.0625 1087
46.875 -109.375 1001
-125 -78.125 1010
-156.25 390.625 1210
-226.562 -46.875 1214
46.875 -46.875 946
-195.312 -78.125 1115
382.812 304.688 1381
-468.75 -210.938 2618
164.062 437.5 1245
0 -70.3125 943
132.812 171.875 1007
54.6875 -93.75 973
-23.4375 -31.25 938
-390.625 242.188 973
-218.75 -125 1087
398.438 304.688 1365
-195.312 -46.875 1073
-234.375 15.625 1087
-242.188 -62.5 1259
-62.5 -62.5 967
171.875 -234.375 1073
-218.75 -15.625 1141
-195.312 -62.5 1070
359.375 -164.062 946
-203.125 -70.3125 1119
78.125 -367.188 1193
414.062 -31.25 987
-93.75 62.5 987
-148.438 -62.5 1077
39.0625 125 925
-226.562 -54.6875 1232
93.75 -54.6875 978
-226.562 -78.125 1283
39.0625 -101.562 1007
101.562 31.25 998
101.562 -398.438 1181
-125 31.25 1038
125 125 989
39.0625 -85.9375 967
-460.938 -210.938 2618
-218.75 -101.562 1349
70.3125 -39.0625 959
109.375 164.062 1001
-31.25 -148.438 956
273.438 -257.812 1047
218.75 312.5 1594
-187.5 -78.125 1119
281.25 -218.75 1067
-476.562 -101.562 2286
54.6875 -7.8125 946
195.312 382.812 1223
195.312 -210.938 1050
-226.562 -148.438 1084
273.438 -296.875 1031
23.4375 -140.625 973
390.625 304.688 1398
351.562 351.562 1376
328.125 93.75 1031
-492.188 -320.312 2078
-117.188 421.875 1181
-328.125 429.688 1080
-382.812 187.5 951
-109.375 -132.812 940
148.438 -203.125 1084
-289.062 164.062 910
70.3125 -31.25 954
78.125 289.062 1063
-125 15.625 1067
-46.875 382.812 1210
62.5 -406.25 1227
31.25 0 938
367.188 148.438 1776
-265.625 398.438 1206
-85.9375 39.0625 978
-187.5 125 918
-218.75 398.438 1206
-218.75 -31.25 1177
39.0625 -62.5 946
85.9375 312.5 1307
-109.375 406.25 1181
218.75 -390.625 1004
484.375 15.625 967
-351.562 351.562 1031
93.75 320.312 1302
390.625 187.5 1785
23.4375 296.875 1057
109.375 156.25 1001
195.312 -382.812 1010
109.375 242.188 1041
109.375 125 987
-460.938 -62.5 3208
265.625 125 1739
257.812 -257.812 1041
187.5 -109.375 918
-484.375 335.938 1947
15.625 -62.5 940
-476.562 -31.25 2349
179.688 351.562 1223
101.562 -23.4375 967
-54.6875 -164.062 1130
46.875 0 946
-210.938 398.438 1210
187.5 343.75 1223
195.312 -351.562 995
-156.25 421.875 1177
-101.562 31.25 975
-414.062 187.5 901
226.562 421.875 1392
-218.75 421.875 1177
109.375 23.4375 1004
343.75 -328.125 1097
-335.938 -46.875 1232
-250 148.438 915
109.375 187.5 1013
-226.562 -164.062 1090
218.75 -265.625 1031
140.625 -398.438 1169
39.0625 398.438 1193
328.125 101.562 1031
226.562 -312.5 1013
453.125 -273.438 1214
-218.75 -46.875 1210
210.938 -304.688 1016
-85.9375 312.5 1050
109.375 171.875 1004
-78.125 -7.8125 954
-406.25 210.938 954
226.562 -335.938 1004
-125 7.8125 1077
109.375 140.625 989
-210.938 -7.8125 1123
312.5 -156.25 938
-218.75 -62.5 1250
234.375 -265.625 1031
78.125 15.625 967
78.125 -289.062 1259
367.188 273.438 1477
31.25 -117.188 956
93.75 15.625 1022
296.875 210.938 1794
-85.9375 -101.562 998
-117.188 39.0625 1022
39.0625 -7.8125 938
101.562 23.4375 1010
-492.188 359.375 1904
351.562 -265.625 1141
-289.062 171.875 910
359.375 296.875 1398
78.125 -78.125 973
-445.312 -93.75 2984
-117.188 -101.562 992
-226.562 -117.188 1398
62.5 -15.625 946
-70.3125 -93.75 989
54.6875 304.688 1067
-187.5 7.8125 1090
140.625 445.312 1202
62.5 -54.6875 954
0 -171.875 1010
7.8125 93.75 928
-195.312 -54.6875 1073
39.0625 320.312 1302
273.438 0 981
-484.375 -289.062 2835
93.75 -31.25 973
23.4375 15.625 946
125 140.625 992
304.688 367.188 1427
-109.375 46.875 1010
46.875 -93.75 973
-203.125 -31.25 1084
-382.812 414.062 1070
-343.75 359.375 1034
351.562 -15.625 981
101.562 351.562 1236
210.938 -328.125 1007
390.625 117.188 1748
-226.562 -39.0625 1197
-250 382.812 1236
31.25 -62.5 943
203.125 15.625 973
140.625 -343.75 1173
203.125 -289.062 1019
70.3125 -54.6875 959
156.25 -351.562 1028
-226.562 164.062 920
257.812 -226.562 1057
140.625 -421.875 1173
-62.5 54.6875 954
7.8125 -109.375 951
-78.125 210.938 1001
-453.125 -226.562 2789
-156.25 343.75 1283
-445.312 54.6875 1038
-93.75 -117.188 987
304.688 -304.688 1031
-31.25 46.875 989
328.125 0 984
-93.75 54.6875 984
-195.312 -140.625 1031
296.875 187.5 1794
101.562 7.8125 1025
-70.3125 23.4375 940
-382.812 218.75 964
-101.562 -78.125 1007
-140.625 -171.875 1169
-195.312 -125 1057
-226.562 -54.6875 1223
-195.312 -15.625 1084
109.375 250 1047
-242.188 -140.625 1073
-109.375 -62.5 1031
109.375 195.312 1019
39.0625 -23.4375 940
-445.312 -117.188 2984
429.688 296.875 1410
-54.6875 -54.6875 946
-31.25 406.25 1197
375 -171.875 948
