ply
format ascii 1.0
comment Created by Open3D
element vertex 2377
property double x
property double y
property double z
end_header
117.188 31.25 975
39.0625 296.875 1328
445.312 289.062 1439
210.938 398.438 1278
85.9375 304.688 1302
-148.438 398.438 1193
-23.4375 -93.75 1077
-140.625 382.812 1193
85.9375 312.5 1312
-148.438 382.812 1202
-132.812 367.188 1232
-460.938 -85.9375 2984
406.25 296.875 1445
187.5 -414.062 1181
-62.5 335.938 1278
476.562 -39.0625 1031
-132.812 406.25 1193
-78.125 -23.4375 1080
117.188 343.75 1236
62.5 312.5 1292
109.375 101.562 1004
195.312 242.188 1108
109.375 296.875 1307
351.562 312.5 1509
93.75 -156.25 964
15.625 -93.75 1047
421.875 0 998
140.625 312.5 1283
85.9375 328.125 1273
296.875 179.688 1785
-46.875 359.375 1232
-7.8125 -39.0625 1094
-132.812 -31.25 1105
-46.875 -109.375 1087
257.812 -226.562 1077
78.125 -187.5 967
265.625 359.375 1297
320.312 -234.375 1080
-15.625 382.812 1223
-375 304.688 1959
15.625 125 1001
-242.188 132.812 913
-148.438 375 1223
23.4375 343.75 1255
164.062 -289.062 1241
15.625 343.75 1255
398.438 210.938 1523
15.625 304.688 1292
-7.8125 328.125 1283
-23.4375 351.562 1250
46.875 335.938 1259
-23.4375 375 1210
-117.188 -210.938 1119
-117.188 328.125 1297
93.75 359.375 1236
78.125 -93.75 973
117.188 328.125 1245
187.5 -15.625 1028
-7.8125 -171.875 973
85.9375 -171.875 970
-296.875 140.625 903
234.375 78.125 1028
-500 -218.75 2078
242.188 398.438 1317
-85.9375 390.625 1206
-7.8125 85.9375 938
218.75 -171.875 1019
62.5 351.562 1232
23.4375 375 1219
54.6875 343.75 1227
-179.688 125 920
23.4375 304.688 1292
-281.25 421.875 1713
62.5 367.188 1232
-54.6875 -15.625 1063
359.375 -242.188 1090
101.562 351.562 1236
-85.9375 -93.75 1077
78.125 -234.375 1094
117.188 -164.062 970
-85.9375 367.188 1236
-203.125 164.062 973
-414.062 -70.3125 3120
-171.875 398.438 1189
281.25 -7.8125 1013
218.75 281.25 1189
304.688 179.688 1776
250 140.625 1067
-125 328.125 1264
-15.625 312.5 1297
-15.625 -234.375 1181
148.438 335.938 1241
62.5 -125 992
289.062 -7.8125 1013
39.0625 -109.375 1034
101.562 70.3125 948
117.188 296.875 1302
257.812 296.875 1278
164.062 -46.875 964
218.75 -125 1044
-39.0625 31.25 998
46.875 -70.3125 1001
156.25 218.75 1084
132.812 -7.8125 970
-70.3125 359.375 1232
445.312 -54.6875 1038
406.25 101.562 1873
-39.0625 -164.062 1025
23.4375 281.25 1090
445.312 -187.5 973
125 281.25 1302
-15.625 218.75 1001
156.25 -7.8125 967
265.625 -226.562 1077
-187.5 429.688 1119
39.0625 78.125 943
-132.812 312.5 1060
226.562 -312.5 1264
54.6875 359.375 1232
-203.125 125 915
70.3125 -125 992
195.312 85.9375 1022
85.9375 23.4375 987
125 -390.625 1232
-429.688 -70.3125 3037
265.625 195.312 1776
117.188 320.312 1268
421.875 -39.0625 1041
445.312 31.25 1087
-15.625 359.375 1227
179.688 304.688 1283
234.375 289.062 1189
54.6875 -7.8125 989
125 351.562 1241
375 296.875 1489
242.188 375 1302
23.4375 -156.25 954
54.6875 -156.25 987
164.062 93.75 1016
359.375 -31.25 1038
7.8125 -85.9375 1050
109.375 281.25 1333
117.188 304.688 1288
187.5 -93.75 987
23.4375 289.062 1090
62.5 31.25 981
351.562 109.375 1853
-39.0625 304.688 1317
-62.5 382.812 1210
-85.9375 343.75 1268
460.938 -46.875 1047
-46.875 296.875 1070
62.5 -164.062 954
-101.562 -70.3125 1097
109.375 -265.625 1292
226.562 -437.5 1185
-109.375 343.75 1268
148.438 7.8125 1001
31.25 78.125 943
429.688 -39.0625 1038
-179.688 382.812 1214
468.75 -62.5 1041
46.875 -218.75 1126
226.562 -320.312 1264
-140.625 359.375 1236
39.0625 312.5 1292
164.062 335.938 1245
390.625 -31.25 1034
-7.8125 -15.625 1060
273.438 -7.8125 1016
-101.562 390.625 1197
250 429.688 1359
-500 -187.5 2116
-70.3125 140.625 987
31.25 367.188 1223
234.375 46.875 973
359.375 15.625 989
-62.5 359.375 1236
15.625 367.188 1219
414.062 296.875 1439
-148.438 312.5 1057
15.625 296.875 1322
125 328.125 1250
-453.125 304.688 1947
-54.6875 320.312 1283
164.062 312.5 1273
109.375 -31.25 964
320.312 -15.625 1016
140.625 -125 998
140.625 343.75 1245
343.75 132.812 1863
78.125 -39.0625 962
101.562 265.625 1094
78.125 -320.312 1421
242.188 328.125 1219
-367.188 -125 1365
289.062 359.375 1433
93.75 296.875 1307
-70.3125 -109.375 1077
156.25 -398.438 1197
93.75 289.062 1312
-492.188 -226.562 2065
-453.125 -109.375 2933
-367.188 304.688 1959
-171.875 375 1219
320.312 179.688 1776
390.625 132.812 1863
164.062 250 1101
250 39.0625 975
15.625 320.312 1288
140.625 -421.875 1210
179.688 -398.438 1185
250 -281.25 1105
62.5 335.938 1268
-164.062 351.562 1250
-46.875 375 1210
273.438 187.5 1785
203.125 85.9375 1028
187.5 -62.5 975
78.125 328.125 1268
289.062 367.188 1445
-468.75 351.562 1853
179.688 -54.6875 970
62.5 -179.688 959
234.375 39.0625 973
70.3125 -218.75 1105
-39.0625 375 1210
85.9375 -218.75 1090
-23.4375 437.5 1398
-179.688 320.312 1047
234.375 281.25 1185
250 421.875 1359
281.25 187.5 1776
132.812 320.312 1278
-15.625 375 1223
54.6875 -164.062 954
148.438 0 1016
406.25 39.0625 1073
203.125 -312.5 1288
109.375 -218.75 1047
-46.875 351.562 1232
31.25 312.5 1292
-39.0625 -39.0625 1101
210.938 -421.875 1181
242.188 281.25 1185
31.25 -85.9375 1034
31.25 281.25 1084
85.9375 289.062 1312
-500 -351.562 2143
156.25 343.75 1245
-54.6875 343.75 1245
-187.5 125 920
-210.938 164.062 973
179.688 328.125 1255
-15.625 289.062 1073
312.5 179.688 1776
203.125 -31.25 1063
-7.8125 375 1223
-117.188 148.438 984
273.438 -398.438 1013
70.3125 195.312 1013
414.062 242.188 1458
125 -156.25 967
0 -31.25 1077
250 312.5 1278
-468.75 382.812 1785
328.125 -23.4375 1031
210.938 414.062 1292
85.9375 351.562 1232
-46.875 390.625 1210
0 375 1223
156.25 273.438 1317
117.188 -7.8125 970
117.188 7.8125 1001
-460.938 343.75 1873
304.688 148.438 1843
-31.25 312.5 1292
-257.812 171.875 967
156.25 -15.625 967
54.6875 273.438 1087
-7.8125 289.062 1077
140.625 62.5 954
-140.625 398.438 1193
-7.8125 -164.062 992
132.812 -250 1219
54.6875 -39.0625 970
-93.75 375 1210
-70.3125 320.312 1278
-484.375 -257.812 2618
320.312 -351.562 1038
-140.625 343.75 1259
-156.25 140.625 928
-15.625 210.938 1001
54.6875 296.875 1292
85.9375 304.688 1302
-23.4375 359.375 1219
62.5 78.125 946
39.0625 31.25 987
273.438 195.312 1776
359.375 -23.4375 1022
414.062 195.312 1579
296.875 -156.25 951
359.375 7.8125 989
-7.8125 367.188 1219
54.6875 320.312 1264
-195.312 140.625 920
382.812 46.875 1070
-78.125 -93.75 1073
46.875 367.188 1232
70.3125 359.375 1232
109.375 304.688 1307
85.9375 312.5 1312
242.188 320.312 1219
359.375 312.5 1496
93.75 281.25 1338
265.625 -7.8125 1016
234.375 101.562 1044
7.8125 320.312 1288
335.938 171.875 1785
-125 375 1227
-101.562 367.188 1223
351.562 15.625 987
-398.438 304.688 1970
132.812 343.75 1241
-156.25 289.062 1044
218.75 -273.438 1210
328.125 -15.625 1016
46.875 359.375 1232
-15.625 367.188 1219
-390.625 156.25 891
-242.188 156.25 915
85.9375 109.375 1004
367.188 78.125 1833
39.0625 320.312 1264
-93.75 351.562 1241
-132.812 -203.125 1090
39.0625 343.75 1232
-101.562 351.562 1236
234.375 156.25 1073
70.3125 289.062 1338
23.4375 304.688 1292
-15.625 -54.6875 1123
359.375 109.375 1853
-46.875 -31.25 1087
476.562 234.375 1470
398.438 328.125 1477
-351.562 304.688 1959
-140.625 312.5 1060
-156.25 351.562 1264
-148.438 359.375 1227
101.562 304.688 1307
210.938 351.562 1255
-179.688 351.562 1250
-7.8125 351.562 1255
62.5 273.438 1090
31.25 343.75 1250
179.688 -23.4375 981
-195.312 359.375 1073
-62.5 312.5 1307
-54.6875 -93.75 1070
93.75 -171.875 970
109.375 -93.75 956
-70.3125 343.75 1232
414.062 39.0625 1084
70.3125 328.125 1268
195.312 328.125 1259
-109.375 148.438 984
343.75 289.062 1529
-187.5 406.25 1105
-54.6875 -101.562 1070
304.688 156.25 1843
15.625 -85.9375 1047
93.75 406.25 1421
132.812 296.875 1312
23.4375 328.125 1255
117.188 273.438 1302
-7.8125 -226.562 1173
328.125 -234.375 1073
-15.625 335.938 1255
109.375 15.625 992
109.375 328.125 1273
-54.6875 367.188 1202
484.375 -195.312 978
62.5 -132.812 1001
-78.125 -109.375 1077
46.875 31.25 981
-273.438 421.875 1713
289.062 187.5 1776
-23.4375 328.125 1288
398.438 23.4375 998
140.625 -343.75 1255
54.6875 335.938 1264
15.625 328.125 1288
-31.25 304.688 1312
132.812 257.812 1115
-39.0625 382.812 1210
218.75 -414.062 1181
140.625 320.312 1283
265.625 0 1004
39.0625 -171.875 956
-257.812 156.25 913
-179.688 414.062 1115
406.25 421.875 1370
492.188 0 1019
-187.5 390.625 1094
-85.9375 359.375 1236
257.812 148.438 1080
54.6875 343.75 1227
320.312 171.875 1776
-132.812 406.25 1193
109.375 -140.625 956
39.0625 203.125 1007
-93.75 -46.875 1119
-31.25 406.25 1452
171.875 -312.5 1288
-7.8125 203.125 1004
289.062 -15.625 1022
304.688 164.062 1843
-140.625 382.812 1193
23.4375 351.562 1232
-265.625 421.875 1705
234.375 109.375 1047
101.562 328.125 1273
-78.125 -46.875 1101
398.438 -31.25 1031
-125 398.438 1193
132.812 -54.6875 956
-148.438 398.438 1193
-171.875 421.875 1119
-257.812 421.875 1105
-15.625 -171.875 984
117.188 -140.625 962
179.688 54.6875 962
210.938 421.875 1297
70.3125 78.125 946
171.875 281.25 1312
-164.062 -179.688 1458
-367.188 -281.25 2933
-140.625 335.938 1259
-343.75 148.438 894
-31.25 429.688 1410
-78.125 140.625 987
-335.938 -265.625 2958
429.688 328.125 1470
140.625 -101.562 959
468.75 242.188 1458
78.125 -62.5 970
296.875 -109.375 970
-289.062 140.625 903
125 273.438 1130
187.5 218.75 1097
-500 -179.688 2116
-15.625 312.5 1297
-460.938 -15.625 2333
0 -39.0625 1097
-93.75 304.688 1060
296.875 164.062 1833
-250 140.625 913
-460.938 -39.0625 3064
453.125 -187.5 973
164.062 335.938 1245
39.0625 -46.875 981
312.5 148.438 1873
140.625 -179.688 989
-187.5 421.875 1119
-187.5 335.938 1268
-234.375 132.812 913
-132.812 312.5 1060
-125 390.625 1193
-7.8125 320.312 1288
31.25 320.312 1255
187.5 -195.312 1077
484.375 -15.625 1010
54.6875 -54.6875 973
-484.375 -265.625 2659
250 281.25 1185
390.625 -179.688 962
296.875 187.5 1776
54.6875 101.562 946
257.812 445.312 1338
125 328.125 1250
328.125 23.4375 989
335.938 304.688 1536
7.8125 -31.25 1077
23.4375 -132.812 1013
46.875 -15.625 992
164.062 -226.562 1130
54.6875 78.125 943
46.875 304.688 1297
367.188 -367.188 1050
265.625 414.062 1333
226.562 -281.25 1232
125 343.75 1241
414.062 -375 1130
-54.6875 -31.25 1087
187.5 335.938 1255
109.375 -7.8125 970
265.625 -390.625 1019
-23.4375 132.812 995
195.312 320.312 1259
-164.062 406.25 1185
132.812 -226.562 1041
125 -195.312 989
289.062 179.688 1785
117.188 -93.75 956
-132.812 328.125 1292
-62.5 -23.4375 1077
234.375 31.25 970
7.8125 109.375 946
-492.188 -218.75 2078
54.6875 -101.562 989
101.562 265.625 1094
312.5 -164.062 951
-164.062 109.375 923
-132.812 335.938 1264
-171.875 351.562 1250
-328.125 304.688 1959
-109.375 390.625 1193
23.4375 367.188 1214
281.25 296.875 1292
-85.9375 -218.75 1149
132.812 -406.25 1214
-15.625 328.125 1288
93.75 312.5 1273
156.25 320.312 1241
85.9375 335.938 1236
-171.875 320.312 1047
-101.562 390.625 1197
-289.062 421.875 1713
0 296.875 1322
93.75 359.375 1236
476.562 -195.312 975
-195.312 375 1080
-101.562 343.75 1268
109.375 70.3125 951
70.3125 304.688 1292
281.25 187.5 1776
-335.938 140.625 896
-390.625 140.625 891
218.75 304.688 1202
390.625 -39.0625 1031
-15.625 359.375 1227
304.688 -367.188 1022
46.875 93.75 946
31.25 -39.0625 992
23.4375 296.875 1328
-117.188 398.438 1193
-39.0625 335.938 1245
-148.438 375 1223
367.188 54.6875 1060
484.375 -54.6875 1060
-78.125 359.375 1241
101.562 343.75 1236
304.688 250 1655
304.688 -421.875 1022
289.062 23.4375 981
70.3125 70.3125 946
210.938 429.688 1307
-54.6875 343.75 1245
54.6875 203.125 1013
476.562 257.812 1464
93.75 289.062 1312
-31.25 335.938 1255
-117.188 -164.062 1101
-85.9375 398.438 1206
210.938 218.75 1108
46.875 335.938 1259
-85.9375 -93.75 1077
-140.625 351.562 1259
23.4375 320.312 1255
-7.8125 382.812 1223
-460.938 -164.062 2859
109.375 62.5 948
-15.625 351.562 1250
15.625 429.688 1404
406.25 304.688 1464
62.5 296.875 1292
54.6875 117.188 1004
-226.562 125 913
-140.625 359.375 1236
-460.938 -7.8125 2365
125 281.25 1302
296.875 -15.625 1019
117.188 -234.375 1060
-445.312 -101.562 2958
-187.5 343.75 1250
226.562 -414.062 1181
-414.062 -70.3125 3120
-320.312 304.688 1959
164.062 -203.125 1141
70.3125 335.938 1236
367.188 -359.375 1054
54.6875 289.062 1292
328.125 164.062 1776
-468.75 -195.312 2859
-109.375 281.25 1054
234.375 382.812 1259
195.312 281.25 1273
375 -171.875 962
78.125 39.0625 967
312.5 156.25 1843
-492.188 -210.938 2090
-78.125 390.625 1210
187.5 54.6875 962
-468.75 -179.688 2835
-93.75 351.562 1241
226.562 390.625 1268
-132.812 382.812 1193
0 343.75 1255
304.688 -156.25 951
406.25 -335.938 1141
-335.938 148.438 896
78.125 281.25 1087
335.938 132.812 1863
-70.3125 406.25 1445
250 320.312 1219
31.25 429.688 1398
187.5 -289.062 1268
-46.875 -101.562 1073
-125 312.5 1060
304.688 23.4375 981
-171.875 296.875 1047
-93.75 109.375 928
125 15.625 989
-54.6875 335.938 1278
132.812 320.312 1278
-250 132.812 910
312.5 -406.25 1019
-70.3125 93.75 930
203.125 -39.0625 1070
-109.375 132.812 933
414.062 -46.875 1028
-54.6875 359.375 1236
484.375 -203.125 981
195.312 242.188 1108
289.062 171.875 1785
-132.812 343.75 1255
-54.6875 101.562 933
-101.562 -85.9375 1097
148.438 289.062 1307
335.938 54.6875 1070
-85.9375 304.688 1060
-46.875 320.312 1278
-140.625 101.562 923
23.4375 -179.688 956
156.25 312.5 1273
250 -226.562 1077
78.125 312.5 1307
203.125 242.188 1115
132.812 54.6875 954
125 -101.562 959
70.3125 -117.188 981
-117.188 -210.938 1119
-125 406.25 1193
-328.125 156.25 901
-85.9375 367.188 1236
218.75 312.5 1206
398.438 -23.4375 1022
-468.75 -203.125 2859
-140.625 398.438 1193
367.188 -23.4375 1022
-265.625 132.812 903
-54.6875 351.562 1236
-85.9375 382.812 1206
195.312 398.438 1333
156.25 335.938 1245
156.25 -179.688 992
304.688 -226.562 1063
140.625 343.75 1245
335.938 140.625 1863
156.25 296.875 1278
-179.688 343.75 1245
179.688 304.688 1283
0 375 1223
-15.625 335.938 1255
46.875 312.5 1302
164.062 312.5 1273
-54.6875 367.188 1202
-85.9375 -62.5 1101
-210.938 148.438 920
-101.562 109.375 925
132.812 -398.438 1219
132.812 335.938 1245
-39.0625 296.875 1077
23.4375 304.688 1292
132.812 351.562 1241
257.812 390.625 1317
-7.8125 312.5 1292
359.375 46.875 1054
210.938 46.875 967
-117.188 320.312 1292
-226.562 171.875 970
-468.75 -31.25 2301
-171.875 382.812 1214
70.3125 273.438 1087
31.25 359.375 1227
257.812 312.5 1278
-39.0625 218.75 1001
-31.25 85.9375 935
101.562 -93.75 959
-179.688 390.625 1193
-93.75 367.188 1227
367.188 -242.188 1084
351.562 -23.4375 1022
62.5 320.312 1268
-46.875 390.625 1210
453.125 -7.8125 1004
-125 375 1227
-234.375 171.875 970
343.75 -414.062 1028
265.625 -156.25 948
23.4375 -156.25 954
171.875 -23.4375 981
281.25 179.688 1785
359.375 -351.562 1050
-421.875 -312.5 2835
93.75 -23.4375 964
289.062 31.25 981
179.688 -195.312 1105
31.25 375 1219
-54.6875 312.5 1297
-156.25 343.75 1264
179.688 -54.6875 970
164.062 -54.6875 964
-15.625 304.688 1322
0 289.062 1077
-31.25 132.812 989
93.75 -289.062 1338
351.562 -171.875 959
382.812 -171.875 962
85.9375 -54.6875 967
-93.75 390.625 1206
-109.375 375 1232
23.4375 375 1219
-296.875 -156.25 1427
70.3125 312.5 1288
367.188 -156.25 962
335.938 -15.625 1016
406.25 210.938 1557
-93.75 78.125 940
93.75 351.562 1236
-500 -31.25 2317
351.562 -343.75 1050
320.312 -421.875 1034
328.125 -343.75 1044
-70.3125 -101.562 1073
-140.625 140.625 978
156.25 289.062 1307
343.75 125 1863
140.625 -7.8125 970
359.375 85.9375 1833
351.562 -164.062 959
62.5 343.75 1232
226.562 -164.062 998
125 304.688 1283
7.8125 351.562 1219
156.25 343.75 1245
250 203.125 1108
125 -156.25 967
101.562 289.062 1312
328.125 -250 1094
234.375 289.062 1189
7.8125 210.938 1001
70.3125 359.375 1232
320.312 -406.25 1019
-93.75 375 1210
-281.25 -421.875 2789
-492.188 -304.688 2040
46.875 -109.375 995
304.688 -164.062 951
117.188 -218.75 1044
-54.6875 382.812 1210
421.875 343.75 1452
-273.438 125 903
257.812 0 1004
-39.0625 328.125 1278
101.562 296.875 1307
85.9375 -320.312 1421
281.25 -406.25 1016
359.375 -31.25 1038
117.188 320.312 1268
78.125 31.25 978
93.75 335.938 1245
-85.9375 328.125 1273
-54.6875 -164.062 1034
-85.9375 140.625 987
-78.125 320.312 1302
-109.375 -210.938 1126
-281.25 398.438 1748
-46.875 320.312 1278
54.6875 320.312 1264
-78.125 367.188 1210
226.562 234.375 1153
-250 171.875 967
289.062 -7.8125 1013
-7.8125 335.938 1259
0 351.562 1255
-179.688 406.25 1181
39.0625 367.188 1223
171.875 250 1108
-304.688 304.688 1019
125 328.125 1250
250 382.812 1307
-39.0625 -234.375 1177
46.875 296.875 1292
265.625 -148.438 948
148.438 -234.375 1177
70.3125 -31.25 964
429.688 195.312 1572
39.0625 320.312 1264
125 320.312 1268
-156.25 156.25 978
62.5 -132.812 1001
242.188 -296.875 1094
62.5 367.188 1232
-117.188 398.438 1193
265.625 164.062 1084
70.3125 351.562 1232
-312.5 304.688 1959
195.312 -289.062 1268
234.375 62.5 975
-164.062 406.25 1185
70.3125 -281.25 1439
7.8125 -179.688 959
-132.812 359.375 1232
140.625 335.938 1245
195.312 46.875 964
-70.3125 -164.062 1047
-148.438 156.25 978
70.3125 -171.875 956
289.062 179.688 1785
70.3125 -164.062 959
492.188 -15.625 1010
351.562 265.625 1496
93.75 312.5 1273
296.875 234.375 1680
101.562 312.5 1273
132.812 101.562 1013
-70.3125 -39.0625 1097
-164.062 382.812 1214
93.75 328.125 1273
273.438 -156.25 948
164.062 343.75 1245
-187.5 367.188 1227
62.5 359.375 1232
210.938 -179.688 1028
-62.5 382.812 1210
-500 -359.375 2198
171.875 -15.625 981
-132.812 398.438 1193
234.375 398.438 1273
367.188 85.9375 1833
195.312 304.688 1283
-257.812 218.75 987
85.9375 328.125 1273
351.562 164.062 1804
31.25 281.25 1084
421.875 164.062 1785
31.25 85.9375 946
296.875 -7.8125 1013
109.375 -156.25 962
-85.9375 210.938 1019
-93.75 343.75 1273
62.5 -148.438 975
15.625 -156.25 992
179.688 -289.062 1268
343.75 171.875 1794
-492.188 -320.312 2078
468.75 171.875 1688
-101.562 -171.875 1080
46.875 273.438 1087
335.938 -242.188 1094
250 -398.438 1041
62.5 -210.938 1115
-15.625 -164.062 998
125 -375 1236
453.125 -46.875 1047
-140.625 375 1227
109.375 351.562 1236
62.5 296.875 1292
-437.5 -70.3125 2984
492.188 -195.312 978
-140.625 -195.312 1090
-109.375 367.188 1227
468.75 -195.312 975
453.125 -54.6875 1041
-46.875 343.75 1241
351.562 -335.938 1057
-46.875 367.188 1210
140.625 257.812 1105
132.812 351.562 1241
-125 312.5 1060
-453.125 -125 2933
218.75 62.5 967
117.188 101.562 1007
476.562 -54.6875 1060
343.75 132.812 1863
93.75 109.375 1007
140.625 85.9375 959
-39.0625 359.375 1232
31.25 304.688 1307
-421.875 164.062 891
-164.062 398.438 1185
-7.8125 312.5 1292
234.375 312.5 1202
109.375 -164.062 967
132.812 7.8125 1004
234.375 171.875 1080
-23.4375 375 1210
-437.5 -54.6875 3064
351.562 382.812 1404
437.5 15.625 1007
-171.875 289.062 1044
179.688 -281.25 1245
203.125 -187.5 1047
39.0625 343.75 1232
-476.562 -234.375 2767
-164.062 320.312 1054
398.438 234.375 1477
-78.125 304.688 1057
23.4375 -93.75 1041
-187.5 382.812 1094
312.5 -421.875 1022
-375 148.438 891
-132.812 382.812 1193
171.875 -39.0625 970
-203.125 335.938 1057
-179.688 398.438 1185
-156.25 359.375 1223
148.438 62.5 956
273.438 195.312 1776
93.75 289.062 1312
171.875 335.938 1250
-492.188 -312.5 2065
242.188 414.062 1328
265.625 -406.25 1025
273.438 359.375 1297
-460.938 -148.438 2883
-171.875 320.312 1047
93.75 -156.25 964
398.438 179.688 1579
234.375 93.75 1038
171.875 -437.5 1185
39.0625 281.25 1084
-39.0625 296.875 1077
140.625 -382.812 1219
-304.688 -335.938 2883
-445.312 -335.938 2744
-312.5 -406.25 2789
359.375 -171.875 959
93.75 23.4375 984
-7.8125 382.812 1223
-117.188 390.625 1197
-70.3125 -70.3125 1073
-171.875 343.75 1245
-78.125 -164.062 1063
-93.75 351.562 1241
-460.938 -429.688 2618
117.188 -210.938 1025
281.25 -164.062 951
-195.312 -476.562 2812
85.9375 -148.438 962
312.5 -382.812 1022
234.375 296.875 1197
273.438 -15.625 1016
-78.125 -23.4375 1080
328.125 -23.4375 1031
-484.375 -273.438 2701
54.6875 359.375 1232
-54.6875 343.75 1245
492.188 15.625 1087
-195.312 312.5 1050
-31.25 382.812 1214
-15.625 132.812 998
140.625 296.875 1312
351.562 125 1873
15.625 367.188 1219
304.688 210.938 1731
85.9375 359.375 1232
-85.9375 375 1210
-54.6875 -226.562 1169
445.312 -46.875 1050
62.5 320.312 1268
476.562 210.938 1509
250 -148.438 954
125 -148.438 962
-70.3125 390.625 1210
-445.312 -85.9375 2958
-39.0625 390.625 1470
156.25 335.938 1245
109.375 265.625 1094
-281.25 140.625 903
-7.8125 335.938 1259
296.875 171.875 1785
70.3125 273.438 1087
0 328.125 1283
70.3125 335.938 1236
179.688 -39.0625 981
148.438 23.4375 981
-140.625 328.125 1288
-117.188 406.25 1452
23.4375 -39.0625 992
-39.0625 351.562 1232
203.125 -289.062 1264
78.125 359.375 1232
343.75 -281.25 1080
203.125 -70.3125 992
-453.125 -132.812 2958
132.812 -320.312 1398
62.5 289.062 1292
23.4375 351.562 1232
156.25 312.5 1273
-7.8125 359.375 1223
23.4375 343.75 1255
31.25 -85.9375 1034
304.688 -7.8125 1010
-468.75 390.625 1776
273.438 -7.8125 1016
93.75 304.688 1302
62.5 117.188 1004
164.062 -117.188 978
-23.4375 351.562 1250
-46.875 312.5 1297
-54.6875 359.375 1236
304.688 -15.625 1019
140.625 343.75 1245
406.25 -31.25 1031
148.438 296.875 1288
62.5 312.5 1292
62.5 359.375 1232
187.5 15.625 987
-453.125 320.312 1915
-484.375 -281.25 2767
453.125 281.25 1458
437.5 -39.0625 1038
296.875 148.438 1843
414.062 304.688 1464
328.125 140.625 1863
93.75 -320.312 1415
-234.375 156.25 964
-7.8125 375 1223
125 343.75 1241
-250 0 1070
7.8125 375 1223
367.188 -343.75 1057
250 281.25 1185
101.562 -164.062 967
421.875 -359.375 1134
320.312 265.625 1564
62.5 335.938 1268
-351.562 304.688 1959
62.5 -179.688 959
15.625 304.688 1292
-23.4375 359.375 1219
265.625 375 1307
164.062 250 1101
62.5 -39.0625 967
140.625 101.562 1013
117.188 15.625 989
-179.688 367.188 1227
203.125 -15.625 1031
289.062 -406.25 1013
-101.562 132.812 933
23.4375 -85.9375 1041
140.625 320.312 1283
39.0625 289.062 1322
-492.188 -15.625 2333
-179.688 382.812 1214
187.5 312.5 1259
132.812 -62.5 956
46.875 78.125 943
226.562 406.25 1283
234.375 -273.438 1206
156.25 -109.375 970
-54.6875 382.812 1210
-156.25 406.25 1185
242.188 390.625 1312
85.9375 304.688 1302
0 289.062 1077
-125 406.25 1193
-320.312 304.688 1959
320.312 -15.625 1016
234.375 437.5 1317
31.25 328.125 1255
218.75 -70.3125 1004
210.938 -23.4375 1044
-93.75 367.188 1227
39.0625 -101.562 1004
62.5 -156.25 975
-78.125 398.438 1210
406.25 328.125 1470
234.375 164.062 1077
78.125 -140.625 964
-117.188 375 1202
328.125 148.438 1863
54.6875 -7.8125 989
250 367.188 1297
101.562 281.25 1328
-85.9375 203.125 1013
0 -7.8125 1044
93.75 351.562 1236
132.812 281.25 1312
390.625 -273.438 1094
359.375 93.75 1833
-453.125 328.125 1904
-85.9375 328.125 1273
-117.188 312.5 1063
-7.8125 351.562 1255
109.375 328.125 1273
46.875 -171.875 956
-101.562 328.125 1268
-132.812 351.562 1255
-125 382.812 1202
367.188 -328.125 1063
421.875 304.688 1477
421.875 -46.875 1034
-46.875 382.812 1210
15.625 328.125 1288
-132.812 398.438 1193
-31.25 -234.375 1181
-7.8125 328.125 1283
312.5 -226.562 1063
101.562 289.062 1312
101.562 109.375 1007
-203.125 343.75 1067
-78.125 343.75 1241
-62.5 140.625 989
218.75 328.125 1223
-85.9375 -62.5 1101
23.4375 125 1001
-54.6875 140.625 989
132.812 257.812 1115
85.9375 265.625 1094
7.8125 -226.562 1161
-132.812 375 1232
359.375 164.062 1804
-250 234.375 995
257.812 382.812 1312
367.188 437.5 1359
78.125 -156.25 967
78.125 -273.438 1421
-453.125 312.5 1936
164.062 23.4375 978
-54.6875 -15.625 1063
367.188 -31.25 1038
195.312 -62.5 981
359.375 -23.4375 1022
101.562 320.312 1273
-148.438 351.562 1259
234.375 390.625 1268
125 23.4375 981
-234.375 289.062 1025
93.75 328.125 1273
-164.062 320.312 1054
15.625 125 1001
-171.875 390.625 1193
445.312 250 1452
132.812 304.688 1278
62.5 343.75 1232
-500 -15.625 2333
31.25 351.562 1232
390.625 -31.25 1034
31.25 304.688 1307
-101.562 367.188 1223
492.188 -54.6875 1047
-15.625 -31.25 1084
70.3125 -148.438 967
289.062 367.188 1445
15.625 320.312 1288
218.75 335.938 1227
39.0625 359.375 1232
39.0625 281.25 1084
-46.875 320.312 1278
46.875 367.188 1232
54.6875 -117.188 992
210.938 85.9375 1028
-335.938 304.688 1959
70.3125 39.0625 967
375 -351.562 1057
-85.9375 320.312 1302
117.188 328.125 1245
437.5 -187.5 973
78.125 -281.25 1415
-195.312 390.625 1094
281.25 -148.438 948
85.9375 23.4375 987
-250 -101.562 1268
242.188 -398.438 1047
7.8125 -156.25 992
125 -218.75 1047
-492.188 15.625 2398
132.812 15.625 989
171.875 335.938 1250
-31.25 335.938 1255
-320.312 148.438 898
148.438 -62.5 959
-23.4375 -31.25 1087
125 320.312 1268
15.625 437.5 1392
335.938 -23.4375 1028
-85.9375 367.188 1236
289.062 -257.812 1070
109.375 304.688 1307
-31.25 382.812 1214
-78.125 304.688 1057
367.188 -39.0625 1028
109.375 343.75 1236
-179.688 343.75 1245
468.75 273.438 1464
70.3125 343.75 1236
406.25 210.938 1557
132.812 343.75 1241
-85.9375 390.625 1206
187.5 328.125 1255
-437.5 -78.125 2958
343.75 -15.625 1013
62.5 312.5 1292
31.25 367.188 1223
296.875 164.062 1833
-484.375 -257.812 2618
476.562 23.4375 1080
125 -171.875 978
375 -273.438 1097
210.938 335.938 1232
257.812 421.875 1365
250 -406.25 1041
-78.125 -93.75 1073
312.5 -312.5 1054
-171.875 125 923
101.562 23.4375 987
-492.188 -234.375 2078
-226.562 132.812 913
335.938 -382.812 1028
335.938 -234.375 1073
-70.3125 39.0625 987
101.562 -273.438 1317
320.312 23.4375 987
-171.875 117.188 923
-179.688 359.375 1245
414.062 242.188 1458
-85.9375 351.562 1241
-85.9375 398.438 1206
195.312 -46.875 995
-78.125 281.25 1060
-46.875 335.938 1278
-500 -171.875 2116
171.875 250 1108
-7.8125 218.75 1001
414.062 203.125 1572
312.5 -156.25 951
195.312 15.625 989
31.25 320.312 1255
343.75 -250 1097
-46.875 343.75 1241
140.625 351.562 1245
367.188 -242.188 1084
265.625 0 1004
156.25 54.6875 956
437.5 328.125 1470
164.062 343.75 1245
109.375 351.562 1236
-500 -343.75 2090
-429.688 -39.0625 3092
367.188 15.625 992
-117.188 367.188 1227
421.875 39.0625 1063
15.625 343.75 1255
101.562 351.562 1236
31.25 -39.0625 992
70.3125 320.312 1268
218.75 320.312 1214
0 382.812 1223
343.75 328.125 1489
-46.875 359.375 1232
242.188 -320.312 1084
117.188 304.688 1288
-375 156.25 894
187.5 46.875 962
70.3125 -15.625 967
-453.125 304.688 1947
320.312 -328.125 1047
367.188 -265.625 1097
304.688 -375 1019
328.125 -15.625 1016
7.8125 375 1223
304.688 -156.25 951
421.875 171.875 1564
-31.25 328.125 1288
31.25 296.875 1328
7.8125 328.125 1288
101.562 335.938 1241
164.062 296.875 1278
-101.562 -78.125 1097
46.875 -156.25 956
429.688 -39.0625 1038
-39.0625 296.875 1077
78.125 359.375 1232
46.875 -46.875 975
484.375 242.188 1464
367.188 93.75 1853
250 414.062 1333
-31.25 359.375 1214
-15.625 328.125 1288
289.062 171.875 1785
-367.188 148.438 894
-109.375 398.438 1193
187.5 398.438 1333
234.375 203.125 1105
0 359.375 1219
195.312 335.938 1255
132.812 296.875 1312
203.125 328.125 1245
-242.188 171.875 967
335.938 -320.312 1057
62.5 320.312 1268
460.938 -187.5 975
78.125 78.125 948
-15.625 -85.9375 1070
234.375 320.312 1214
-85.9375 375 1210
-117.188 351.562 1255
453.125 250 1445
-39.0625 367.188 1210
421.875 -179.688 967
203.125 242.188 1115
156.25 335.938 1245
257.812 203.125 1108
7.8125 -39.0625 1094
-117.188 109.375 925
-39.0625 320.312 1283
289.062 250 1663
320.312 148.438 1873
164.062 335.938 1245
-7.8125 -85.9375 1063
-93.75 390.625 1206
-78.125 -218.75 1157
78.125 312.5 1307
46.875 -140.625 1004
54.6875 414.062 1421
-78.125 328.125 1278
-7.8125 375 1223
210.938 437.5 1312
414.062 -39.0625 1044
164.062 312.5 1273
-492.188 -328.125 2065
39.0625 343.75 1232
234.375 125 1054
132.812 -109.375 964
242.188 437.5 1359
78.125 351.562 1232
-39.0625 390.625 1470
-109.375 -62.5 1157
39.0625 320.312 1264
-250 250 1001
148.438 -460.938 1219
320.312 -164.062 954
-70.3125 367.188 1202
-62.5 234.375 1034
70.3125 367.188 1232
320.312 -390.625 1019
234.375 179.688 1087
234.375 312.5 1202
54.6875 296.875 1292
-468.75 -210.938 2835
468.75 242.188 1458
-164.062 328.125 1288
-7.8125 312.5 1292
195.312 -54.6875 975
164.062 437.5 1370
-460.938 -171.875 2883
101.562 304.688 1307
85.9375 -171.875 970
-85.9375 343.75 1268
226.562 437.5 1317
0 218.75 1001
304.688 179.688 1776
250 171.875 1080
-195.312 164.062 973
15.625 -164.062 959
-171.875 406.25 1185
445.312 -39.0625 1038
-39.0625 343.75 1245
7.8125 351.562 1219
273.438 -148.438 948
70.3125 289.062 1338
234.375 132.812 1060
101.562 289.062 1312
-125 437.5 1410
421.875 -39.0625 1041
-7.8125 93.75 938
85.9375 -156.25 967
156.25 -125 984
78.125 -164.062 973
31.25 328.125 1255
164.062 -312.5 1278
85.9375 312.5 1312
265.625 296.875 1278
-304.688 304.688 1019
93.75 -39.0625 964
125 -46.875 959
132.812 304.688 1278
-125 343.75 1259
0 304.688 1312
-156.25 382.812 1202
-164.062 414.062 1165
62.5 0 984
70.3125 0 973
-78.125 335.938 1268
-70.3125 343.75 1232
257.812 429.688 1359
234.375 140.625 1067
-257.812 140.625 913
-484.375 -281.25 2767
203.125 0 1007
-476.562 -242.188 2680
-117.188 328.125 1297
273.438 195.312 1776
468.75 -54.6875 1060
140.625 257.812 1105
-7.8125 335.938 1259
70.3125 -218.75 1105
78.125 -148.438 964
398.438 -273.438 1165
85.9375 109.375 1004
-125 398.438 1193
257.812 375 1302
-7.8125 132.812 998
-359.375 406.25 1748
0 335.938 1255
70.3125 -179.688 959
-500 -359.375 2198
257.812 0 1004
-500 -203.125 2090
187.5 -39.0625 989
-46.875 367.188 1210
31.25 210.938 1007
304.688 -226.562 1063
312.5 187.5 1766
328.125 367.188 1433
375 195.312 1557
171.875 414.062 1398
62.5 359.375 1232
78.125 31.25 978
101.562 312.5 1273
132.812 328.125 1250
109.375 265.625 1094
210.938 -289.062 1264
117.188 335.938 1241
109.375 -210.938 1016
109.375 296.875 1307
132.812 320.312 1278
375 179.688 1609
148.438 -125 981
-187.5 359.375 1245
-171.875 367.188 1227
109.375 -93.75 956
312.5 -164.062 951
-70.3125 390.625 1210
-242.188 257.812 1007
23.4375 -15.625 1050
93.75 -281.25 1338
109.375 -132.812 956
62.5 328.125 1264
164.062 289.062 1307
-7.8125 328.125 1283
-484.375 -289.062 2789
93.75 -46.875 967
7.8125 289.062 1080
39.0625 -156.25 956
140.625 -93.75 956
-109.375 320.312 1288
-117.188 -203.125 1084
351.562 117.188 1863
46.875 31.25 981
101.562 -31.25 967
140.625 273.438 1307
164.062 367.188 1464
359.375 109.375 1853
93.75 242.188 1080
-46.875 101.562 933
101.562 406.25 1421
296.875 -343.75 1034
257.812 312.5 1278
-54.6875 93.75 933
-117.188 406.25 1452
-460.938 359.375 1833
-304.688 140.625 901
-15.625 375 1223
195.312 85.9375 1022
46.875 -367.188 3120
109.375 320.312 1273
429.688 195.312 1572
-445.312 -23.4375 3064
382.812 -179.688 962
203.125 -62.5 984
-125 335.938 1264
-171.875 375 1219
296.875 -7.8125 1013
-117.188 312.5 1063
140.625 320.312 1283
109.375 359.375 1236
210.938 -382.812 1189
-31.25 -7.8125 1050
85.9375 281.25 1338
0 320.312 1292
-171.875 335.938 1245
398.438 -179.688 962
132.812 -250 1219
-101.562 343.75 1268
-125 375 1227
-156.25 398.438 1185
117.188 429.688 1387
171.875 312.5 1278
-500 -179.688 2116
7.8125 343.75 1255
85.9375 351.562 1232
414.062 -335.938 1138
289.062 -7.8125 1013
250 -148.438 954
-85.9375 351.562 1241
31.25 304.688 1307
210.938 -31.25 1057
132.812 351.562 1241
351.562 -234.375 1073
-179.688 125 920
70.3125 359.375 1232
-218.75 132.812 915
484.375 195.312 1489
265.625 -406.25 1025
156.25 -453.125 1202
265.625 445.312 1338
-70.3125 382.812 1210
398.438 -171.875 962
54.6875 320.312 1264
39.0625 85.9375 946
0 312.5 1292
234.375 195.312 1097
-23.4375 421.875 1427
-125 312.5 1060
-109.375 375 1232
304.688 -15.625 1019
31.25 343.75 1250
226.562 398.438 1273
226.562 46.875 970
-54.6875 359.375 1236
367.188 -390.625 1038
257.812 31.25 975
-140.625 351.562 1259
-375 140.625 891
-62.5 -15.625 1063
-70.3125 304.688 1057
-101.562 421.875 1427
132.812 296.875 1312
250 -367.188 1054
78.125 -234.375 1094
85.9375 31.25 978
218.75 -125 1044
-93.75 343.75 1273
140.625 -101.562 959
179.688 250 1108
-257.812 203.125 975
70.3125 343.75 1236
117.188 296.875 1302
125 70.3125 954
359.375 101.562 1853
140.625 375 1477
70.3125 179.688 1028
-234.375 296.875 1031
-31.25 -164.062 1010
320.312 156.25 1873
-171.875 359.375 1255
-31.25 -31.25 1090
85.9375 15.625 978
7.8125 367.188 1223
-171.875 382.812 1214
273.438 -7.8125 1016
-23.4375 -164.062 1004
359.375 -242.188 1090
-7.8125 359.375 1223
273.438 195.312 1776
359.375 -367.188 1044
125 351.562 1241
-117.188 335.938 1264
-46.875 296.875 1070
156.25 343.75 1245
31.25 320.312 1255
148.438 -429.688 1202
359.375 -171.875 959
-85.9375 -54.6875 1105
132.812 281.25 1312
179.688 -304.688 1307
148.438 445.312 1354
-148.438 -85.9375 1214
335.938 140.625 1863
62.5 39.0625 967
93.75 -132.812 959
-148.438 406.25 1185
-101.562 320.312 1288
437.5 250 1439
335.938 23.4375 987
296.875 -398.438 1010
23.4375 375 1219
-39.0625 93.75 935
398.438 7.8125 995
-156.25 320.312 1288
-179.688 335.938 1273
70.3125 187.5 1016
257.812 398.438 1322
-132.812 375 1232
-101.562 351.562 1236
-453.125 328.125 1904
312.5 179.688 1776
-93.75 -85.9375 1087
-468.75 390.625 1776
-179.688 406.25 1181
265.625 421.875 1365
359.375 117.188 1883
109.375 -179.688 981
-242.188 273.438 1013
414.062 -31.25 1031
375 -250 1105
328.125 -406.25 1019
125 -414.062 1223
-265.625 140.625 908
-15.625 351.562 1250
140.625 351.562 1245
-312.5 406.25 1748
-54.6875 320.312 1283
148.438 335.938 1241
-281.25 421.875 1713
46.875 289.062 1333
-15.625 312.5 1297
85.9375 -304.688 1370
7.8125 320.312 1288
-70.3125 312.5 1307
31.25 367.188 1223
265.625 39.0625 975
242.188 31.25 973
453.125 31.25 1087
54.6875 187.5 1038
101.562 421.875 1404
335.938 164.062 1785
250 -234.375 1090
218.75 -289.062 1264
39.0625 312.5 1292
-296.875 312.5 1028
242.188 78.125 1031
-500 -367.188 2598
85.9375 429.688 1392
171.875 234.375 1101
179.688 -312.5 1297
54.6875 -132.812 1001
7.8125 -23.4375 1067
-195.312 382.812 1094
54.6875 7.8125 992
-140.625 375 1227
109.375 273.438 1094
-132.812 117.188 923
62.5 312.5 1292
210.938 242.188 1115
15.625 -85.9375 1047
-125 351.562 1264
343.75 -164.062 959
296.875 296.875 1557
171.875 343.75 1250
320.312 -414.062 1025
-476.562 -218.75 2744
-500 -273.438 2040
-132.812 273.438 1044
-484.375 -234.375 2415
-125 -203.125 1084
218.75 265.625 1177
234.375 78.125 1028
242.188 -148.438 962
-492.188 -226.562 2065
234.375 -93.75 1013
257.812 203.125 1108
445.312 15.625 1007
171.875 78.125 964
-54.6875 296.875 1063
210.938 70.3125 967
39.0625 78.125 943
-39.0625 367.188 1210
-78.125 375 1210
15.625 78.125 940
-85.9375 390.625 1206
31.25 351.562 1232
-187.5 406.25 1105
148.438 343.75 1245
46.875 296.875 1292
-500 -351.562 2143
-468.75 -289.062 2812
273.438 257.812 1655
0 289.062 1077
-484.375 -250 2560
132.812 343.75 1241
-101.562 -78.125 1097
-164.062 320.312 1054
320.312 390.625 1404
335.938 -257.812 1087
54.6875 -31.25 973
-31.25 296.875 1077
484.375 -62.5 1044
-234.375 -164.062 1433
164.062 -15.625 967
148.438 -453.125 1210
203.125 -70.3125 992
-187.5 125 920
-132.812 140.625 928
125 257.812 1094
328.125 -328.125 1054
281.25 -343.75 1031
242.188 -414.062 1047
445.312 31.25 1087
460.938 375 1398
148.438 257.812 1105
-39.0625 320.312 1283
-335.938 -414.062 2789
343.75 312.5 1516
296.875 187.5 1776
0 335.938 1255
375 -23.4375 1022
70.3125 320.312 1268
85.9375 359.375 1232
101.562 335.938 1241
101.562 328.125 1273
257.812 78.125 1031
468.75 -46.875 1044
187.5 -23.4375 1041
304.688 62.5 1063
-109.375 -210.938 1126
429.688 -46.875 1038
179.688 335.938 1255
437.5 195.312 1564
140.625 359.375 1496
117.188 70.3125 951
-210.938 132.812 918
125 281.25 1302
101.562 312.5 1273
7.8125 328.125 1288
-492.188 -195.312 2103
132.812 -429.688 1219
70.3125 296.875 1302
-132.812 367.188 1232
-171.875 343.75 1245
-70.3125 367.188 1202
-460.938 367.188 1823
460.938 -46.875 1047
0 328.125 1283
304.688 179.688 1776
-54.6875 335.938 1278
46.875 -31.25 978
39.0625 304.688 1302
-93.75 328.125 1268
132.812 320.312 1278
351.562 171.875 1785
140.625 -7.8125 970
101.562 359.375 1236
0 359.375 1219
39.0625 281.25 1084
78.125 250 1084
398.438 -117.188 987
132.812 273.438 1130
70.3125 -62.5 970
101.562 351.562 1236
-453.125 335.938 1883
242.188 0 1004
-132.812 156.25 984
320.312 -398.438 1019
171.875 54.6875 959
-437.5 -62.5 3010
-78.125 328.125 1278
70.3125 335.938 1236
101.562 -164.062 967
-23.4375 304.688 1312
164.062 312.5 1273
-46.875 359.375 1232
78.125 -242.188 1094
-140.625 398.438 1193
-39.0625 -31.25 1087
-93.75 367.188 1227
-445.312 304.688 1959
117.188 -171.875 978
-195.312 148.438 920
-125 359.375 1232
156.25 -406.25 1197
-179.688 148.438 967
296.875 -289.062 1060
273.438 195.312 1776
203.125 -62.5 984
250 -375 1050
164.062 296.875 1278
234.375 164.062 1077
-164.062 335.938 1255
39.0625 375 1489
-468.75 -203.125 2859
-109.375 398.438 1193
23.4375 343.75 1255
-328.125 304.688 1959
406.25 -328.125 1141
70.3125 312.5 1288
187.5 -85.9375 984
140.625 335.938 1245
367.188 54.6875 1060
85.9375 -242.188 1090
375 31.25 992
164.062 -304.688 1317
367.188 -31.25 1038
429.688 39.0625 1073
-492.188 -265.625 2053
-171.875 296.875 1047
23.4375 304.688 1292
445.312 250 1452
0 382.812 1223
-78.125 93.75 930
390.625 296.875 1458
-78.125 351.562 1241
234.375 304.688 1197
156.25 62.5 956
414.062 0 998
0 312.5 1292
117.188 304.688 1288
-125 398.438 1193
23.4375 -23.4375 998
-109.375 406.25 1452
257.812 164.062 1084
234.375 85.9375 1031
195.312 328.125 1259
257.812 382.812 1312
179.688 -445.312 1185
7.8125 125 998
-85.9375 109.375 930
335.938 -15.625 1016
-7.8125 117.188 946
46.875 281.25 1087
148.438 296.875 1288
195.312 -46.875 995
-117.188 382.812 1202
-39.0625 359.375 1232
-70.3125 -15.625 1067
312.5 250 1647
101.562 -171.875 981
-62.5 390.625 1210
-382.812 -296.875 2859
-31.25 359.375 1214
-453.125 -140.625 2883
-476.562 -226.562 2744
367.188 -312.5 1070
117.188 265.625 1094
-328.125 -148.438 1415
164.062 320.312 1245
-109.375 375 1232
78.125 367.188 1496
359.375 164.062 1804
-125 117.188 928
-492.188 -320.312 2078
46.875 375 1489
-62.5 304.688 1063
-164.062 390.625 1193
132.812 -156.25 967
210.938 -312.5 1288
171.875 -375 1202
179.688 -289.062 1268
70.3125 359.375 1232
265.625 296.875 1278
85.9375 -187.5 967
-39.0625 -23.4375 1077
468.75 -187.5 975
234.375 -320.312 1264
468.75 -7.8125 1007
-109.375 312.5 1060
335.938 -23.4375 1028
343.75 320.312 1503
109.375 359.375 1236
445.312 -187.5 973
0 375 1223
109.375 335.938 1236
39.0625 351.562 1232
-15.625 132.812 998
343.75 -31.25 1028
101.562 85.9375 954
375 -257.812 1105
46.875 -210.938 1126
445.312 -54.6875 1038
15.625 375 1219
195.312 -39.0625 989
101.562 -218.75 1013
-453.125 -117.188 2933
-70.3125 304.688 1057
156.25 -31.25 967
-125 375 1227
70.3125 -125 992
398.438 -39.0625 1041
-117.188 335.938 1264
273.438 0 998
312.5 -15.625 1019
117.188 -39.0625 959
-265.625 187.5 964
-101.562 398.438 1197
171.875 -46.875 967
101.562 -156.25 962
117.188 351.562 1236
460.938 -7.8125 1007
109.375 265.625 1094
-54.6875 125 938
-78.125 398.438 1210
-468.75 -15.625 2333
54.6875 -125 995
171.875 -429.688 1185
7.8125 -164.062 962
-31.25 390.625 1470
-140.625 156.25 981
250 179.688 1090
218.75 -437.5 1181
179.688 250 1108
15.625 -218.75 1153
359.375 101.562 1853
281.25 -218.75 1054
242.188 -7.8125 1016
-265.625 148.438 910
203.125 -281.25 1236
-70.3125 101.562 933
93.75 289.062 1312
304.688 -398.438 1016
-164.062 429.688 1415
-78.125 -226.562 1157
132.812 304.688 1278
-468.75 398.438 1748
31.25 125 1001
382.812 7.8125 992
-328.125 148.438 898
312.5 -382.812 1022
-492.188 -328.125 2065
-265.625 195.312 967
203.125 -54.6875 984
-445.312 -31.25 3092
-148.438 406.25 1185
296.875 187.5 1776
492.188 31.25 1094
289.062 -398.438 1010
-171.875 390.625 1193
-257.812 125 906
117.188 328.125 1245
-78.125 -23.4375 1080
-93.75 148.438 987
-257.812 218.75 987
78.125 273.438 1087
-414.062 93.75 948
-39.0625 382.812 1210
312.5 -367.188 1028
242.188 328.125 1219
-46.875 -23.4375 1077
-23.4375 359.375 1219
46.875 320.312 1264
-445.312 -117.188 2958
-164.062 437.5 1410
-101.562 -70.3125 1097
453.125 15.625 1007
382.812 -171.875 962
375 -242.188 1080
31.25 343.75 1250
484.375 343.75 1433
-164.062 406.25 1185
234.375 46.875 973
140.625 351.562 1245
39.0625 -54.6875 978
-484.375 -226.562 2365
39.0625 320.312 1264
453.125 406.25 1376
-429.688 -62.5 3064
117.188 -31.25 964
335.938 -265.625 1084
289.062 -148.438 951
-257.812 148.438 913
343.75 -234.375 1073
-156.25 382.812 1202
242.188 367.188 1297
-187.5 343.75 1250
148.438 101.562 1016
226.562 429.688 1292
-101.562 -93.75 1087
-39.0625 335.938 1245
179.688 -453.125 1185
-23.4375 296.875 1077
46.875 85.9375 946
-101.562 328.125 1268
-156.25 320.312 1288
367.188 101.562 1853
-23.4375 382.812 1210
320.312 -296.875 1060
-500 -375 2598
125 296.875 1307
296.875 -406.25 1013
-31.25 320.312 1288
-7.8125 -398.438 3037
46.875 343.75 1227
265.625 -226.562 1077
312.5 46.875 989
-421.875 148.438 891
46.875 429.688 1398
281.25 257.812 1655
-187.5 164.062 973
140.625 328.125 1245
109.375 -320.312 1398
70.3125 -156.25 970
-85.9375 -31.25 1094
484.375 218.75 1489
335.938 -320.312 1057
187.5 93.75 1022
-257.812 203.125 975
328.125 -421.875 1034
-54.6875 343.75 1245
85.9375 -31.25 959
304.688 187.5 1776
476.562 242.188 1458
250 78.125 1031
-78.125 304.688 1057
351.562 -250 1097
0 335.938 1255
93.75 -156.25 964
-54.6875 367.188 1202
257.812 -398.438 1028
429.688 -179.688 970
437.5 -179.688 973
39.0625 -93.75 1007
195.312 -359.375 1206
-101.562 -54.6875 1138
132.812 -93.75 956
46.875 0 995
39.0625 328.125 1264
140.625 281.25 1307
-203.125 164.062 973
359.375 -234.375 1067
351.562 -164.062 959
484.375 257.812 1483
-492.188 -335.938 2090
453.125 250 1445
195.312 312.5 1268
-117.188 -156.25 1097
242.188 257.812 1169
-93.75 -117.188 1123
226.562 242.188 1157
484.375 23.4375 1084
-15.625 335.938 1255
-328.125 -164.062 1458
109.375 289.062 1312
140.625 31.25 973
234.375 179.688 1087
-460.938 -179.688 2835
7.8125 23.4375 1001
54.6875 -171.875 954
132.812 -187.5 1001
234.375 210.938 1108
476.562 -195.312 975
148.438 -101.562 962
304.688 -375 1019
78.125 296.875 1302
-367.188 156.25 894
70.3125 179.688 1028
-117.188 359.375 1227
70.3125 320.312 1268
265.625 0 1004
179.688 335.938 1255
156.25 312.5 1273
242.188 289.062 1185
335.938 296.875 1529
62.5 367.188 1232
70.3125 -164.062 959
-125 351.562 1264
54.6875 335.938 1264
304.688 367.188 1445
109.375 -304.688 1338
125 -335.938 1273
-31.25 296.875 1077
320.312 265.625 1564
476.562 -46.875 1044
-78.125 367.188 1210
-70.3125 328.125 1278
367.188 62.5 1813
148.438 343.75 1245
437.5 -39.0625 1038
148.438 -117.188 973
148.438 -132.812 1001
195.312 -406.25 1185
39.0625 304.688 1302
101.562 328.125 1273
164.062 0 1010
-39.0625 -93.75 1073
70.3125 -179.688 959
-250 226.562 989
414.062 296.875 1439
-476.562 -257.812 2680
7.8125 382.812 1223
484.375 226.562 1483
7.8125 -78.125 1050
23.4375 -164.062 954
312.5 156.25 1843
195.312 54.6875 964
-7.8125 -23.4375 1070
171.875 -125 987
-31.25 -62.5 1084
-132.812 351.562 1255
281.25 187.5 1776
335.938 -328.125 1054
343.75 -273.438 1084
93.75 -15.625 964
78.125 289.062 1338
-54.6875 -164.062 1034
445.312 328.125 1464
375 -265.625 1097
-484.375 -289.062 2789
218.75 359.375 1241
-492.188 -210.938 2090
7.8125 265.625 1073
85.9375 273.438 1087
460.938 281.25 1452
0 351.562 1255
-78.125 390.625 1210
7.8125 -210.938 1165
-101.562 -78.125 1097
296.875 359.375 1445
195.312 -62.5 981
289.062 187.5 1776
156.25 0 1016
-109.375 351.562 1232
39.0625 343.75 1232
-171.875 406.25 1185
187.5 -7.8125 1022
-492.188 -23.4375 2317
0 328.125 1283
-62.5 -171.875 1025
39.0625 210.938 1007
85.9375 312.5 1312
0 437.5 1398
304.688 -281.25 1067
78.125 117.188 1007
-164.062 414.062 1165
85.9375 359.375 1232
320.312 -156.25 954
70.3125 117.188 1004
195.312 -7.8125 1025
-62.5 367.188 1202
132.812 343.75 1241
39.0625 367.188 1223
156.25 7.8125 1001
281.25 0 998
54.6875 312.5 1292
390.625 7.8125 995
70.3125 -39.0625 964
46.875 -156.25 956
234.375 203.125 1105
125 328.125 1250
-437.5 -85.9375 2958
148.438 -7.8125 967
46.875 281.25 1087
-484.375 -265.625 2659
-500 -382.812 2598
15.625 -156.25 992
343.75 312.5 1516
117.188 359.375 1496
-273.438 -156.25 1421
132.812 296.875 1312
-70.3125 398.438 1210
7.8125 312.5 1292
179.688 -7.8125 1025
62.5 359.375 1232
-85.9375 343.75 1268
0 359.375 1219
70.3125 335.938 1236
218.75 367.188 1250
171.875 343.75 1250
148.438 351.562 1245
7.8125 93.75 940
-46.875 320.312 1278
281.25 195.312 1766
367.188 -257.812 1101
335.938 140.625 1863
-70.3125 375 1206
23.4375 351.562 1232
250 -148.438 954
-85.9375 -54.6875 1105
39.0625 351.562 1232
-109.375 390.625 1193
54.6875 367.188 1232
-171.875 359.375 1255
117.188 304.688 1288
-39.0625 343.75 1245
328.125 179.688 1776
-101.562 -101.562 1126
460.938 -54.6875 1044
156.25 320.312 1241
78.125 328.125 1268
117.188 -148.438 959
101.562 15.625 995
140.625 320.312 1283
31.25 -85.9375 1034
117.188 265.625 1094
117.188 343.75 1236
140.625 -125 998
335.938 -226.562 1057
390.625 218.75 1496
46.875 335.938 1259
187.5 -406.25 1185
-117.188 398.438 1193
460.938 250 1445
273.438 -398.438 1013
109.375 335.938 1236
-39.0625 367.188 1210
164.062 62.5 959
-101.562 351.562 1236
78.125 179.688 1028
39.0625 -148.438 1007
-23.4375 335.938 1255
-23.4375 328.125 1288
242.188 -148.438 962
93.75 -171.875 970
-468.75 -210.938 2835
-328.125 140.625 898
156.25 -46.875 959
78.125 343.75 1236
93.75 281.25 1338
304.688 -7.8125 1010
109.375 -93.75 956
429.688 250 1445
117.188 -156.25 964
281.25 -335.938 1034
296.875 -7.8125 1013
320.312 187.5 1766
-15.625 15.625 1016
109.375 351.562 1236
70.3125 359.375 1232
-500 -289.062 2040
54.6875 -140.625 995
250 -250 1126
234.375 171.875 1080
0 375 1223
484.375 -54.6875 1060
101.562 281.25 1328
93.75 -7.8125 964
179.688 93.75 1019
-500 -164.062 2090
-273.438 171.875 959
-164.062 359.375 1223
289.062 -156.25 951
406.25 -179.688 964
-414.062 93.75 948
15.625 210.938 1004
-78.125 -93.75 1073
-187.5 -171.875 1439
187.5 -54.6875 975
375 15.625 992
-148.438 382.812 1202
125 -179.688 992
234.375 187.5 1094
109.375 281.25 1333
31.25 -164.062 954
39.0625 -85.9375 1010
265.625 -7.8125 1016
70.3125 312.5 1288
-62.5 0 1041
382.812 -265.625 1097
-54.6875 312.5 1297
-234.375 281.25 1022
359.375 -312.5 1070
-257.812 -164.062 1433
179.688 281.25 1312
-31.25 -54.6875 1077
242.188 85.9375 1038
218.75 375 1259
445.312 250 1452
-31.25 343.75 1250
0 -226.562 1165
171.875 289.062 1312
437.5 250 1439
-85.9375 367.188 1236
203.125 320.312 1245
-62.5 335.938 1278
140.625 312.5 1283
210.938 343.75 1241
187.5 -281.25 1241
-468.75 -226.562 2744
-62.5 343.75 1236
218.75 382.812 1259
-148.438 320.312 1288
-492.188 -343.75 2143
54.6875 304.688 1292
343.75 164.062 1794
218.75 -414.062 1181
-257.812 210.938 981
-46.875 -31.25 1087
296.875 250 1663
312.5 -351.562 1031
484.375 -195.312 978
-7.8125 312.5 1292
62.5 -117.188 987
-39.0625 359.375 1232
-101.562 375 1214
265.625 203.125 1757
-171.875 125 923
187.5 281.25 1297
-117.188 359.375 1227
171.875 335.938 1250
281.25 187.5 1776
226.562 250 1165
-257.812 195.312 973
164.062 335.938 1245
289.062 187.5 1776
109.375 -312.5 1370
-468.75 -195.312 2859
132.812 320.312 1278
367.188 179.688 1601
39.0625 296.875 1328
-31.25 367.188 1214
250 195.312 1105
195.312 -78.125 989
-109.375 406.25 1452
-31.25 -46.875 1112
62.5 -78.125 984
-140.625 406.25 1193
171.875 -367.188 1206
281.25 -7.8125 1013
125 -31.25 964
375 -31.25 1034
-171.875 382.812 1214
-468.75 -218.75 2789
296.875 351.562 1445
-453.125 335.938 1883
-421.875 -62.5 3149
46.875 296.875 1292
15.625 351.562 1219
-484.375 -296.875 2767
140.625 101.562 1013
406.25 -265.625 1145
101.562 -23.4375 967
-93.75 351.562 1241
328.125 -328.125 1054
-117.188 328.125 1297
140.625 343.75 1245
242.188 93.75 1041
-500 -398.438 2598
375 -242.188 1080
109.375 328.125 1273
304.688 164.062 1843
414.062 210.938 1557
398.438 265.625 1489
-429.688 -39.0625 3092
-265.625 164.062 956
46.875 445.312 1376
23.4375 328.125 1255
-476.562 -39.0625 2301
-93.75 -39.0625 1105
39.0625 335.938 1259
328.125 23.4375 989
203.125 -54.6875 984
15.625 375 1219
140.625 304.688 1288
-23.4375 296.875 1077
-101.562 312.5 1060
367.188 70.3125 1823
-304.688 148.438 903
320.312 -164.062 954
289.062 -343.75 1031
296.875 179.688 1785
-164.062 406.25 1185
101.562 -203.125 1013
-351.562 296.875 1981
0 132.812 998
-468.75 -31.25 2301
210.938 242.188 1115
343.75 -343.75 1047
195.312 304.688 1283
93.75 -218.75 1016
78.125 296.875 1302
39.0625 328.125 1264
-39.0625 320.312 1283
429.688 -179.688 970
-406.25 156.25 889
