ply
format ascii 1.0
comment Created by Open3D
element vertex 2465
property double x
property double y
property double z
end_header
23.4375 296.875 943
-304.688 398.438 1594
125 156.25 767
70.3125 0 754
-85.9375 304.688 970
-7.8125 93.75 742
257.812 -7.8125 663
-140.625 312.5 978
54.6875 296.875 940
-93.75 -93.75 720
-31.25 320.312 978
234.375 -171.875 750
343.75 -367.188 867
54.6875 320.312 1153
218.75 -179.688 954
132.812 156.25 766
273.438 -7.8125 661
460.938 -234.375 691
335.938 0 650
218.75 -281.25 819
109.375 -93.75 700
242.188 -250 796
0 -78.125 690
-343.75 304.688 1019
242.188 39.0625 679
195.312 -343.75 864
257.812 -148.438 730
-125 -78.125 839
117.188 -179.688 742
367.188 -15.625 654
117.188 -226.562 764
375 -335.938 678
85.9375 -171.875 825
265.625 195.312 741
250 125 773
390.625 -203.125 707
187.5 -39.0625 730
421.875 -195.312 716
234.375 359.375 1112
-367.188 406.25 1594
414.062 -343.75 624
-125 109.375 815
304.688 140.625 761
234.375 -62.5 693
78.125 320.312 1141
39.0625 320.312 1153
-15.625 78.125 746
-132.812 -171.875 780
-78.125 -15.625 878
-187.5 312.5 989
85.9375 -390.625 1153
195.312 -54.6875 736
0 15.625 749
226.562 -31.25 781
-85.9375 15.625 860
-85.9375 0 869
-179.688 304.688 984
226.562 -218.75 780
-31.25 -54.6875 691
39.0625 296.875 946
234.375 218.75 747
210.938 -54.6875 736
-203.125 203.125 774
210.938 62.5 736
-109.375 273.438 925
140.625 312.5 946
414.062 -195.312 713
242.188 359.375 1197
39.0625 203.125 754
445.312 398.438 1255
437.5 -406.25 610
265.625 -70.3125 690
218.75 -195.312 956
250 -218.75 771
-359.375 281.25 978
-343.75 210.938 792
367.188 -187.5 742
203.125 -70.3125 882
468.75 179.688 725
-320.312 171.875 796
78.125 -257.812 811
476.562 -23.4375 646
46.875 296.875 946
0 101.562 741
257.812 195.312 739
-70.3125 -93.75 704
101.562 109.375 723
492.188 -343.75 622
242.188 15.625 662
-210.938 -367.188 1193
-132.812 320.312 1173
-500 62.5 882
250 70.3125 690
62.5 429.688 1302
46.875 85.9375 730
218.75 -23.4375 769
-304.688 382.812 1616
289.062 -7.8125 659
-78.125 -23.4375 882
-15.625 70.3125 747
140.625 -7.8125 717
-335.938 62.5 860
0 156.25 781
-132.812 -195.312 860
312.5 -343.75 854
250 -93.75 704
-109.375 203.125 767
-54.6875 -85.9375 698
70.3125 296.875 943
351.562 -15.625 654
156.25 -132.812 710
-46.875 -93.75 707
-179.688 296.875 975
15.625 320.312 1157
-109.375 -46.875 839
398.438 -359.375 619
250 62.5 690
-148.438 203.125 773
257.812 -62.5 688
218.75 -187.5 956
46.875 -85.9375 691
-273.438 195.312 783
257.812 -46.875 682
-312.5 359.375 1639
-164.062 304.688 984
265.625 93.75 708
39.0625 70.3125 728
0 406.25 1328
492.188 -273.438 664
-15.625 93.75 744
-54.6875 109.375 807
-156.25 406.25 1343
-15.625 296.875 956
250 -210.938 769
257.812 -140.625 727
132.812 -101.562 716
31.25 203.125 755
-117.188 320.312 1165
226.562 -109.375 901
101.562 85.9375 716
117.188 -109.375 700
-117.188 203.125 769
218.75 -273.438 819
85.9375 320.312 1145
-54.6875 203.125 764
54.6875 -203.125 847
-375 195.312 794
-78.125 203.125 766
-148.438 -195.312 798
343.75 203.125 733
250 359.375 1197
-140.625 250 889
-140.625 273.438 928
31.25 320.312 1153
242.188 54.6875 684
-156.25 312.5 987
-23.4375 -320.312 869
46.875 406.25 1312
367.188 265.625 1359
-132.812 312.5 981
-500 195.312 809
359.375 -15.625 654
-93.75 -39.0625 843
210.938 -320.312 845
328.125 203.125 734
62.5 -273.438 825
234.375 -70.3125 693
257.812 -156.25 736
492.188 187.5 719
453.125 -23.4375 648
-93.75 -54.6875 841
101.562 -242.188 789
54.6875 -39.0625 694
-171.875 -242.188 835
460.938 -23.4375 647
257.812 101.562 720
-148.438 312.5 987
-226.562 203.125 780
-62.5 -320.312 867
-148.438 -179.688 789
7.8125 296.875 956
359.375 -328.125 684
218.75 62.5 805
46.875 0 700
23.4375 312.5 956
164.062 203.125 744
-46.875 -70.3125 694
226.562 273.438 891
445.312 78.125 693
335.938 203.125 734
85.9375 296.875 938
7.8125 -78.125 690
-85.9375 -437.5 2883
-85.9375 406.25 1328
320.312 23.4375 652
46.875 -289.062 835
31.25 132.812 752
289.062 273.438 1381
7.8125 273.438 869
218.75 -31.25 771
-39.0625 101.562 811
273.438 -15.625 664
23.4375 -234.375 871
156.25 -203.125 742
132.812 312.5 946
-70.3125 -78.125 700
210.938 -335.938 860
-140.625 203.125 771
265.625 -78.125 694
15.625 273.438 860
70.3125 320.312 1141
78.125 85.9375 717
125 -242.188 1016
375 265.625 1359
-70.3125 203.125 764
359.375 265.625 1376
-406.25 218.75 809
-125 -78.125 839
242.188 -281.25 817
375 -250 697
-132.812 -93.75 845
-54.6875 -109.375 710
-210.938 320.312 1193
-242.188 -453.125 2859
257.812 -359.375 873
476.562 -265.625 671
31.25 296.875 946
281.25 406.25 1273
15.625 156.25 780
-101.562 -304.688 867
-93.75 203.125 767
242.188 351.562 1189
-101.562 -78.125 837
351.562 156.25 749
62.5 203.125 754
218.75 320.312 1025
164.062 -156.25 719
218.75 -289.062 825
-156.25 250 894
218.75 -351.562 869
296.875 -15.625 663
343.75 250 1392
210.938 -328.125 854
367.188 -390.625 652
70.3125 -257.812 811
-257.812 320.312 1063
-140.625 -187.5 790
109.375 203.125 749
468.75 -23.4375 647
335.938 -390.625 882
70.3125 -281.25 1060
-148.438 375 1365
234.375 320.312 1022
-7.8125 203.125 759
156.25 -210.938 742
218.75 -210.938 774
39.0625 125 749
-46.875 109.375 809
390.625 242.188 1381
234.375 -15.625 780
-23.4375 296.875 959
15.625 296.875 948
234.375 234.375 833
125 312.5 948
0 296.875 956
-78.125 0 871
46.875 312.5 956
226.562 -234.375 787
398.438 -312.5 644
93.75 7.8125 716
54.6875 93.75 730
210.938 312.5 948
429.688 -15.625 647
140.625 -93.75 710
15.625 203.125 755
-421.875 -78.125 970
421.875 -406.25 611
210.938 -78.125 885
-85.9375 203.125 767
78.125 -273.438 1050
429.688 -406.25 611
164.062 -203.125 742
437.5 -23.4375 648
398.438 242.188 1376
-171.875 351.562 1338
-70.3125 7.8125 867
85.9375 -164.062 730
62.5 296.875 940
320.312 203.125 734
-265.625 195.312 783
23.4375 203.125 755
218.75 195.312 742
-140.625 312.5 978
-85.9375 296.875 964
140.625 -234.375 1004
117.188 312.5 948
31.25 54.6875 731
-62.5 296.875 959
-85.9375 -132.812 739
257.812 -15.625 666
-78.125 273.438 913
-101.562 -125 736
343.75 -15.625 655
179.688 -179.688 728
39.0625 296.875 946
-117.188 -62.5 837
156.25 312.5 946
-125 203.125 769
234.375 -179.688 750
-117.188 312.5 978
-46.875 296.875 956
-429.688 187.5 802
210.938 -62.5 878
-437.5 187.5 802
78.125 101.562 722
226.562 -242.188 792
234.375 -54.6875 687
226.562 -62.5 873
70.3125 406.25 1312
281.25 7.8125 655
265.625 85.9375 700
226.562 -226.562 783
265.625 -85.9375 697
203.125 -453.125 970
-7.8125 320.312 1157
203.125 -296.875 837
-468.75 187.5 807
132.812 85.9375 719
406.25 -390.625 608
265.625 -93.75 701
179.688 85.9375 725
70.3125 -78.125 694
-31.25 296.875 959
351.562 257.812 1381
-78.125 -117.188 716
250 70.3125 690
-367.188 195.312 790
-171.875 -226.562 819
390.625 234.375 1398
-414.062 187.5 800
468.75 -226.562 697
437.5 7.8125 640
0 -226.562 894
328.125 -7.8125 655
7.8125 -15.625 738
218.75 -156.25 930
429.688 -414.062 615
257.812 -31.25 674
-343.75 195.312 789
-15.625 421.875 1312
421.875 -23.4375 650
414.062 -7.8125 647
-312.5 250 918
320.312 0 653
-125 312.5 978
242.188 7.8125 662
335.938 195.312 733
-226.562 -453.125 2859
62.5 101.562 727
7.8125 109.375 741
-140.625 242.188 880
-7.8125 421.875 1312
70.3125 101.562 723
-406.25 187.5 798
31.25 242.188 856
375 257.812 1370
-164.062 335.938 1387
-320.312 -421.875 2984
-23.4375 46.875 759
484.375 187.5 723
-312.5 257.812 930
250 78.125 711
414.062 -203.125 707
195.312 -281.25 1041
-187.5 203.125 774
54.6875 296.875 940
414.062 -15.625 648
257.812 -70.3125 691
-156.25 203.125 773
437.5 -15.625 646
-140.625 -210.938 854
273.438 93.75 707
421.875 -15.625 648
312.5 0 654
117.188 406.25 1307
242.188 195.312 741
0 78.125 741
257.812 -164.062 739
39.0625 406.25 1317
109.375 312.5 951
328.125 265.625 1381
-218.75 195.312 781
-296.875 382.812 1609
23.4375 296.875 943
7.8125 203.125 757
265.625 148.438 762
-304.688 257.812 930
-453.125 203.125 805
-109.375 -46.875 839
-15.625 203.125 761
-7.8125 296.875 956
406.25 187.5 727
187.5 70.3125 730
-164.062 312.5 984
281.25 -15.625 663
39.0625 -39.0625 698
101.562 -109.375 698
164.062 312.5 946
-15.625 156.25 781
234.375 0 790
296.875 148.438 757
-46.875 -101.562 711
-500 70.3125 875
93.75 320.312 1134
140.625 312.5 946
476.562 257.812 1273
187.5 -78.125 889
257.812 15.625 659
0 101.562 741
203.125 -445.312 962
250 -226.562 778
-421.875 203.125 800
304.688 62.5 680
93.75 15.625 711
-62.5 -31.25 885
0 203.125 759
156.25 -195.312 736
85.9375 46.875 707
-101.562 -46.875 841
-54.6875 296.875 959
351.562 -421.875 792
125 -85.9375 706
-39.0625 296.875 959
234.375 195.312 741
265.625 15.625 657
-93.75 -125 728
54.6875 -54.6875 698
0 -54.6875 722
460.938 -203.125 711
-109.375 -54.6875 837
-23.4375 -54.6875 693
23.4375 242.188 854
54.6875 93.75 730
-54.6875 62.5 833
-109.375 273.438 925
-7.8125 -78.125 690
203.125 304.688 946
-117.188 273.438 925
-85.9375 -23.4375 851
-132.812 -101.562 849
265.625 78.125 697
39.0625 -78.125 690
85.9375 -46.875 694
414.062 195.312 725
-125 -78.125 839
273.438 257.812 1404
-23.4375 406.25 1328
273.438 -15.625 664
-93.75 406.25 1333
484.375 15.625 640
125 -62.5 698
242.188 -125 720
203.125 -304.688 841
-179.688 -242.188 833
242.188 -117.188 713
-117.188 -70.3125 837
203.125 -62.5 736
54.6875 421.875 1302
195.312 156.25 761
226.562 -140.625 920
78.125 -70.3125 704
39.0625 156.25 776
101.562 312.5 948
-195.312 195.312 778
382.812 15.625 644
179.688 -62.5 738
-117.188 -296.875 856
351.562 250 1387
15.625 242.188 856
-62.5 -476.562 2789
226.562 367.188 1134
210.938 -414.062 930
-125 -93.75 843
250 -46.875 682
-117.188 281.25 933
-93.75 273.438 918
-39.0625 203.125 762
-140.625 281.25 930
226.562 195.312 742
429.688 -234.375 688
0 320.312 1157
210.938 375 1157
195.312 -46.875 734
117.188 -234.375 764
101.562 -85.9375 708
289.062 -15.625 662
242.188 31.25 670
85.9375 -78.125 706
210.938 -250 1007
445.312 -23.4375 648
31.25 -304.688 841
31.25 -296.875 841
-164.062 23.4375 867
125 -187.5 746
7.8125 250 869
265.625 70.3125 688
46.875 296.875 946
15.625 31.25 738
-7.8125 85.9375 742
234.375 -78.125 697
-132.812 273.438 928
492.188 -15.625 637
132.812 312.5 946
46.875 -31.25 696
187.5 203.125 742
7.8125 320.312 1153
70.3125 -15.625 691
375 -15.625 653
-359.375 195.312 790
382.812 0 646
140.625 -93.75 710
109.375 406.25 1307
421.875 7.8125 642
-179.688 406.25 1292
375 -265.625 700
164.062 78.125 723
109.375 -39.0625 694
234.375 -187.5 755
-7.8125 273.438 906
39.0625 -7.8125 698
-132.812 -468.75 2812
273.438 0 658
54.6875 7.8125 701
437.5 39.0625 658
85.9375 -171.875 825
93.75 312.5 948
-328.125 328.125 1067
328.125 0 653
164.062 -187.5 730
265.625 93.75 708
109.375 -250 1025
-62.5 203.125 764
7.8125 296.875 956
23.4375 406.25 1322
351.562 -398.438 831
226.562 -7.8125 767
250 62.5 690
101.562 406.25 1307
78.125 -179.688 829
382.812 -328.125 653
281.25 0 657
132.812 -101.562 716
250 85.9375 711
-476.562 0 923
414.062 -218.75 697
351.562 -15.625 654
-117.188 -62.5 837
93.75 -164.062 733
-484.375 23.4375 903
218.75 -195.312 956
-23.4375 203.125 761
320.312 218.75 744
257.812 -23.4375 668
125 312.5 948
-132.812 15.625 867
226.562 -101.562 896
492.188 -414.062 597
320.312 203.125 734
85.9375 312.5 951
54.6875 -296.875 1077
-132.812 -460.938 2812
226.562 265.625 882
242.188 -265.625 803
-343.75 328.125 1680
-31.25 -328.125 871
335.938 -101.562 697
-54.6875 406.25 1328
-320.312 343.75 1101
-93.75 -140.625 746
179.688 -195.312 970
23.4375 125 747
406.25 -7.8125 647
15.625 117.188 742
250 54.6875 684
-62.5 -23.4375 878
-148.438 273.438 887
-468.75 -23.4375 933
210.938 195.312 744
320.312 -390.625 891
-62.5 273.438 913
-164.062 -460.938 2812
46.875 -210.938 851
78.125 -390.625 1161
-132.812 -375 1185
195.312 62.5 734
-492.188 39.0625 898
429.688 15.625 641
382.812 -398.438 624
-70.3125 -476.562 2789
-281.25 382.812 1173
257.812 226.562 750
7.8125 23.4375 747
-109.375 312.5 975
78.125 312.5 948
-39.0625 320.312 978
117.188 312.5 948
406.25 195.312 727
-85.9375 312.5 970
234.375 -85.9375 703
-195.312 -460.938 2835
-164.062 -218.75 815
132.812 93.75 719
46.875 78.125 728
-54.6875 320.312 970
-421.875 273.438 1748
171.875 -156.25 722
367.188 15.625 647
-15.625 296.875 956
46.875 320.312 1157
281.25 15.625 654
-117.188 296.875 967
23.4375 39.0625 733
7.8125 109.375 741
304.688 296.875 1359
-390.625 234.375 908
70.3125 78.125 716
398.438 -195.312 713
-101.562 -39.0625 843
-7.8125 -234.375 889
23.4375 -226.562 880
-85.9375 -117.188 720
265.625 46.875 670
-23.4375 296.875 959
-187.5 -195.312 809
250 -54.6875 686
-203.125 195.312 780
218.75 -281.25 819
218.75 -296.875 833
132.812 -195.312 747
304.688 203.125 738
-62.5 406.25 1328
265.625 -101.562 706
226.562 -234.375 787
-101.562 312.5 975
62.5 406.25 1312
-367.188 -359.375 2129
0 296.875 956
296.875 281.25 1370
234.375 -140.625 730
7.8125 54.6875 741
367.188 -421.875 637
54.6875 156.25 773
-7.8125 156.25 781
210.938 -429.688 946
234.375 328.125 1054
39.0625 -31.25 698
492.188 187.5 719
-171.875 -226.562 819
265.625 85.9375 700
445.312 -406.25 609
-15.625 -78.125 691
171.875 406.25 1292
437.5 -414.062 614
218.75 -203.125 771
375 15.625 646
453.125 -320.312 640
-132.812 -179.688 785
257.812 -164.062 739
210.938 15.625 739
-117.188 312.5 978
-132.812 195.312 771
234.375 242.188 851
-93.75 304.688 973
210.938 -304.688 837
-242.188 335.938 1105
-54.6875 -62.5 697
312.5 -7.8125 657
-125 312.5 978
234.375 -312.5 841
257.812 -171.875 744
390.625 195.312 730
117.188 296.875 938
156.25 -226.562 998
31.25 242.188 856
62.5 -195.312 841
406.25 -382.812 608
328.125 187.5 736
-492.188 46.875 894
210.938 -257.812 1013
-437.5 -398.438 3037
382.812 281.25 1349
15.625 320.312 1157
484.375 7.8125 637
367.188 187.5 731
484.375 132.812 746
203.125 -429.688 943
-31.25 -320.312 871
296.875 140.625 762
460.938 179.688 727
382.812 -226.562 700
281.25 -406.25 915
390.625 281.25 1354
-132.812 -140.625 766
265.625 31.25 658
273.438 -31.25 671
281.25 210.938 741
-187.5 70.3125 843
210.938 -195.312 962
210.938 31.25 738
367.188 281.25 1354
-39.0625 -328.125 1126
-7.8125 406.25 1328
15.625 31.25 738
265.625 62.5 682
39.0625 -296.875 835
85.9375 7.8125 717
164.062 -164.062 722
296.875 203.125 738
-125 -164.062 773
335.938 -15.625 657
250 -70.3125 691
-39.0625 -54.6875 691
-23.4375 -78.125 693
-78.125 375 1359
46.875 -304.688 1084
46.875 -304.688 1084
453.125 -203.125 711
273.438 -281.25 811
445.312 140.625 744
218.75 -15.625 769
273.438 242.188 1421
226.562 -148.438 923
-31.25 203.125 761
359.375 218.75 741
476.562 -15.625 642
62.5 -289.062 1067
171.875 -54.6875 738
265.625 250 1415
375 281.25 1349
-46.875 125 802
320.312 -429.688 798
39.0625 171.875 769
7.8125 -320.312 860
484.375 -15.625 642
406.25 -195.312 713
132.812 406.25 1307
15.625 320.312 1157
-125 -117.188 887
7.8125 -31.25 742
273.438 -23.4375 668
-7.8125 -54.6875 690
-109.375 109.375 811
54.6875 117.188 742
-15.625 46.875 755
-93.75 -46.875 841
-85.9375 273.438 913
390.625 -7.8125 648
-218.75 335.938 1165
179.688 46.875 723
187.5 -101.562 898
382.812 -406.25 625
101.562 296.875 938
234.375 7.8125 792
265.625 125 739
218.75 15.625 742
7.8125 125 749
203.125 156.25 761
-125 -171.875 780
265.625 335.938 1145
85.9375 406.25 1307
109.375 312.5 951
406.25 -15.625 649
453.125 62.5 678
-125 273.438 925
85.9375 429.688 1292
7.8125 -39.0625 746
328.125 -15.625 659
367.188 312.5 1328
101.562 312.5 948
265.625 78.125 697
54.6875 85.9375 725
-125 -281.25 856
218.75 78.125 800
31.25 296.875 946
-156.25 -203.125 802
226.562 437.5 1273
-109.375 296.875 964
429.688 289.062 1312
70.3125 23.4375 710
54.6875 -281.25 829
62.5 101.562 727
312.5 203.125 736
15.625 -320.312 860
23.4375 -85.9375 694
93.75 -70.3125 701
265.625 39.0625 663
250 -234.375 783
265.625 -109.375 708
437.5 179.688 727
-93.75 -23.4375 851
289.062 -7.8125 659
406.25 39.0625 661
429.688 179.688 728
7.8125 -54.6875 713
164.062 -101.562 716
62.5 320.312 1149
335.938 -7.8125 654
437.5 -406.25 610
218.75 328.125 1041
85.9375 101.562 722
414.062 -382.812 607
234.375 226.562 747
234.375 218.75 747
195.312 -335.938 862
70.3125 -93.75 694
492.188 -23.4375 640
156.25 -203.125 742
265.625 70.3125 688
-156.25 -210.938 805
-328.125 226.562 794
-492.188 179.688 811
15.625 -54.6875 708
70.3125 101.562 723
39.0625 -312.5 1090
-39.0625 -62.5 693
265.625 23.4375 657
140.625 70.3125 717
-125 195.312 771
351.562 265.625 1381
101.562 -93.75 698
312.5 -406.25 823
234.375 234.375 833
234.375 -7.8125 783
234.375 -93.75 706
31.25 125 747
-140.625 312.5 978
-62.5 15.625 858
54.6875 93.75 730
-85.9375 -312.5 864
460.938 -179.688 727
-132.812 242.188 878
242.188 -281.25 817
210.938 -234.375 992
85.9375 85.9375 716
85.9375 312.5 951
406.25 -375 609
273.438 -39.0625 675
218.75 46.875 742
250 -312.5 837
-46.875 62.5 769
-70.3125 -203.125 882
187.5 304.688 943
359.375 132.812 759
7.8125 156.25 781
-492.188 187.5 809
218.75 7.8125 741
218.75 140.625 769
39.0625 31.25 716
234.375 -23.4375 783
-296.875 -101.562 964
-78.125 -39.0625 849
234.375 -367.188 885
445.312 -343.75 624
304.688 -398.438 903
218.75 -46.875 774
-148.438 312.5 987
421.875 140.625 747
289.062 -257.812 792
23.4375 125 747
484.375 187.5 723
210.938 93.75 790
437.5 -23.4375 648
273.438 132.812 746
234.375 312.5 943
-226.562 406.25 1259
343.75 -15.625 655
46.875 312.5 956
109.375 -78.125 704
226.562 -70.3125 878
265.625 -101.562 706
-132.812 273.438 928
218.75 -54.6875 871
-78.125 195.312 767
-164.062 195.312 774
476.562 234.375 1259
-46.875 -78.125 696
210.938 304.688 948
210.938 -62.5 878
93.75 312.5 948
-250 -62.5 933
453.125 -23.4375 648
132.812 78.125 717
390.625 -296.875 655
476.562 187.5 725
-460.938 187.5 803
250 -62.5 690
-218.75 359.375 1177
-187.5 195.312 776
-117.188 273.438 925
-312.5 195.312 785
210.938 -335.938 860
484.375 -265.625 672
281.25 -328.125 845
-351.562 195.312 792
-93.75 296.875 967
-421.875 195.312 800
62.5 7.8125 701
-62.5 -39.0625 776
-15.625 273.438 908
414.062 265.625 1333
445.312 179.688 728
70.3125 312.5 948
375 -242.188 707
234.375 250 858
-250 289.062 973
250 54.6875 684
234.375 -179.688 750
62.5 164.062 771
46.875 406.25 1312
39.0625 -15.625 698
-39.0625 406.25 1328
210.938 46.875 738
289.062 273.438 1381
-54.6875 -382.812 1177
-109.375 -70.3125 837
226.562 -156.25 744
242.188 -132.812 723
-179.688 -460.938 2812
343.75 70.3125 690
242.188 -289.062 821
-382.812 242.188 920
257.812 101.562 720
7.8125 101.562 741
265.625 54.6875 675
85.9375 39.0625 707
492.188 187.5 719
234.375 -187.5 755
-78.125 406.25 1328
273.438 -31.25 671
382.812 -367.188 640
398.438 -23.4375 653
273.438 -406.25 915
218.75 -78.125 880
445.312 -359.375 616
281.25 242.188 1415
-31.25 -46.875 691
226.562 273.438 891
132.812 -226.562 749
164.062 -148.438 714
250 46.875 682
218.75 0 741
210.938 -343.75 864
164.062 406.25 1292
54.6875 312.5 956
31.25 31.25 717
437.5 -257.812 674
359.375 -15.625 654
-125 406.25 1333
-148.438 -429.688 2908
203.125 304.688 946
421.875 -218.75 698
414.062 -367.188 611
0 421.875 1312
390.625 -421.875 625
359.375 125 739
0 93.75 741
39.0625 62.5 725
-171.875 -257.812 841
320.312 -7.8125 655
-164.062 -218.75 815
-109.375 -46.875 839
-93.75 -31.25 849
460.938 -343.75 624
-15.625 62.5 747
484.375 -343.75 624
7.8125 109.375 741
-85.9375 312.5 970
414.062 -375 609
421.875 -23.4375 650
-62.5 312.5 964
-31.25 406.25 1333
-15.625 -54.6875 690
78.125 406.25 1312
0 273.438 906
62.5 312.5 951
226.562 -242.188 792
-70.3125 312.5 970
335.938 187.5 736
54.6875 406.25 1312
-101.562 -39.0625 843
382.812 -23.4375 655
-46.875 406.25 1328
234.375 -195.312 764
54.6875 -54.6875 698
343.75 187.5 734
195.312 367.188 1126
-54.6875 312.5 970
-476.562 187.5 807
23.4375 -54.6875 706
85.9375 -101.562 696
484.375 -414.062 607
492.188 -414.062 597
-484.375 -367.188 2984
109.375 -54.6875 696
179.688 -125 918
179.688 -70.3125 738
-375 250 930
78.125 312.5 948
-328.125 195.312 787
226.562 -15.625 774
-101.562 312.5 975
132.812 -242.188 1013
234.375 -320.312 845
195.312 304.688 938
234.375 -85.9375 703
23.4375 312.5 956
70.3125 296.875 943
250 -226.562 778
23.4375 -46.875 704
-304.688 367.188 1624
23.4375 39.0625 733
265.625 -117.188 714
-210.938 367.188 1193
218.75 -210.938 774
-109.375 312.5 975
343.75 -421.875 794
117.188 312.5 948
-23.4375 -31.25 798
445.312 -265.625 670
-39.0625 312.5 978
31.25 406.25 1317
351.562 31.25 654
-132.812 367.188 1370
-85.9375 -125 727
234.375 -226.562 781
281.25 31.25 657
-218.75 406.25 1255
273.438 -39.0625 675
375 -257.812 700
367.188 -210.938 752
-54.6875 -109.375 710
-218.75 304.688 981
218.75 -289.062 825
367.188 -15.625 654
23.4375 -31.25 701
257.812 39.0625 672
-117.188 -187.5 869
164.062 304.688 946
406.25 -23.4375 652
476.562 -367.188 611
132.812 -78.125 703
-335.938 195.312 789
132.812 -93.75 710
265.625 -39.0625 675
210.938 -265.625 1019
203.125 289.062 918
-320.312 203.125 787
101.562 -257.812 1031
257.812 -187.5 754
156.25 -210.938 742
343.75 62.5 680
359.375 281.25 1354
226.562 0 764
-46.875 -85.9375 700
320.312 -15.625 659
218.75 289.062 928
-117.188 -62.5 837
492.188 210.938 728
265.625 62.5 682
31.25 312.5 956
-320.312 195.312 787
140.625 54.6875 711
203.125 -312.5 839
265.625 -109.375 708
39.0625 312.5 956
203.125 195.312 742
250 -242.188 787
54.6875 31.25 711
328.125 210.938 738
390.625 195.312 730
156.25 -218.75 989
257.812 -171.875 744
-85.9375 -15.625 878
492.188 -406.25 595
164.062 -351.562 1112
414.062 -23.4375 650
218.75 312.5 943
164.062 312.5 946
281.25 -7.8125 659
31.25 46.875 723
406.25 7.8125 643
85.9375 78.125 713
70.3125 101.562 723
-484.375 187.5 809
-289.062 343.75 1101
390.625 -15.625 652
312.5 187.5 738
-140.625 195.312 774
-398.438 195.312 794
148.438 0 714
-46.875 101.562 813
273.438 -46.875 678
-31.25 312.5 978
-117.188 273.438 925
195.312 -62.5 736
210.938 -367.188 887
375 304.688 1333
-476.562 195.312 807
-23.4375 312.5 967
-382.812 195.312 794
398.438 195.312 728
234.375 -171.875 750
62.5 -85.9375 693
46.875 70.3125 722
7.8125 406.25 1328
-46.875 -101.562 711
-468.75 -23.4375 933
7.8125 -23.4375 741
242.188 -125 720
-125 -85.9375 841
-109.375 273.438 925
-148.438 -203.125 803
54.6875 85.9375 725
265.625 -62.5 687
7.8125 -7.8125 738
109.375 31.25 707
-273.438 140.625 811
117.188 -15.625 725
101.562 312.5 948
15.625 31.25 738
-164.062 -203.125 803
-132.812 265.625 898
210.938 289.062 918
335.938 15.625 648
46.875 23.4375 708
-70.3125 -468.75 2812
226.562 -70.3125 878
234.375 -23.4375 783
320.312 78.125 693
-101.562 304.688 975
46.875 -7.8125 698
0 312.5 964
132.812 -203.125 747
-210.938 304.688 981
46.875 125 741
46.875 312.5 956
46.875 -304.688 1084
-343.75 203.125 789
234.375 -187.5 755
187.5 125 776
421.875 203.125 727
164.062 -132.812 710
-46.875 312.5 970
39.0625 -312.5 1090
468.75 23.4375 646
296.875 234.375 747
39.0625 -273.438 831
-7.8125 78.125 742
468.75 -15.625 643
382.812 195.312 730
203.125 62.5 736
210.938 -406.25 923
359.375 -421.875 637
15.625 312.5 959
-117.188 -93.75 843
-500 179.688 811
148.438 195.312 749
15.625 296.875 948
-31.25 -93.75 708
281.25 -15.625 663
-320.312 234.375 898
-296.875 195.312 787
-476.562 0 923
-101.562 406.25 1333
132.812 -46.875 698
273.438 -23.4375 668
242.188 351.562 1189
-484.375 179.688 809
-328.125 296.875 1007
31.25 -320.312 1105
234.375 -93.75 706
132.812 -109.375 704
273.438 195.312 741
-125 359.375 1376
289.062 0 657
460.938 -15.625 644
265.625 -7.8125 663
375 -250 697
234.375 257.812 869
312.5 226.562 744
85.9375 -179.688 817
-140.625 210.938 771
-132.812 328.125 1173
273.438 257.812 1404
281.25 39.0625 663
-46.875 -62.5 694
-70.3125 320.312 1161
304.688 187.5 738
-31.25 296.875 959
-414.062 203.125 800
-390.625 265.625 930
-210.938 328.125 1165
281.25 265.625 1392
-492.188 46.875 894
132.812 54.6875 711
257.812 -179.688 746
476.562 -203.125 711
148.438 -234.375 1004
179.688 320.312 1134
234.375 -203.125 769
187.5 -85.9375 891
-367.188 257.812 940
-148.438 210.938 773
7.8125 -15.625 738
187.5 304.688 943
320.312 187.5 738
171.875 421.875 1278
304.688 203.125 738
23.4375 -70.3125 688
265.625 -117.188 714
148.438 421.875 1283
250 -70.3125 691
468.75 54.6875 672
476.562 -23.4375 646
-62.5 7.8125 862
312.5 234.375 1404
46.875 46.875 713
15.625 273.438 860
39.0625 54.6875 719
265.625 -125 717
109.375 -242.188 1019
265.625 54.6875 675
39.0625 -85.9375 691
179.688 125 776
15.625 117.188 742
-109.375 78.125 827
-289.062 195.312 787
375 203.125 730
46.875 54.6875 716
70.3125 31.25 710
437.5 31.25 650
171.875 -171.875 723
-62.5 -101.562 708
335.938 54.6875 676
250 -250 792
218.75 -78.125 880
179.688 304.688 943
-484.375 23.4375 903
296.875 0 655
39.0625 -23.4375 698
-203.125 304.688 989
156.25 -140.625 711
-78.125 -101.562 710
-70.3125 304.688 970
-273.438 359.375 1138
-250 -445.312 2835
218.75 -39.0625 774
0 -78.125 690
62.5 -273.438 825
195.312 -351.562 869
171.875 125 778
-429.688 -234.375 2618
476.562 -93.75 679
54.6875 -296.875 1077
54.6875 -296.875 1077
156.25 312.5 946
210.938 -70.3125 880
-156.25 -210.938 805
-78.125 312.5 967
226.562 -164.062 749
-140.625 250 889
132.812 -171.875 734
54.6875 312.5 956
335.938 390.625 1273
281.25 125 739
492.188 -210.938 707
46.875 70.3125 722
39.0625 70.3125 728
250 -234.375 783
234.375 -101.562 708
-140.625 -195.312 790
-62.5 -109.375 710
375 -375 643
-492.188 54.6875 887
0 93.75 741
-304.688 195.312 785
85.9375 312.5 951
273.438 7.8125 657
210.938 -351.562 869
109.375 156.25 769
179.688 171.875 755
62.5 148.438 778
-359.375 265.625 954
23.4375 -328.125 1112
195.312 289.062 918
195.312 -70.3125 882
179.688 -31.25 725
-15.625 62.5 747
-148.438 -203.125 803
406.25 70.3125 686
-460.938 -226.562 2598
234.375 85.9375 792
54.6875 70.3125 717
93.75 85.9375 716
39.0625 140.625 783
398.438 -15.625 650
406.25 179.688 730
382.812 -351.562 644
273.438 -46.875 678
273.438 -39.0625 675
54.6875 85.9375 725
-398.438 226.562 807
367.188 31.25 654
-500 78.125 873
242.188 406.25 1288
-39.0625 70.3125 771
-31.25 -226.562 889
39.0625 31.25 716
195.312 304.688 938
-117.188 -70.3125 837
250 -78.125 696
-70.3125 -117.188 716
195.312 -46.875 734
132.812 429.688 1288
492.188 132.812 741
125 85.9375 717
-62.5 -93.75 703
140.625 -46.875 698
-125 -125 746
343.75 148.438 752
250 93.75 719
257.812 -195.312 757
273.438 -54.6875 683
492.188 -31.25 643
242.188 -39.0625 682
382.812 -343.75 644
468.75 -203.125 710
23.4375 -312.5 847
265.625 46.875 670
156.25 414.062 1288
406.25 -312.5 643
39.0625 312.5 956
164.062 -93.75 714
257.812 -187.5 754
70.3125 46.875 710
226.562 -156.25 744
46.875 -70.3125 690
-125 -85.9375 841
312.5 -15.625 661
54.6875 -7.8125 697
-85.9375 -31.25 851
234.375 101.562 785
-226.562 23.4375 875
125 -234.375 764
265.625 -437.5 837
250 -31.25 674
351.562 125 739
-93.75 312.5 973
187.5 70.3125 730
250 359.375 1197
273.438 -62.5 684
117.188 156.25 767
-234.375 289.062 973
23.4375 156.25 778
23.4375 31.25 728
-31.25 -62.5 691
140.625 -101.562 717
492.188 -179.688 716
31.25 -78.125 691
382.812 195.312 730
226.562 31.25 744
492.188 171.875 723
484.375 -218.75 703
234.375 242.188 851
70.3125 -265.625 811
218.75 -296.875 833
234.375 234.375 833
-7.8125 78.125 742
203.125 78.125 800
78.125 7.8125 711
148.438 78.125 722
250 62.5 690
195.312 -359.375 875
-23.4375 273.438 910
226.562 -148.438 923
445.312 -343.75 624
125 -242.188 1016
179.688 62.5 728
-109.375 273.438 925
312.5 -382.812 887
62.5 -7.8125 697
328.125 -382.812 882
445.312 -23.4375 648
-140.625 -179.688 785
7.8125 101.562 741
-109.375 -54.6875 837
460.938 140.625 744
218.75 -218.75 780
289.062 132.812 750
-125 -171.875 780
62.5 93.75 725
445.312 132.812 749
-70.3125 109.375 809
132.812 -234.375 1004
-109.375 -101.562 722
265.625 -132.812 720
367.188 -23.4375 657
445.312 -203.125 710
203.125 15.625 731
31.25 46.875 723
78.125 -78.125 706
70.3125 101.562 723
23.4375 312.5 956
265.625 15.625 657
375 195.312 730
328.125 -15.625 659
31.25 125 747
62.5 -203.125 835
-125 -93.75 843
93.75 312.5 948
226.562 -250 798
359.375 39.0625 661
-39.0625 312.5 978
93.75 148.438 774
382.812 -335.938 650
265.625 -125 717
406.25 -23.4375 652
148.438 148.438 769
210.938 -437.5 951
117.188 23.4375 708
492.188 148.438 734
39.0625 320.312 1153
-62.5 304.688 964
39.0625 -54.6875 701
351.562 218.75 741
85.9375 -70.3125 704
218.75 320.312 1025
257.812 93.75 711
31.25 93.75 736
-62.5 312.5 964
31.25 -23.4375 700
62.5 0 697
257.812 234.375 750
-179.688 78.125 837
125 93.75 719
390.625 -23.4375 654
0 78.125 741
335.938 -15.625 657
0 85.9375 741
273.438 203.125 741
-117.188 273.438 925
-429.688 203.125 802
23.4375 109.375 742
-343.75 195.312 789
-148.438 195.312 774
351.562 -23.4375 658
117.188 -242.188 1016
242.188 -132.812 723
-132.812 -187.5 785
31.25 39.0625 717
164.062 195.312 746
-93.75 -132.812 739
93.75 406.25 1307
62.5 -39.0625 694
101.562 70.3125 711
187.5 289.062 923
203.125 289.062 918
78.125 -31.25 693
375 -15.625 653
210.938 -257.812 1013
54.6875 -46.875 696
429.688 7.8125 641
132.812 -109.375 704
304.688 -15.625 662
148.438 -93.75 713
-171.875 359.375 1328
164.062 -203.125 742
171.875 304.688 946
210.938 -398.438 915
218.75 -203.125 771
-15.625 54.6875 750
-117.188 -164.062 773
78.125 -39.0625 693
210.938 -85.9375 889
-85.9375 -39.0625 847
31.25 132.812 752
265.625 -15.625 666
0 312.5 964
-179.688 203.125 774
414.062 179.688 730
218.75 -62.5 875
242.188 210.938 742
296.875 -15.625 663
-31.25 -85.9375 698
164.062 -210.938 984
156.25 -218.75 989
-93.75 195.312 769
93.75 -39.0625 693
31.25 312.5 956
242.188 203.125 741
484.375 187.5 723
476.562 -31.25 649
-101.562 -85.9375 722
-54.6875 -101.562 708
-445.312 -85.9375 981
70.3125 312.5 948
-23.4375 -85.9375 696
218.75 296.875 935
85.9375 -273.438 1047
234.375 -195.312 764
70.3125 -85.9375 694
273.438 -70.3125 690
320.312 15.625 650
242.188 -296.875 827
257.812 -195.312 757
54.6875 0 701
218.75 -210.938 774
117.188 -250 1025
31.25 -304.688 841
15.625 320.312 1157
-351.562 -203.125 1060
242.188 -140.625 730
-117.188 -70.3125 837
171.875 78.125 728
54.6875 78.125 722
62.5 -46.875 696
-437.5 -109.375 995
484.375 0 637
281.25 54.6875 674
-117.188 312.5 978
171.875 -156.25 722
203.125 62.5 736
203.125 390.625 1189
93.75 -242.188 794
-390.625 273.438 1748
468.75 0 638
140.625 0 714
203.125 70.3125 730
39.0625 54.6875 719
257.812 -15.625 666
453.125 179.688 727
273.438 -62.5 684
257.812 -54.6875 686
93.75 -265.625 1038
-39.0625 -101.562 714
62.5 -54.6875 698
0 -70.3125 690
-335.938 210.938 794
-468.75 179.688 809
273.438 -54.6875 683
-171.875 -234.375 829
93.75 101.562 720
-31.25 273.438 910
-257.812 312.5 1073
453.125 -15.625 644
242.188 -304.688 831
93.75 -78.125 706
203.125 -78.125 887
-210.938 375 1193
70.3125 -39.0625 693
250 -85.9375 700
218.75 -304.688 837
7.8125 7.8125 736
101.562 85.9375 716
265.625 -140.625 725
351.562 -7.8125 653
-289.062 203.125 785
-46.875 304.688 964
23.4375 101.562 741
15.625 23.4375 734
437.5 -343.75 624
7.8125 78.125 741
265.625 117.188 733
-39.0625 -93.75 708
226.562 -242.188 792
281.25 -343.75 858
0 406.25 1328
367.188 -15.625 654
54.6875 -15.625 694
-140.625 375 1365
250 31.25 670
-70.3125 406.25 1328
62.5 312.5 951
421.875 31.25 652
-23.4375 312.5 967
234.375 -31.25 785
257.812 -39.0625 676
367.188 203.125 730
265.625 39.0625 663
195.312 289.062 918
476.562 -226.562 698
398.438 -23.4375 653
-31.25 312.5 978
359.375 -7.8125 653
273.438 -7.8125 661
46.875 -39.0625 696
421.875 -23.4375 650
203.125 -453.125 970
39.0625 -23.4375 698
132.812 93.75 719
367.188 195.312 730
242.188 -62.5 693
-93.75 273.438 918
265.625 0 659
-101.562 -46.875 841
117.188 85.9375 717
179.688 195.312 746
289.062 289.062 1126
398.438 179.688 731
390.625 179.688 733
242.188 218.75 747
265.625 7.8125 657
7.8125 273.438 869
203.125 328.125 1038
312.5 15.625 650
46.875 304.688 956
78.125 0 755
-328.125 -39.0625 923
218.75 -343.75 864
-210.938 -179.688 1013
-210.938 -179.688 1013
476.562 -414.062 609
148.438 117.188 785
257.812 367.188 1197
-125 -179.688 780
195.312 304.688 938
78.125 -15.625 691
140.625 -70.3125 703
-85.9375 -132.812 739
-273.438 304.688 989
187.5 148.438 767
265.625 31.25 658
-117.188 93.75 823
-85.9375 -125 727
234.375 -46.875 862
343.75 15.625 648
-492.188 -445.312 1959
-460.938 -39.0625 943
54.6875 70.3125 717
210.938 296.875 935
31.25 140.625 783
-39.0625 304.688 964
140.625 -101.562 717
164.062 304.688 946
218.75 70.3125 803
250 46.875 682
226.562 257.812 869
257.812 -23.4375 668
-117.188 -132.812 754
-140.625 -195.312 790
218.75 304.688 943
-453.125 187.5 803
484.375 -31.25 649
296.875 -125 714
218.75 46.875 742
46.875 -218.75 843
-312.5 242.188 908
382.812 -312.5 671
-125 -85.9375 841
179.688 -78.125 710
23.4375 117.188 742
460.938 54.6875 672
273.438 -15.625 664
218.75 23.4375 744
-125 -93.75 843
0 23.4375 752
-15.625 46.875 755
78.125 78.125 713
343.75 234.375 1404
-375 -375 2103
85.9375 70.3125 711
78.125 -187.5 825
210.938 382.812 1173
-132.812 -453.125 2812
203.125 54.6875 736
210.938 -70.3125 880
273.438 -78.125 693
273.438 -70.3125 690
101.562 -164.062 733
359.375 195.312 731
31.25 -31.25 700
-148.438 -226.562 845
31.25 -234.375 858
-15.625 54.6875 750
359.375 -15.625 654
109.375 195.312 750
257.812 -351.562 864
460.938 296.875 1283
-226.562 351.562 1153
15.625 109.375 741
-15.625 78.125 746
296.875 203.125 738
257.812 -203.125 762
156.25 195.312 747
250 -78.125 696
39.0625 23.4375 716
265.625 -132.812 720
218.75 -351.562 869
250 -250 792
156.25 -132.812 710
-265.625 -453.125 2789
265.625 242.188 1421
148.438 54.6875 716
-250 328.125 1087
414.062 -351.562 620
203.125 -85.9375 889
-273.438 -453.125 2767
-54.6875 -85.9375 698
218.75 -335.938 860
15.625 -46.875 706
31.25 242.188 856
484.375 242.188 1245
-109.375 -62.5 835
-484.375 31.25 901
390.625 117.188 731
187.5 -70.3125 736
382.812 -320.312 664
281.25 187.5 741
-62.5 -125 835
54.6875 78.125 722
54.6875 -54.6875 698
351.562 195.312 731
-117.188 195.312 771
343.75 140.625 755
-187.5 -7.8125 887
257.812 85.9375 703
-46.875 -93.75 707
250 -242.188 787
-23.4375 54.6875 755
492.188 -31.25 643
234.375 257.812 869
179.688 289.062 920
234.375 -101.562 708
226.562 -31.25 781
367.188 -7.8125 650
234.375 -62.5 693
414.062 -23.4375 650
-164.062 -226.562 833
226.562 -39.0625 774
195.312 -78.125 887
-85.9375 273.438 913
-78.125 273.438 913
78.125 -281.25 1054
-187.5 367.188 1273
-359.375 -414.062 2065
218.75 328.125 1041
265.625 -117.188 714
-39.0625 -62.5 693
437.5 -15.625 646
-125 -78.125 839
93.75 -171.875 733
62.5 -93.75 694
187.5 406.25 1288
382.812 179.688 733
148.438 -93.75 713
-62.5 273.438 913
453.125 -218.75 700
-500 54.6875 889
210.938 304.688 948
257.812 -148.438 730
171.875 195.312 746
468.75 -234.375 690
132.812 195.312 749
187.5 304.688 943
273.438 -31.25 671
-125 -203.125 862
375 -23.4375 655
414.062 -210.938 704
-492.188 54.6875 887
140.625 304.688 946
453.125 -23.4375 648
109.375 54.6875 708
132.812 -101.562 716
250 -93.75 704
-15.625 39.0625 757
101.562 54.6875 707
-265.625 -421.875 2812
109.375 85.9375 717
0 85.9375 741
468.75 -414.062 611
414.062 -414.062 616
23.4375 31.25 728
39.0625 -304.688 1087
289.062 187.5 739
31.25 39.0625 717
140.625 195.312 747
125 195.312 749
468.75 -31.25 650
257.812 -31.25 674
296.875 187.5 739
296.875 -15.625 663
460.938 0 638
289.062 203.125 738
15.625 312.5 959
-7.8125 62.5 747
359.375 62.5 680
-398.438 187.5 798
62.5 93.75 725
-234.375 203.125 780
-468.75 -15.625 930
-109.375 273.438 925
-171.875 -250 837
242.188 -117.188 713
171.875 289.062 923
468.75 70.3125 684
328.125 15.625 650
7.8125 312.5 962
101.562 78.125 713
257.812 -117.188 714
484.375 171.875 728
289.062 257.812 1398
-132.812 -203.125 858
-421.875 -265.625 2680
31.25 250 869
15.625 23.4375 734
343.75 226.562 741
218.75 -328.125 851
-117.188 -93.75 843
31.25 109.375 741
-78.125 296.875 964
382.812 -328.125 653
-500 85.9375 867
-500 78.125 873
85.9375 -70.3125 704
335.938 -23.4375 662
-382.812 406.25 1594
-398.438 406.25 1594
289.062 210.938 739
62.5 -15.625 693
265.625 -140.625 725
460.938 70.3125 684
179.688 304.688 943
187.5 70.3125 730
171.875 -187.5 730
-7.8125 70.3125 746
242.188 -289.062 821
390.625 -23.4375 654
375 195.312 730
257.812 398.438 1241
171.875 -218.75 987
-117.188 -78.125 839
273.438 -85.9375 698
476.562 -31.25 649
140.625 78.125 720
484.375 257.812 1223
39.0625 46.875 717
328.125 -23.4375 663
54.6875 78.125 722
273.438 -78.125 693
171.875 296.875 935
382.812 -23.4375 655
-7.8125 46.875 750
62.5 7.8125 701
335.938 -7.8125 654
203.125 312.5 946
453.125 0 640
250 -257.812 798
-132.812 312.5 1177
234.375 -109.375 898
-117.188 -117.188 847
250 -109.375 714
93.75 -62.5 698
-476.562 7.8125 903
398.438 -406.25 621
335.938 398.438 1268
-171.875 203.125 776
398.438 7.8125 648
273.438 187.5 744
304.688 398.438 1273
-296.875 -421.875 2958
343.75 265.625 1370
359.375 195.312 736
484.375 117.188 752
7.8125 304.688 962
453.125 187.5 730
-125 -195.312 787
171.875 304.688 948
250 23.4375 821
-39.0625 -70.3125 700
312.5 23.4375 662
484.375 -414.062 606
460.938 -31.25 649
-54.6875 -93.75 703
187.5 289.062 940
-132.812 242.188 891
62.5 85.9375 734
398.438 140.625 747
109.375 -187.5 803
46.875 140.625 781
-101.562 -179.688 875
-437.5 289.062 1731
203.125 23.4375 730
23.4375 117.188 747
78.125 312.5 964
39.0625 312.5 967
156.25 -85.9375 704
492.188 -375 611
265.625 -23.4375 668
15.625 109.375 746
257.812 117.188 774
-62.5 320.312 1165
46.875 62.5 734
-23.4375 343.75 1376
62.5 70.3125 731
46.875 312.5 967
265.625 46.875 693
234.375 265.625 898
218.75 -54.6875 738
242.188 226.562 750
125 148.438 767
7.8125 62.5 746
234.375 242.188 869
265.625 265.625 1138
398.438 -367.188 636
218.75 -62.5 736
-93.75 -31.25 854
93.75 195.312 752
343.75 -7.8125 652
257.812 -210.938 764
156.25 -156.25 716
312.5 140.625 757
-328.125 335.938 1663
-70.3125 296.875 973
-500 335.938 1680
218.75 -46.875 736
39.0625 132.812 787
367.188 195.312 734
-109.375 -62.5 839
406.25 226.562 1376
445.312 -23.4375 647
273.438 -46.875 676
437.5 132.812 747
289.062 125 752
-125 -179.688 783
125 -93.75 707
179.688 -62.5 741
-125 250 896
-125 -109.375 851
7.8125 46.875 749
-78.125 -117.188 719
257.812 93.75 730
-257.812 -453.125 2812
-375 304.688 1705
-367.188 -359.375 2170
304.688 -15.625 662
210.938 -85.9375 887
203.125 54.6875 734
85.9375 -171.875 841
468.75 187.5 728
31.25 39.0625 738
-39.0625 -85.9375 700
484.375 -31.25 648
-70.3125 -476.562 2789
445.312 -312.5 648
445.312 -312.5 648
265.625 -31.25 671
-132.812 -468.75 2812
-15.625 -85.9375 694
328.125 195.312 739
46.875 156.25 773
-109.375 -85.9375 839
148.438 -226.562 757
468.75 -23.4375 646
343.75 195.312 736
281.25 -23.4375 666
359.375 -23.4375 655
382.812 132.812 754
-78.125 -476.562 2789
-54.6875 -70.3125 700
281.25 257.812 1398
429.688 281.25 1317
-117.188 -70.3125 839
398.438 -203.125 717
85.9375 195.312 754
453.125 -31.25 649
328.125 117.188 747
85.9375 -85.9375 707
-132.812 250 891
-15.625 54.6875 755
0 78.125 747
109.375 78.125 719
-273.438 -468.75 2701
-468.75 187.5 809
445.312 -31.25 649
-101.562 -46.875 843
429.688 187.5 728
-85.9375 -46.875 843
-171.875 -62.5 915
203.125 -54.6875 734
-54.6875 312.5 978
70.3125 70.3125 722
-179.688 70.3125 839
484.375 -210.938 716
445.312 0 643
-125 257.812 896
179.688 289.062 940
54.6875 -7.8125 704
-398.438 273.438 1748
156.25 140.625 771
351.562 195.312 736
195.312 312.5 954
195.312 54.6875 731
117.188 54.6875 711
195.312 -78.125 736
351.562 226.562 1404
-7.8125 62.5 749
70.3125 -195.312 851
257.812 85.9375 725
-132.812 273.438 878
-265.625 -414.062 2859
46.875 195.312 755
-101.562 273.438 873
78.125 15.625 711
164.062 289.062 943
351.562 -15.625 654
421.875 -15.625 647
250 54.6875 703
0 -54.6875 693
-500 -70.3125 2271
156.25 304.688 948
257.812 -203.125 759
375 179.688 734
375 179.688 734
367.188 -23.4375 654
273.438 -85.9375 696
-15.625 46.875 759
203.125 -62.5 736
-46.875 273.438 869
289.062 7.8125 657
117.188 195.312 750
265.625 367.188 1219
-70.3125 195.312 766
70.3125 195.312 755
54.6875 195.312 755
148.438 187.5 750
39.0625 31.25 734
-156.25 -218.75 811
296.875 -15.625 662
429.688 -15.625 646
445.312 -15.625 644
54.6875 -39.0625 698
320.312 -23.4375 662
78.125 31.25 711
390.625 -367.188 646
-23.4375 -62.5 696
226.562 -7.8125 738
273.438 -93.75 698
-320.312 304.688 1034
242.188 218.75 749
-93.75 -187.5 875
367.188 7.8125 650
62.5 -54.6875 698
476.562 -414.062 607
31.25 -85.9375 691
304.688 -23.4375 663
359.375 179.688 736
-468.75 -218.75 2541
250 -203.125 762
-273.438 -445.312 2767
85.9375 23.4375 710
54.6875 -289.062 833
296.875 273.438 1126
23.4375 -39.0625 741
-125 265.625 875
-39.0625 -101.562 703
-468.75 195.312 811
164.062 -226.562 995
351.562 390.625 1273
-281.25 195.312 787
476.562 171.875 728
-15.625 70.3125 749
156.25 289.062 943
437.5 70.3125 700
-7.8125 312.5 967
-164.062 -226.562 817
78.125 -179.688 849
-15.625 312.5 970
492.188 -414.062 597
171.875 289.062 940
257.812 78.125 717
257.812 -101.562 704
-328.125 187.5 790
367.188 179.688 734
7.8125 93.75 749
-117.188 -195.312 787
-125 273.438 875
23.4375 296.875 959
-281.25 -406.25 2859
476.562 179.688 727
179.688 -93.75 713
453.125 -171.875 719
195.312 -359.375 1108
484.375 -406.25 604
468.75 -31.25 648
70.3125 93.75 734
414.062 62.5 691
187.5 312.5 1134
164.062 304.688 948
-265.625 -421.875 2789
148.438 304.688 948
7.8125 101.562 746
78.125 39.0625 711
179.688 312.5 1134
23.4375 312.5 967
304.688 15.625 657
281.25 -23.4375 666
-132.812 265.625 878
-281.25 -468.75 2701
218.75 39.0625 741
54.6875 15.625 716
93.75 70.3125 717
-171.875 -234.375 823
-359.375 187.5 794
335.938 195.312 738
78.125 -281.25 819
46.875 54.6875 733
-343.75 320.312 1680
257.812 187.5 744
406.25 195.312 733
78.125 -85.9375 697
-117.188 -78.125 841
-460.938 218.75 1823
179.688 78.125 728
85.9375 78.125 722
171.875 304.688 948
242.188 -78.125 880
46.875 62.5 734
7.8125 54.6875 747
-31.25 304.688 975
-23.4375 -93.75 696
-70.3125 273.438 871
375 390.625 1264
203.125 62.5 730
-117.188 304.688 975
-140.625 367.188 1370
460.938 39.0625 670
0 78.125 747
351.562 -7.8125 652
265.625 -46.875 676
-343.75 -406.25 2065
273.438 -62.5 683
343.75 -15.625 655
132.812 -242.188 1013
210.938 289.062 943
-93.75 273.438 873
-54.6875 -78.125 700
-109.375 -156.25 766
70.3125 -289.062 833
-148.438 101.562 819
62.5 195.312 755
351.562 281.25 1359
-382.812 -406.25 2065
-375 -375 2143
398.438 -375 636
15.625 54.6875 744
-390.625 289.062 1722
437.5 -23.4375 647
62.5 85.9375 734
234.375 23.4375 741
335.938 -15.625 655
156.25 304.688 948
226.562 -15.625 738
257.812 304.688 943
-78.125 -31.25 854
132.812 312.5 1141
265.625 -156.25 733
54.6875 70.3125 734
265.625 -7.8125 664
421.875 -31.25 652
460.938 -31.25 649
-171.875 -242.188 831
234.375 15.625 742
421.875 -7.8125 644
164.062 -203.125 739
-281.25 -398.438 2883
-117.188 -171.875 774
320.312 -7.8125 655
234.375 210.938 752
187.5 -203.125 738
-70.3125 -109.375 711
-265.625 -414.062 2859
234.375 -156.25 731
-70.3125 312.5 1165
421.875 -23.4375 649
-273.438 -437.5 2789
312.5 -23.4375 662
85.9375 -273.438 811
62.5 0 706
445.312 15.625 652
195.312 62.5 730
-164.062 62.5 841
281.25 117.188 747
54.6875 -210.938 867
-31.25 -62.5 697
179.688 62.5 728
-31.25 -54.6875 778
492.188 117.188 746
23.4375 -46.875 746
-218.75 -468.75 2812
15.625 -7.8125 741
289.062 -23.4375 664
179.688 140.625 769
242.188 -140.625 723
296.875 -23.4375 663
476.562 -31.25 648
-226.562 289.062 989
453.125 -31.25 649
148.438 54.6875 717
257.812 109.375 778
148.438 289.062 940
343.75 -23.4375 658
-93.75 -78.125 839
78.125 -187.5 849
-117.188 -164.062 773
-273.438 -468.75 2701
281.25 -31.25 668
-125 -468.75 2812
-312.5 195.312 789
78.125 195.312 755
-492.188 359.375 1655
328.125 -15.625 658
445.312 -414.062 611
320.312 -85.9375 690
-70.3125 -7.8125 869
179.688 304.688 948
359.375 140.625 752
39.0625 -296.875 839
-109.375 70.3125 827
328.125 195.312 739
390.625 195.312 734
226.562 -78.125 882
-382.812 -398.438 2090
250 101.562 783
171.875 398.438 1302
148.438 85.9375 723
-7.8125 62.5 749
226.562 398.438 1219
179.688 -210.938 738
210.938 367.188 1157
101.562 -250 796
289.062 281.25 1126
250 367.188 1223
125 54.6875 711
-31.25 -93.75 698
226.562 7.8125 746
320.312 195.312 739
62.5 -296.875 833
328.125 -7.8125 655
62.5 70.3125 731
31.25 195.312 759
382.812 7.8125 648
429.688 -23.4375 648
164.062 117.188 781
164.062 289.062 943
7.8125 62.5 746
85.9375 93.75 727
414.062 -23.4375 649
109.375 7.8125 711
-320.312 343.75 1647
-46.875 -109.375 707
93.75 -171.875 730
437.5 -31.25 649
-46.875 -62.5 776
375 -23.4375 654
-23.4375 -62.5 696
0 312.5 967
54.6875 70.3125 734
140.625 312.5 1149
257.812 70.3125 706
250 187.5 744
359.375 -23.4375 655
140.625 289.062 940
492.188 179.688 722
62.5 85.9375 734
-257.812 195.312 785
85.9375 -78.125 704
39.0625 -23.4375 731
164.062 304.688 948
351.562 -23.4375 657
132.812 -117.188 704
-109.375 -62.5 839
273.438 -93.75 698
414.062 187.5 730
468.75 -414.062 609
62.5 335.938 1370
312.5 85.9375 716
-171.875 335.938 1328
-101.562 -93.75 841
39.0625 125 755
23.4375 -320.312 864
54.6875 312.5 962
-70.3125 -125 716
46.875 46.875 728
406.25 -15.625 648
140.625 -109.375 716
-367.188 -351.562 2184
-273.438 -460.938 2701
484.375 -351.562 628
210.938 -62.5 736
15.625 -85.9375 693
445.312 -31.25 649
195.312 195.312 747
7.8125 195.312 761
468.75 93.75 722
-93.75 -46.875 843
70.3125 93.75 734
140.625 -242.188 1013
273.438 179.688 744
-242.188 195.312 781
101.562 195.312 752
210.938 39.0625 734
-289.062 195.312 789
7.8125 93.75 749
398.438 -15.625 649
148.438 304.688 948
109.375 -46.875 696
70.3125 15.625 713
312.5 195.312 739
312.5 179.688 739
31.25 234.375 862
70.3125 0 706
-46.875 312.5 975
273.438 -70.3125 687
484.375 -23.4375 644
-93.75 -39.0625 851
476.562 109.375 734
-70.3125 343.75 1381
-218.75 320.312 1161
-359.375 -406.25 2065
-304.688 195.312 789
242.188 46.875 809
-500 85.9375 864
484.375 179.688 727
289.062 0 657
85.9375 78.125 722
132.812 304.688 948
46.875 -15.625 728
242.188 187.5 744
-375 -367.188 2156
-445.312 187.5 805
257.812 -210.938 764
492.188 -23.4375 638
85.9375 31.25 710
31.25 312.5 967
351.562 312.5 1328
406.25 187.5 730
460.938 93.75 722
304.688 195.312 739
-281.25 -460.938 2723
304.688 273.438 1376
46.875 -46.875 700
70.3125 -273.438 819
148.438 -101.562 711
328.125 195.312 739
164.062 70.3125 723
-398.438 218.75 809
421.875 -406.25 610
101.562 -257.812 796
195.312 -351.562 1094
312.5 390.625 1278
78.125 -265.625 811
39.0625 234.375 862
398.438 187.5 731
414.062 -31.25 652
85.9375 70.3125 719
-250 382.812 1210
46.875 23.4375 719
195.312 62.5 730
-390.625 226.562 908
-39.0625 312.5 975
125 78.125 719
125 304.688 948
15.625 101.562 744
-46.875 -78.125 701
-468.75 226.562 1823
54.6875 46.875 722
429.688 -7.8125 644
343.75 195.312 736
429.688 46.875 679
156.25 289.062 943
-203.125 289.062 984
-179.688 195.312 778
187.5 -195.312 736
437.5 -203.125 719
375 7.8125 650
46.875 312.5 967
367.188 -23.4375 654
156.25 -218.75 746
140.625 304.688 948
-39.0625 -78.125 698
-343.75 304.688 1041
148.438 -78.125 704
273.438 -101.562 703
484.375 -414.062 606
70.3125 -31.25 694
62.5 31.25 713
-500 304.688 1713
492.188 -210.938 717
132.812 0 713
109.375 0 711
273.438 85.9375 714
320.312 195.312 739
210.938 304.688 956
0 78.125 747
148.438 195.312 749
203.125 -312.5 845
-54.6875 -109.375 707
359.375 203.125 739
-39.0625 -62.5 700
250 -156.25 731
101.562 31.25 708
335.938 -421.875 813
-39.0625 328.125 1165
320.312 -15.625 658
140.625 -234.375 757
-429.688 250 1785
187.5 78.125 728
-39.0625 -109.375 707
476.562 -414.062 607
-312.5 -468.75 2883
289.062 15.625 658
23.4375 117.188 747
-54.6875 -320.312 862
-78.125 -15.625 875
-500 -117.188 2349
-312.5 -414.062 3037
-125 -93.75 847
156.25 304.688 948
15.625 312.5 1157
429.688 -31.25 650
-7.8125 15.625 762
328.125 -320.312 829
406.25 281.25 1349
476.562 0 641
320.312 140.625 755
-109.375 -54.6875 841
117.188 312.5 1141
476.562 140.625 741
23.4375 -85.9375 693
-148.438 -429.688 2908
273.438 125 769
250 281.25 928
351.562 226.562 1404
-23.4375 312.5 978
390.625 382.812 1273
62.5 109.375 747
265.625 93.75 730
265.625 -148.438 727
-62.5 -7.8125 871
281.25 -31.25 668
171.875 312.5 1134
-70.3125 -15.625 875
93.75 -70.3125 700
-46.875 320.312 1165
-85.9375 312.5 1173
187.5 62.5 728
-117.188 265.625 875
46.875 117.188 750
382.812 117.188 744
31.25 -234.375 885
-23.4375 101.562 805
140.625 421.875 1292
453.125 -179.688 723
-273.438 -437.5 2789
-242.188 -453.125 2859
