ply
format ascii 1.0
comment Created by Open3D
element vertex 2390
property double x
property double y
property double z
end_header
164.062 203.125 1028
312.5 351.562 1328
179.688 218.75 1232
85.9375 226.562 1022
195.312 -101.562 878
203.125 -140.625 873
62.5 304.688 1181
-273.438 304.688 1757
398.438 -242.188 837
-39.0625 -289.062 959
414.062 -31.25 882
132.812 -125 975
101.562 289.062 1185
179.688 265.625 1202
54.6875 273.438 1489
265.625 -7.8125 862
257.812 250 1219
-195.312 320.312 1731
78.125 429.688 1292
242.188 218.75 1236
343.75 -289.062 908
265.625 -359.375 1034
281.25 -304.688 873
15.625 281.25 1470
101.562 421.875 1297
320.312 156.25 1050
-54.6875 304.688 1452
156.25 406.25 1307
125 148.438 933
242.188 250 1206
257.812 -367.188 1041
265.625 -85.9375 871
148.438 15.625 849
-46.875 273.438 1496
273.438 -421.875 1101
85.9375 265.625 1483
-312.5 -257.812 1283
125 62.5 851
-218.75 117.188 825
218.75 257.812 1193
125 226.562 1255
0 296.875 1464
-7.8125 328.125 1421
203.125 234.375 1236
-23.4375 296.875 1470
-46.875 328.125 1421
210.938 -242.188 851
-265.625 328.125 1722
281.25 234.375 1210
-398.438 242.188 1873
7.8125 -226.562 1001
70.3125 296.875 1181
296.875 -218.75 880
437.5 -23.4375 891
-23.4375 265.625 1516
23.4375 312.5 1439
234.375 203.125 1236
375 132.812 1054
15.625 289.062 1464
7.8125 289.062 1470
328.125 281.25 1236
164.062 234.375 1227
78.125 304.688 1185
195.312 265.625 1206
226.562 250 1206
-210.938 320.312 1722
23.4375 -187.5 970
375 140.625 1057
39.0625 281.25 1189
-7.8125 250 1001
406.25 -335.938 933
-242.188 187.5 1970
54.6875 304.688 1181
203.125 203.125 1273
164.062 218.75 1245
351.562 203.125 1145
226.562 234.375 1210
-398.438 -210.938 2984
101.562 31.25 843
-328.125 273.438 1813
210.938 125 948
-320.312 140.625 819
171.875 -125 885
140.625 210.938 1022
70.3125 250 1516
218.75 234.375 1210
39.0625 78.125 849
226.562 226.562 1241
234.375 250 1206
-398.438 257.812 1863
203.125 -78.125 887
195.312 242.188 1206
125 257.812 1197
78.125 -125 984
85.9375 296.875 1185
-93.75 117.188 898
210.938 210.938 1245
-15.625 320.312 1427
218.75 226.562 1241
195.312 195.312 1031
-390.625 -31.25 2467
195.312 -328.125 962
70.3125 242.188 1516
7.8125 312.5 1439
-54.6875 -187.5 1087
-70.3125 351.562 1101
171.875 218.75 1232
132.812 -335.938 1004
296.875 164.062 1054
140.625 281.25 1197
-70.3125 382.812 1130
179.688 -359.375 1283
109.375 234.375 1250
7.8125 -273.438 948
-15.625 -265.625 967
70.3125 -210.938 970
445.312 -429.688 894
23.4375 445.312 1288
390.625 -15.625 882
195.312 234.375 1227
265.625 242.188 1227
15.625 312.5 1439
132.812 218.75 1022
-296.875 195.312 1959
273.438 367.188 1317
226.562 -101.562 860
-359.375 320.312 1748
468.75 -343.75 933
-359.375 203.125 1947
-23.4375 320.312 1433
-62.5 109.375 898
54.6875 -195.312 956
382.812 -187.5 887
125 281.25 1202
164.062 -78.125 928
62.5 429.688 1297
156.25 218.75 1245
234.375 195.312 1268
156.25 226.562 1232
85.9375 226.562 1025
-70.3125 273.438 1010
390.625 -343.75 954
210.938 390.625 1312
31.25 257.812 1245
0 54.6875 843
171.875 -265.625 833
-257.812 328.125 1731
343.75 -148.438 875
-484.375 -406.25 2349
203.125 -101.562 871
132.812 289.062 1193
-31.25 304.688 1169
250 23.4375 871
250 226.562 1241
-62.5 367.188 1108
304.688 -406.25 1084
187.5 218.75 1236
-367.188 335.938 1722
93.75 265.625 1219
140.625 -179.688 935
109.375 289.062 1189
289.062 -117.188 860
-406.25 320.312 1757
476.562 -109.375 923
359.375 -132.812 878
195.312 -414.062 1173
-351.562 -226.562 2984
-31.25 257.812 1016
203.125 -257.812 837
468.75 -109.375 913
101.562 242.188 1232
-250 328.125 1722
101.562 289.062 1193
250 250 1214
85.9375 273.438 1202
-500 257.812 1873
7.8125 320.312 1177
171.875 203.125 1041
343.75 -132.812 873
437.5 -101.562 915
210.938 -101.562 867
-398.438 250 1873
-476.562 -367.188 2184
-39.0625 335.938 1177
164.062 406.25 1307
328.125 -140.625 871
-140.625 164.062 915
218.75 -390.625 1119
140.625 250 1219
210.938 265.625 1189
-187.5 320.312 1731
31.25 -265.625 928
-476.562 -343.75 2090
257.812 242.188 1202
-39.0625 -304.688 962
140.625 -234.375 880
-476.562 -375 2212
-406.25 328.125 1757
-351.562 203.125 1959
-304.688 195.312 1959
273.438 171.875 1044
31.25 289.062 1181
23.4375 304.688 1185
210.938 257.812 1202
85.9375 265.625 1214
140.625 257.812 1223
117.188 265.625 1197
406.25 23.4375 962
187.5 -328.125 973
234.375 -109.375 864
367.188 273.438 1273
343.75 187.5 1126
218.75 7.8125 862
187.5 273.438 1206
242.188 257.812 1206
375 46.875 975
15.625 -132.812 1013
109.375 421.875 1297
218.75 -234.375 849
171.875 250 1202
265.625 -195.312 860
125 -273.438 854
203.125 -187.5 873
-289.062 195.312 1959
101.562 234.375 1241
265.625 250 1202
453.125 187.5 1464
328.125 -304.688 933
132.812 234.375 1232
117.188 -148.438 956
320.312 328.125 1288
148.438 -265.625 839
187.5 398.438 1312
70.3125 -187.5 962
0 250 1016
234.375 250 1210
398.438 -93.75 913
-179.688 -289.062 1307
39.0625 -343.75 1031
335.938 234.375 1181
-62.5 304.688 1197
187.5 -93.75 891
93.75 -132.812 998
78.125 -195.312 970
164.062 -437.5 1236
-328.125 187.5 1970
335.938 -414.062 1087
-15.625 289.062 1210
93.75 234.375 1245
-7.8125 328.125 1173
109.375 281.25 1193
109.375 296.875 1189
46.875 304.688 1181
140.625 -242.188 875
289.062 -296.875 880
54.6875 -109.375 978
218.75 250 1206
406.25 203.125 1464
468.75 171.875 1439
109.375 257.812 1219
-476.562 -171.875 2184
414.062 -242.188 829
-39.0625 296.875 1206
-62.5 335.938 1177
250 179.688 1041
39.0625 304.688 1181
-351.562 335.938 1722
-343.75 335.938 1722
390.625 250 1433
234.375 -62.5 878
0 296.875 1181
335.938 -148.438 875
156.25 273.438 1193
296.875 -54.6875 898
78.125 250 1227
-15.625 320.312 1177
218.75 203.125 1268
234.375 -250 856
187.5 -78.125 901
210.938 -335.938 951
195.312 -46.875 901
54.6875 437.5 1292
-46.875 281.25 1206
140.625 -265.625 843
-54.6875 398.438 1149
148.438 273.438 1193
-453.125 -15.625 2450
320.312 -406.25 1073
-382.812 -46.875 2541
93.75 257.812 1219
23.4375 -125 1001
296.875 -15.625 871
148.438 -257.812 837
195.312 -132.812 873
-31.25 437.5 1302
296.875 -148.438 856
-343.75 203.125 1936
164.062 -328.125 989
46.875 281.25 1219
39.0625 250 1022
117.188 257.812 1223
187.5 234.375 1232
39.0625 281.25 1219
46.875 257.812 1219
-437.5 -335.938 2744
-62.5 281.25 1232
0 312.5 1177
-210.938 382.812 1639
234.375 195.312 1028
46.875 156.25 956
234.375 -218.75 845
132.812 281.25 1197
-406.25 343.75 1713
31.25 -156.25 987
-367.188 -218.75 3010
195.312 234.375 1232
-54.6875 304.688 1197
70.3125 -218.75 938
257.812 -312.5 903
335.938 -296.875 918
-70.3125 281.25 1232
187.5 -250 837
54.6875 312.5 1185
-476.562 -164.062 2184
140.625 281.25 1197
-273.438 429.688 1572
15.625 312.5 1185
-31.25 -312.5 975
-390.625 -23.4375 2467
46.875 242.188 1019
234.375 203.125 1264
117.188 218.75 1028
195.312 -257.812 837
226.562 -382.812 1108
-203.125 375 1655
-70.3125 304.688 1197
273.438 -351.562 1019
171.875 -375 1273
140.625 226.562 1264
23.4375 -187.5 967
93.75 242.188 1245
-132.812 179.688 930
281.25 234.375 1189
78.125 265.625 1214
265.625 359.375 1333
-148.438 351.562 1073
-492.188 -406.25 1904
210.938 -23.4375 875
-226.562 398.438 1624
273.438 15.625 878
-195.312 320.312 1731
210.938 203.125 1041
-31.25 296.875 1206
289.062 242.188 1185
31.25 242.188 1019
-390.625 203.125 1970
164.062 242.188 1227
171.875 273.438 1202
257.812 375 1317
93.75 273.438 1197
304.688 -234.375 901
15.625 -234.375 975
492.188 85.9375 1483
-78.125 289.062 1197
421.875 7.8125 1794
226.562 187.5 1031
273.438 218.75 1250
187.5 46.875 923
54.6875 273.438 1219
273.438 -78.125 923
-54.6875 273.438 1232
125 257.812 1223
70.3125 -125 992
171.875 46.875 860
148.438 226.562 1236
85.9375 -148.438 970
-46.875 273.438 1232
250 226.562 1241
164.062 265.625 1197
179.688 210.938 1041
281.25 187.5 1278
343.75 148.438 1050
460.938 195.312 1470
-335.938 335.938 1722
46.875 -109.375 978
304.688 226.562 1219
257.812 312.5 1398
234.375 -187.5 858
445.312 -343.75 943
273.438 23.4375 878
93.75 -187.5 967
70.3125 273.438 1219
23.4375 281.25 1214
101.562 -343.75 1028
406.25 -343.75 954
-125 125 896
132.812 250 1227
-218.75 390.625 1632
-406.25 312.5 1776
-398.438 257.812 1863
140.625 -125 981
101.562 -187.5 959
312.5 -125 864
250 -375 1057
85.9375 257.812 1223
382.812 132.812 1050
-31.25 265.625 1016
31.25 -343.75 1025
492.188 -117.188 913
242.188 164.062 1028
70.3125 296.875 1185
148.438 218.75 1028
414.062 -335.938 943
15.625 257.812 1016
179.688 -117.188 882
343.75 -62.5 898
-398.438 265.625 1853
109.375 -265.625 860
164.062 281.25 1202
-62.5 312.5 1169
289.062 -414.062 1101
-15.625 265.625 1236
54.6875 296.875 1185
15.625 265.625 1210
109.375 -101.562 962
62.5 281.25 1189
0 320.312 1173
148.438 257.812 1193
0 289.062 1210
273.438 179.688 1044
117.188 289.062 1193
-351.562 203.125 1959
171.875 -62.5 915
210.938 210.938 1245
226.562 234.375 1241
109.375 296.875 1189
281.25 -187.5 856
171.875 242.188 1227
31.25 -195.312 964
-257.812 421.875 1586
210.938 -132.812 871
187.5 265.625 1206
-437.5 -171.875 2198
164.062 -187.5 928
226.562 -453.125 1197
-31.25 257.812 1016
62.5 304.688 1185
156.25 210.938 1038
101.562 289.062 1193
273.438 210.938 1245
234.375 382.812 1317
375 140.625 1050
156.25 -117.188 975
54.6875 250 1245
234.375 -46.875 896
109.375 -117.188 978
226.562 -140.625 867
15.625 250 1016
304.688 15.625 878
156.25 -62.5 915
140.625 414.062 1302
328.125 289.062 1236
226.562 -179.688 862
132.812 414.062 1302
85.9375 429.688 1292
226.562 203.125 1273
7.8125 289.062 1206
250 320.312 1387
203.125 -281.25 869
46.875 250 1250
109.375 -125 984
445.312 7.8125 1776
351.562 210.938 1149
46.875 -351.562 1038
-484.375 -304.688 1993
218.75 265.625 1189
132.812 62.5 915
109.375 -289.062 1054
171.875 140.625 938
132.812 -117.188 975
-359.375 335.938 1722
-195.312 351.562 1688
-46.875 265.625 1010
78.125 296.875 1185
54.6875 -117.188 989
-62.5 265.625 1010
101.562 62.5 854
156.25 218.75 1038
101.562 242.188 1232
382.812 -93.75 920
-39.0625 265.625 1013
203.125 -406.25 1153
250 -320.312 915
140.625 289.062 1197
375 -414.062 943
-195.312 109.375 829
218.75 226.562 1236
101.562 234.375 1241
242.188 31.25 871
234.375 250 1210
125 -343.75 1010
62.5 234.375 1022
273.438 -218.75 847
0 250 1016
-437.5 -156.25 2212
-343.75 -234.375 2958
335.938 -125 873
-242.188 328.125 1731
-273.438 328.125 1731
187.5 -242.188 869
367.188 85.9375 1007
-7.8125 -250 973
-484.375 -328.125 2016
-250 328.125 1722
257.812 218.75 1245
265.625 234.375 1210
250 250 1214
187.5 218.75 1236
-62.5 335.938 1177
265.625 -265.625 867
-398.438 -171.875 2984
250 343.75 1359
242.188 242.188 1210
46.875 273.438 1219
-273.438 195.312 1959
-46.875 375 1370
312.5 -15.625 871
351.562 289.062 1292
-406.25 -187.5 2958
320.312 -312.5 943
15.625 93.75 908
437.5 273.438 1398
-15.625 70.3125 841
171.875 250 1202
-132.812 187.5 935
62.5 242.188 1022
78.125 -273.438 885
273.438 -85.9375 873
-367.188 312.5 1766
-164.062 312.5 1028
265.625 -85.9375 873
15.625 226.562 1007
156.25 -445.312 1255
132.812 -343.75 1004
289.062 -421.875 1119
-492.188 -85.9375 2680
-179.688 320.312 1041
171.875 -429.688 1214
-31.25 328.125 1177
445.312 -23.4375 891
429.688 -101.562 910
257.812 242.188 1202
265.625 250 1202
7.8125 93.75 908
31.25 281.25 1214
7.8125 -335.938 1013
437.5 23.4375 1739
62.5 -265.625 896
93.75 273.438 1197
140.625 54.6875 858
406.25 -242.188 831
46.875 304.688 1181
101.562 70.3125 913
-46.875 281.25 1206
281.25 -343.75 1004
-109.375 93.75 835
140.625 -273.438 843
156.25 250 1227
132.812 234.375 1232
265.625 320.312 1381
179.688 -226.562 896
171.875 203.125 1041
-54.6875 289.062 1206
109.375 -343.75 1025
226.562 382.812 1317
62.5 273.438 1219
39.0625 -343.75 1031
171.875 -187.5 923
85.9375 242.188 1245
226.562 -242.188 851
140.625 -132.812 951
117.188 257.812 1223
93.75 164.062 935
-7.8125 -171.875 1063
289.062 -125 858
-62.5 382.812 1134
-23.4375 -273.438 948
7.8125 296.875 1181
148.438 210.938 1028
460.938 296.875 1359
-320.312 -39.0625 964
195.312 -218.75 894
242.188 195.312 1028
85.9375 296.875 1197
195.312 257.812 1206
250 -453.125 1193
46.875 257.812 1219
296.875 203.125 1245
-500 -296.875 1947
367.188 -265.625 875
78.125 -359.375 1041
23.4375 -335.938 1022
148.438 242.188 1227
85.9375 39.0625 845
125 226.562 1028
242.188 218.75 1241
-23.4375 304.688 1177
218.75 -46.875 898
-46.875 242.188 1001
132.812 -335.938 1007
-15.625 296.875 1181
257.812 234.375 1214
492.188 -359.375 946
31.25 242.188 1019
-70.3125 78.125 835
250 -85.9375 873
367.188 62.5 989
429.688 -93.75 920
-234.375 234.375 1894
468.75 -351.562 951
226.562 -54.6875 887
-367.188 -179.688 3010
-46.875 273.438 1232
7.8125 281.25 1206
70.3125 -156.25 959
78.125 250 1227
-31.25 289.062 1206
54.6875 312.5 1185
265.625 -179.688 854
226.562 187.5 1031
23.4375 265.625 1219
-445.312 -343.75 2639
156.25 -335.938 989
132.812 226.562 1031
304.688 203.125 1236
195.312 265.625 1206
-210.938 312.5 1757
-257.812 328.125 1731
187.5 -234.375 869
23.4375 320.312 1185
-328.125 335.938 1722
359.375 -281.25 885
15.625 -179.688 978
203.125 242.188 1206
210.938 257.812 1202
234.375 -328.125 930
-101.562 85.9375 833
156.25 -179.688 925
359.375 -234.375 901
226.562 226.562 1236
304.688 164.062 1047
171.875 -250 833
-78.125 320.312 1054
-15.625 320.312 1177
-343.75 203.125 1936
257.812 -234.375 845
85.9375 304.688 1197
289.062 -234.375 854
289.062 343.75 1349
164.062 226.562 1232
-367.188 -187.5 3037
125 156.25 935
-390.625 -210.938 2984
335.938 242.188 1185
15.625 289.062 1185
171.875 390.625 1317
273.438 242.188 1214
484.375 164.062 1415
195.312 195.312 1031
203.125 -132.812 873
117.188 421.875 1297
62.5 304.688 1185
-7.8125 320.312 1173
421.875 203.125 1503
-46.875 328.125 1173
210.938 -250 837
39.0625 289.062 1181
335.938 0 882
296.875 234.375 1202
164.062 250 1227
250 226.562 1241
85.9375 -273.438 878
250 218.75 1241
-226.562 242.188 1873
-148.438 101.562 833
148.438 257.812 1193
195.312 -250 839
-335.938 203.125 1947
62.5 -218.75 946
93.75 226.562 1022
210.938 203.125 1041
-54.6875 312.5 1173
-156.25 335.938 1050
125 265.625 1197
-23.4375 265.625 1236
-343.75 335.938 1722
203.125 195.312 1031
-39.0625 328.125 1177
242.188 257.812 1206
195.312 273.438 1206
109.375 289.062 1189
101.562 -109.375 970
85.9375 226.562 1025
-54.6875 406.25 1161
218.75 203.125 1268
0 289.062 1210
140.625 226.562 1264
257.812 -265.625 867
132.812 281.25 1197
-125 203.125 946
62.5 437.5 1292
109.375 -273.438 858
117.188 218.75 1028
54.6875 -195.312 964
406.25 -335.938 943
-62.5 320.312 1169
-31.25 335.938 1177
218.75 39.0625 871
-484.375 -406.25 2349
-398.438 273.438 1843
234.375 226.562 1245
148.438 281.25 1193
195.312 117.188 973
210.938 -398.438 1141
-15.625 265.625 1236
484.375 -39.0625 894
429.688 7.8125 2103
171.875 242.188 1227
-46.875 304.688 1181
218.75 -335.938 943
195.312 203.125 1031
351.562 -281.25 894
179.688 265.625 1202
-62.5 281.25 1232
312.5 218.75 1219
-31.25 296.875 1206
257.812 250 1202
0 320.312 1173
210.938 234.375 1241
-62.5 359.375 1105
382.812 93.75 1016
62.5 234.375 1022
343.75 -289.062 906
195.312 234.375 1232
-7.8125 296.875 1181
-140.625 148.438 908
156.25 273.438 1193
117.188 296.875 1193
-78.125 359.375 1094
320.312 -132.812 864
-23.4375 -289.062 951
117.188 289.062 1193
312.5 -117.188 867
117.188 31.25 849
-78.125 281.25 1503
0 62.5 843
46.875 250 1250
-210.938 109.375 829
15.625 265.625 1210
62.5 109.375 925
-320.312 335.938 1722
-7.8125 273.438 1214
250 -70.3125 920
78.125 296.875 1185
78.125 289.062 1189
-171.875 101.562 831
-492.188 -70.3125 2659
-179.688 359.375 1663
0 328.125 1173
187.5 265.625 1206
234.375 -320.312 925
-468.75 -398.438 2467
-476.562 -328.125 2016
54.6875 46.875 843
70.3125 281.25 1189
-429.688 -179.688 2984
-54.6875 109.375 903
70.3125 242.188 1250
304.688 -132.812 860
93.75 273.438 1197
187.5 218.75 1236
265.625 210.938 1241
-85.9375 117.188 901
140.625 -250 845
-78.125 304.688 1047
-492.188 -304.688 1993
109.375 242.188 1227
140.625 289.062 1197
-85.9375 109.375 843
85.9375 265.625 1214
265.625 242.188 1202
-39.0625 93.75 847
250 250 1214
179.688 -250 833
226.562 7.8125 862
-281.25 320.312 1731
179.688 250 1202
93.75 296.875 1197
429.688 273.438 1404
7.8125 296.875 1181
242.188 203.125 1245
164.062 -335.938 987
-109.375 250 989
-406.25 -203.125 2883
359.375 0 885
226.562 234.375 1241
257.812 -85.9375 873
-234.375 406.25 1609
421.875 -335.938 940
273.438 210.938 1245
-281.25 335.938 1713
85.9375 234.375 1025
-23.4375 101.562 906
117.188 -179.688 951
-187.5 320.312 1731
-335.938 335.938 1722
23.4375 -187.5 967
210.938 -257.812 837
296.875 -421.875 1108
-375 -39.0625 2522
164.062 273.438 1206
15.625 289.062 1185
218.75 210.938 1245
93.75 -109.375 970
-148.438 140.625 901
242.188 -257.812 860
-31.25 257.812 1016
-476.562 -406.25 2450
210.938 -39.0625 891
-328.125 203.125 1947
296.875 -109.375 864
46.875 281.25 1219
7.8125 257.812 1016
242.188 -320.312 915
484.375 -109.375 928
187.5 -421.875 1185
250 -39.0625 889
257.812 -250 854
343.75 -445.312 1153
-39.0625 281.25 1210
351.562 281.25 1283
-117.188 226.562 967
195.312 -210.938 889
164.062 281.25 1202
445.312 15.625 1757
125 234.375 1255
-7.8125 -210.938 1004
234.375 195.312 1028
148.438 250 1219
289.062 187.5 1273
445.312 195.312 1489
218.75 -390.625 1119
492.188 -398.438 933
-62.5 265.625 1010
164.062 -343.75 987
226.562 31.25 871
148.438 23.4375 854
281.25 171.875 1044
218.75 265.625 1189
171.875 23.4375 854
0 250 1016
-406.25 328.125 1757
265.625 195.312 1278
484.375 -46.875 894
226.562 -250 856
343.75 -117.188 873
23.4375 312.5 1185
148.438 210.938 1028
343.75 195.312 1138
203.125 -210.938 889
-31.25 320.312 1177
-382.812 -210.938 2984
367.188 93.75 1016
7.8125 320.312 1177
156.25 -125 975
101.562 -148.438 1016
93.75 -343.75 1038
31.25 445.312 1288
-164.062 343.75 1680
-492.188 -281.25 1947
-46.875 -195.312 1105
39.0625 -195.312 962
-406.25 335.938 1722
179.688 46.875 918
-54.6875 335.938 1169
-62.5 328.125 1169
-171.875 320.312 1041
226.562 -125 867
226.562 257.812 1202
226.562 226.562 1236
-23.4375 304.688 1177
-484.375 -312.5 1993
-54.6875 62.5 837
-312.5 140.625 819
15.625 257.812 1016
70.3125 -101.562 967
406.25 265.625 1410
226.562 -117.188 867
367.188 289.062 1297
78.125 250 1227
7.8125 250 1016
437.5 -242.188 827
250 -210.938 845
250 218.75 1241
289.062 234.375 1189
242.188 250 1206
414.062 -148.438 873
54.6875 140.625 946
-7.8125 234.375 1004
-437.5 -226.562 2883
-70.3125 289.062 1197
406.25 -226.562 831
195.312 -226.562 862
46.875 -343.75 1038
289.062 242.188 1185
-23.4375 257.812 1013
-265.625 195.312 1959
-46.875 429.688 1189
-226.562 328.125 1731
-7.8125 320.312 1173
148.438 -343.75 992
367.188 148.438 1057
-54.6875 421.875 1177
-226.562 398.438 1624
398.438 -242.188 837
398.438 -242.188 837
117.188 -273.438 851
164.062 226.562 1232
250 195.312 1273
-54.6875 390.625 1138
-15.625 296.875 1181
-476.562 -335.938 2065
421.875 15.625 2090
398.438 15.625 951
296.875 210.938 1255
-39.0625 328.125 1177
54.6875 257.812 1219
-257.812 195.312 1959
-23.4375 328.125 1177
101.562 265.625 1219
93.75 226.562 1022
375 257.812 1273
0 265.625 1232
140.625 257.812 1223
70.3125 179.688 935
93.75 265.625 1219
109.375 289.062 1189
398.438 125 1609
39.0625 289.062 1181
179.688 203.125 1041
375 265.625 1264
132.812 -257.812 847
328.125 -406.25 1080
164.062 406.25 1307
164.062 -179.688 923
-23.4375 273.438 1210
-500 -78.125 2680
171.875 273.438 1202
390.625 250 1433
164.062 273.438 1206
23.4375 265.625 1219
218.75 234.375 1241
0 445.312 1292
203.125 242.188 1206
-375 -179.688 3010
171.875 218.75 1044
23.4375 -273.438 925
343.75 -414.062 1084
78.125 242.188 1245
0 -273.438 954
367.188 312.5 1312
195.312 46.875 923
218.75 -93.75 864
187.5 -46.875 898
140.625 -171.875 935
78.125 -101.562 964
453.125 -101.562 920
78.125 -273.438 885
250 375 1322
70.3125 -195.312 967
273.438 -265.625 867
351.562 -101.562 933
132.812 226.562 1031
54.6875 242.188 1022
156.25 281.25 1202
257.812 -265.625 867
460.938 -101.562 923
-7.8125 273.438 1214
250 -265.625 867
156.25 -328.125 992
78.125 -117.188 984
-484.375 -296.875 2016
234.375 -265.625 845
171.875 281.25 1202
148.438 281.25 1193
-492.188 -296.875 1947
335.938 -148.438 875
304.688 164.062 1047
242.188 195.312 1028
140.625 -265.625 843
132.812 -296.875 1028
-54.6875 304.688 1197
93.75 -281.25 873
140.625 234.375 1227
109.375 234.375 1255
101.562 -281.25 862
0 312.5 1177
148.438 -179.688 930
54.6875 304.688 1185
281.25 -78.125 920
445.312 -343.75 943
210.938 390.625 1312
132.812 257.812 1227
-46.875 304.688 1181
-54.6875 312.5 1173
54.6875 281.25 1189
437.5 -351.562 940
15.625 -179.688 978
101.562 296.875 1193
250 367.188 1328
156.25 -257.812 835
335.938 -257.812 935
265.625 242.188 1202
273.438 242.188 1214
335.938 -195.312 882
328.125 234.375 1189
31.25 250 1019
195.312 273.438 1206
-132.812 109.375 841
125 -335.938 1013
54.6875 -132.812 973
-117.188 242.188 981
117.188 62.5 860
437.5 -23.4375 891
78.125 -257.812 887
70.3125 281.25 1189
-78.125 312.5 1047
140.625 -132.812 951
242.188 -70.3125 871
-31.25 273.438 1210
140.625 250 1219
-179.688 359.375 1663
179.688 218.75 1264
257.812 179.688 1041
-46.875 -304.688 962
218.75 390.625 1312
-390.625 218.75 1936
445.312 312.5 1349
-62.5 375 1115
328.125 156.25 1047
375 -257.812 860
398.438 -85.9375 913
46.875 -109.375 978
234.375 218.75 1241
39.0625 281.25 1219
-320.312 132.812 817
-390.625 203.125 1970
203.125 265.625 1202
226.562 -343.75 938
125 265.625 1197
210.938 234.375 1241
414.062 23.4375 2090
46.875 437.5 1292
250 -429.688 1141
179.688 250 1202
218.75 257.812 1197
148.438 250 1219
492.188 179.688 1381
117.188 234.375 1250
62.5 304.688 1185
-62.5 343.75 1177
-476.562 -429.688 2541
-296.875 171.875 2005
39.0625 -343.75 1031
148.438 414.062 1302
-382.812 203.125 1959
-7.8125 265.625 1232
-156.25 335.938 1050
-304.688 335.938 1713
78.125 -109.375 975
31.25 320.312 1181
-46.875 437.5 1206
-171.875 351.562 1680
31.25 257.812 1245
390.625 351.562 1338
242.188 -93.75 871
320.312 335.938 1297
281.25 -125 858
343.75 328.125 1278
343.75 -125 873
15.625 312.5 1185
226.562 187.5 1031
-484.375 -78.125 2680
31.25 304.688 1185
39.0625 242.188 1022
445.312 -101.562 923
-218.75 328.125 1731
203.125 234.375 1241
-23.4375 296.875 1206
-320.312 203.125 1947
242.188 203.125 1245
218.75 210.938 1245
93.75 296.875 1197
-187.5 367.188 1655
-398.438 343.75 1722
460.938 -398.438 920
23.4375 -335.938 1022
335.938 367.188 1322
-70.3125 335.938 1063
0 328.125 1173
421.875 -93.75 920
265.625 187.5 1044
-62.5 281.25 1232
-54.6875 335.938 1169
117.188 281.25 1193
312.5 226.562 1219
125 257.812 1223
304.688 195.312 1236
390.625 -85.9375 913
-54.6875 296.875 1202
-140.625 367.188 1090
179.688 140.625 940
164.062 -335.938 987
289.062 234.375 1189
375 -398.438 954
250 31.25 930
-421.875 -148.438 2883
7.8125 289.062 1206
179.688 203.125 1041
23.4375 312.5 1185
78.125 273.438 1223
140.625 -109.375 970
117.188 296.875 1193
429.688 15.625 1739
296.875 343.75 1349
-39.0625 273.438 1210
242.188 250 1206
250 -62.5 908
289.062 398.438 1317
-70.3125 289.062 1197
437.5 -382.812 923
-39.0625 445.312 1210
234.375 234.375 1214
187.5 210.938 1259
85.9375 273.438 1202
70.3125 250 1223
93.75 242.188 1245
140.625 281.25 1197
367.188 304.688 1312
429.688 -250 833
226.562 203.125 1273
226.562 226.562 1236
484.375 -7.8125 1616
187.5 242.188 1232
-328.125 203.125 1947
164.062 218.75 1038
335.938 250 1197
171.875 265.625 1202
109.375 289.062 1189
-250 171.875 2005
-31.25 335.938 1177
-398.438 289.062 1813
250 -179.688 854
414.062 203.125 1464
117.188 257.812 1223
101.562 257.812 1219
390.625 -343.75 954
-398.438 -164.062 2958
179.688 -54.6875 906
-242.188 414.062 1586
210.938 265.625 1189
46.875 281.25 1219
39.0625 445.312 1288
-265.625 429.688 1572
-382.812 -70.3125 2618
62.5 250 1223
85.9375 304.688 1197
125 218.75 1028
281.25 171.875 1044
-54.6875 304.688 1197
-23.4375 445.312 1292
101.562 242.188 1232
132.812 289.062 1193
7.8125 320.312 1177
156.25 148.438 935
156.25 -242.188 837
54.6875 257.812 1219
-39.0625 281.25 1210
390.625 -242.188 845
-31.25 -265.625 1214
-15.625 304.688 1181
85.9375 296.875 1197
140.625 218.75 1028
31.25 242.188 1019
179.688 -70.3125 906
398.438 31.25 973
-382.812 -171.875 2984
-39.0625 328.125 1177
148.438 257.812 1193
-351.562 -218.75 2984
476.562 -351.562 954
-46.875 421.875 1177
132.812 -265.625 845
171.875 320.312 1404
15.625 445.312 1288
-23.4375 328.125 1177
-46.875 273.438 1232
-85.9375 320.312 1047
242.188 296.875 1415
-132.812 187.5 935
484.375 179.688 1381
242.188 195.312 1028
226.562 39.0625 928
125 289.062 1193
164.062 54.6875 862
164.062 273.438 1206
-93.75 -304.688 1307
265.625 -46.875 894
39.0625 429.688 1297
23.4375 62.5 845
296.875 234.375 1202
62.5 312.5 1185
54.6875 -203.125 967
62.5 265.625 1219
-203.125 367.188 1663
62.5 -117.188 987
109.375 242.188 1227
-398.438 281.25 1833
-125 203.125 946
-468.75 -78.125 2680
382.812 132.812 1050
-437.5 -171.875 2198
-7.8125 296.875 1181
242.188 210.938 1241
-70.3125 328.125 1054
-78.125 304.688 1047
109.375 -132.812 998
281.25 335.938 1354
54.6875 -109.375 978
195.312 265.625 1206
234.375 304.688 1410
117.188 312.5 1421
54.6875 -343.75 1038
46.875 -257.812 910
343.75 -148.438 875
23.4375 -210.938 1007
-117.188 125 896
-62.5 304.688 1197
-320.312 335.938 1722
242.188 -234.375 845
218.75 203.125 1268
265.625 -109.375 864
296.875 351.562 1338
289.062 -78.125 920
242.188 -375 1067
-492.188 -132.812 2859
125 250 1227
343.75 -132.812 873
234.375 -250 856
101.562 -343.75 1028
429.688 0 1794
-390.625 -132.812 2789
-218.75 109.375 827
-70.3125 281.25 1232
328.125 -23.4375 873
85.9375 164.062 933
54.6875 437.5 1292
218.75 312.5 1404
39.0625 281.25 1219
-23.4375 -312.5 981
421.875 -234.375 827
-132.812 179.688 930
-398.438 273.438 1843
140.625 148.438 935
-15.625 -320.312 992
156.25 257.812 1193
-46.875 296.875 1206
-390.625 -171.875 2984
109.375 156.25 930
218.75 -445.312 1189
226.562 257.812 1202
23.4375 85.9375 851
226.562 -328.125 940
328.125 -125 871
218.75 -328.125 946
23.4375 265.625 1219
281.25 23.4375 875
-460.938 -93.75 2680
39.0625 -234.375 954
109.375 -179.688 956
-23.4375 257.812 1013
23.4375 -265.625 935
-226.562 -273.438 1288
93.75 -351.562 1034
203.125 -328.125 956
-414.062 -218.75 2883
-171.875 -234.375 1202
375 -179.688 901
179.688 273.438 1202
-54.6875 328.125 1169
-414.062 -203.125 2883
414.062 -93.75 918
429.688 -7.8125 1794
273.438 -351.562 1019
117.188 226.562 1028
-484.375 -421.875 2485
101.562 273.438 1193
218.75 382.812 1317
46.875 -195.312 962
226.562 265.625 1189
218.75 -203.125 856
273.438 250 1202
-62.5 359.375 1105
140.625 234.375 1227
156.25 -187.5 933
250 0 864
195.312 218.75 1241
54.6875 250 1245
0 -281.25 940
-226.562 265.625 1833
-125 218.75 956
-31.25 250 1013
46.875 -265.625 908
265.625 218.75 1241
265.625 375 1317
7.8125 250 1016
-7.8125 257.812 1016
46.875 296.875 1181
-312.5 203.125 1947
-382.812 -210.938 2984
265.625 281.25 1427
-148.438 85.9375 833
203.125 265.625 1202
421.875 23.4375 1731
7.8125 -218.75 1004
390.625 -7.8125 887
-320.312 203.125 1947
203.125 382.812 1328
250 210.938 1241
-250 117.188 825
406.25 39.0625 1722
140.625 226.562 1264
93.75 226.562 1022
210.938 375 1333
85.9375 -156.25 973
-70.3125 343.75 1073
234.375 187.5 1028
179.688 234.375 1227
-429.688 -148.438 2271
179.688 242.188 1227
7.8125 -328.125 1013
257.812 -367.188 1044
203.125 226.562 1241
54.6875 304.688 1185
203.125 -257.812 837
-164.062 101.562 831
-101.562 351.562 1080
203.125 195.312 1031
164.062 -351.562 987
218.75 210.938 1245
234.375 234.375 1214
70.3125 281.25 1189
226.562 210.938 1241
148.438 226.562 1236
164.062 -460.938 1250
218.75 257.812 1197
375 335.938 1338
304.688 -421.875 1108
-289.062 132.812 819
-7.8125 265.625 1232
-140.625 164.062 915
328.125 -304.688 933
421.875 -359.375 933
156.25 265.625 1193
265.625 164.062 1041
273.438 -164.062 854
140.625 -265.625 843
-390.625 343.75 1722
-7.8125 273.438 1214
-203.125 -281.25 1302
7.8125 -164.062 989
351.562 -281.25 894
250 -226.562 845
78.125 -203.125 975
-23.4375 -273.438 948
-15.625 289.062 1210
70.3125 273.438 1219
-257.812 -265.625 1288
85.9375 250 1223
437.5 -7.8125 1794
195.312 -414.062 1173
148.438 289.062 1193
343.75 -289.062 906
492.188 -390.625 935
382.812 -250 854
70.3125 234.375 1019
-210.938 390.625 1632
453.125 -343.75 946
-476.562 -343.75 2090
-250 195.312 1947
0 257.812 1016
-39.0625 304.688 1169
132.812 -250 867
195.312 -250 839
171.875 281.25 1202
218.75 -351.562 943
-242.188 109.375 825
218.75 -125 864
78.125 78.125 913
-132.812 93.75 833
406.25 -85.9375 913
289.062 367.188 1317
242.188 -31.25 882
-492.188 -46.875 2598
-453.125 -343.75 2598
-476.562 -406.25 2450
179.688 -421.875 1193
406.25 -171.875 858
-476.562 -351.562 2116
62.5 234.375 1022
281.25 218.75 1219
132.812 156.25 935
62.5 -351.562 1041
281.25 242.188 1185
109.375 62.5 856
390.625 -351.562 964
265.625 -359.375 1031
23.4375 234.375 1016
-437.5 -351.562 2680
257.812 226.562 1232
117.188 -140.625 1004
62.5 437.5 1292
15.625 -132.812 1013
210.938 242.188 1210
125 421.875 1297
-406.25 -179.688 2958
-54.6875 265.625 1010
15.625 265.625 1210
15.625 296.875 1185
-78.125 296.875 1197
62.5 273.438 1219
85.9375 296.875 1197
0 -328.125 1004
281.25 -421.875 1119
203.125 257.812 1206
156.25 -125 975
335.938 242.188 1185
-62.5 335.938 1177
23.4375 289.062 1185
-7.8125 296.875 1181
203.125 234.375 1241
218.75 -46.875 898
70.3125 304.688 1185
-39.0625 78.125 841
78.125 -125 992
93.75 304.688 1197
-476.562 -320.312 2005
-46.875 312.5 1181
398.438 -335.938 946
46.875 289.062 1181
242.188 250 1206
-70.3125 289.062 1197
203.125 -406.25 1153
39.0625 242.188 1022
-203.125 382.812 1639
-132.812 171.875 923
-218.75 328.125 1731
250 242.188 1214
-85.9375 328.125 1054
117.188 242.188 1227
406.25 250 1433
-242.188 328.125 1731
-15.625 -312.5 989
-7.8125 320.312 1173
273.438 250 1202
156.25 210.938 1038
-15.625 273.438 1214
23.4375 257.812 1241
179.688 273.438 1202
-304.688 335.938 1713
-15.625 304.688 1181
109.375 265.625 1202
-281.25 195.312 1959
-226.562 328.125 1731
437.5 -250 831
-70.3125 328.125 1054
-296.875 335.938 1713
203.125 -132.812 873
-117.188 226.562 967
-273.438 195.312 1959
367.188 -7.8125 882
-78.125 289.062 1197
-468.75 -390.625 2522
148.438 445.312 1307
179.688 203.125 1041
218.75 203.125 1268
-500 -7.8125 2450
-375 -171.875 2984
187.5 265.625 1206
46.875 85.9375 910
359.375 -7.8125 885
296.875 -117.188 860
304.688 203.125 1236
-125 210.938 954
140.625 281.25 1197
39.0625 -109.375 981
-23.4375 257.812 1013
-62.5 312.5 1169
187.5 -203.125 885
406.25 -93.75 913
54.6875 257.812 1219
-15.625 265.625 1236
-359.375 -218.75 3010
-375 210.938 1947
-242.188 125 829
-390.625 226.562 1926
195.312 218.75 1241
289.062 -421.875 1119
-23.4375 296.875 1206
-164.062 312.5 1028
-304.688 140.625 821
-421.875 -226.562 2883
492.188 140.625 1392
54.6875 281.25 1189
117.188 421.875 1297
85.9375 242.188 1245
-109.375 250 989
375 54.6875 984
132.812 265.625 1193
-484.375 -304.688 1993
93.75 -257.812 882
101.562 296.875 1193
421.875 -335.938 940
39.0625 257.812 1245
210.938 -148.438 871
-117.188 234.375 973
250 257.812 1214
125 218.75 1028
312.5 -421.875 1108
257.812 179.688 1041
382.812 -93.75 920
187.5 242.188 1232
242.188 31.25 871
0 320.312 1173
179.688 -132.812 873
125 289.062 1193
492.188 -39.0625 894
351.562 -140.625 873
-187.5 109.375 829
453.125 39.0625 1713
125 265.625 1197
273.438 171.875 1044
-210.938 328.125 1722
226.562 -187.5 860
-140.625 148.438 908
171.875 226.562 1232
46.875 148.438 954
117.188 289.062 1193
140.625 31.25 851
351.562 328.125 1349
85.9375 70.3125 851
85.9375 289.062 1197
31.25 -343.75 1025
31.25 265.625 1219
195.312 -273.438 862
0 273.438 1210
421.875 0 1794
289.062 -335.938 989
-31.25 281.25 1210
23.4375 -125 1001
-31.25 70.3125 841
93.75 429.688 1292
257.812 218.75 1245
-273.438 335.938 1713
101.562 273.438 1193
-320.312 85.9375 843
101.562 265.625 1219
46.875 -171.875 959
-375 -210.938 3010
-320.312 70.3125 858
-242.188 195.312 1959
375 -7.8125 882
210.938 195.312 1041
328.125 296.875 1245
-39.0625 273.438 1210
257.812 -210.938 843
171.875 250 1202
343.75 281.25 1219
179.688 -265.625 839
-320.312 125 817
140.625 226.562 1264
-304.688 203.125 1947
-46.875 414.062 1165
281.25 -343.75 1004
171.875 54.6875 918
179.688 398.438 1312
187.5 273.438 1206
273.438 -414.062 1105
-54.6875 343.75 1415
-375 -218.75 2984
164.062 281.25 1202
-320.312 117.188 821
-312.5 203.125 1947
359.375 -273.438 882
265.625 -445.312 1173
304.688 234.375 1202
343.75 -421.875 1097
62.5 -343.75 1041
-15.625 296.875 1181
125 -171.875 948
234.375 234.375 1214
31.25 320.312 1181
7.8125 328.125 1177
31.25 445.312 1288
257.812 250 1202
171.875 273.438 1202
117.188 296.875 1193
312.5 15.625 938
31.25 -335.938 1025
148.438 210.938 1028
-54.6875 -312.5 1307
281.25 210.938 1245
-15.625 101.562 908
367.188 0 882
375 -257.812 860
367.188 148.438 1057
62.5 312.5 1185
-70.3125 359.375 1105
93.75 -343.75 1038
218.75 -289.062 875
156.25 257.812 1193
-23.4375 335.938 1421
-46.875 304.688 1181
7.8125 -148.438 1031
125 234.375 1255
-23.4375 320.312 1181
476.562 -109.375 923
281.25 -265.625 867
375 31.25 964
367.188 -265.625 875
164.062 -437.5 1236
117.188 265.625 1197
156.25 -179.688 925
179.688 242.188 1227
210.938 -210.938 891
296.875 242.188 1202
-62.5 359.375 1105
125 257.812 1223
195.312 -187.5 878
109.375 234.375 1255
-390.625 218.75 1936
-468.75 -375 2598
179.688 218.75 1264
164.062 250 1227
-414.062 -109.375 2317
281.25 242.188 1185
265.625 -187.5 854
31.25 -117.188 987
429.688 203.125 1483
218.75 234.375 1241
195.312 210.938 1264
421.875 7.8125 1794
437.5 15.625 1757
226.562 390.625 1312
-210.938 390.625 1632
179.688 390.625 1322
335.938 7.8125 882
-398.438 289.062 1813
46.875 250 1250
-273.438 -265.625 1292
382.812 -85.9375 915
171.875 -460.938 1236
70.3125 273.438 1219
210.938 -39.0625 891
132.812 210.938 1028
164.062 46.875 862
281.25 -70.3125 913
250 -320.312 915
7.8125 250 1016
-375 343.75 1722
-500 -281.25 1947
-31.25 328.125 1177
312.5 343.75 1317
320.312 -414.062 1090
23.4375 93.75 908
-320.312 62.5 864
187.5 250 1214
85.9375 -187.5 970
156.25 250 1227
187.5 -54.6875 906
-54.6875 398.438 1149
-46.875 335.938 1173
179.688 -429.688 1193
312.5 -125 864
375 -93.75 923
265.625 398.438 1317
429.688 -93.75 920
-453.125 0 2415
210.938 210.938 1245
-398.438 296.875 1794
-406.25 265.625 1843
429.688 -335.938 940
78.125 281.25 1206
164.062 218.75 1038
335.938 257.812 1202
117.188 -101.562 962
70.3125 -109.375 975
250 218.75 1241
0 320.312 1173
218.75 257.812 1197
7.8125 320.312 1177
-437.5 -296.875 2701
132.812 226.562 1031
289.062 234.375 1189
70.3125 -257.812 915
23.4375 312.5 1185
31.25 312.5 1181
117.188 234.375 1250
-367.188 -210.938 3010
132.812 -171.875 943
109.375 414.062 1307
156.25 -328.125 992
62.5 -101.562 967
398.438 23.4375 962
179.688 54.6875 923
-54.6875 304.688 1197
-476.562 -312.5 1993
265.625 -203.125 847
-382.812 343.75 1713
265.625 218.75 1241
-476.562 -437.5 2541
-210.938 164.062 901
93.75 343.75 1392
85.9375 -132.812 998
70.3125 304.688 1185
-398.438 -203.125 2958
218.75 -242.188 854
117.188 -132.812 995
226.562 265.625 1189
85.9375 250 1223
234.375 226.562 1245
109.375 70.3125 915
218.75 187.5 1038
453.125 -367.188 935
-445.312 -164.062 2198
234.375 257.812 1202
179.688 -218.75 903
-281.25 335.938 1713
-132.812 187.5 935
54.6875 70.3125 851
39.0625 -179.688 959
-31.25 -273.438 1227
265.625 -210.938 843
234.375 343.75 1365
250 226.562 1241
375 39.0625 970
171.875 -125 885
179.688 -375 1264
-445.312 -320.312 2701
289.062 -125 858
62.5 257.812 1223
101.562 296.875 1193
257.812 -125 862
62.5 304.688 1185
31.25 -164.062 975
289.062 242.188 1185
7.8125 312.5 1177
343.75 -23.4375 873
-70.3125 312.5 1177
101.562 265.625 1219
7.8125 328.125 1177
296.875 234.375 1202
93.75 -320.312 1050
-117.188 234.375 973
-15.625 328.125 1177
218.75 -257.812 843
210.938 -242.188 854
203.125 273.438 1202
218.75 -250 856
-70.3125 335.938 1063
101.562 234.375 1241
343.75 171.875 1115
-390.625 343.75 1722
-453.125 -273.438 2767
15.625 289.062 1185
85.9375 273.438 1202
78.125 250 1227
-445.312 0 2432
-39.0625 304.688 1169
148.438 289.062 1193
-437.5 -289.062 2767
187.5 398.438 1312
125 281.25 1193
429.688 195.312 1503
85.9375 296.875 1197
54.6875 304.688 1185
-414.062 -148.438 2908
-7.8125 -281.25 946
15.625 296.875 1185
250 -78.125 873
46.875 257.812 1219
117.188 289.062 1193
304.688 -226.562 894
382.812 0 946
78.125 296.875 1185
-359.375 -132.812 2812
125 -273.438 854
226.562 304.688 1415
85.9375 -140.625 967
101.562 296.875 1193
148.438 250 1219
257.812 320.312 1381
164.062 273.438 1206
93.75 -125 992
62.5 296.875 1185
-132.812 171.875 923
304.688 351.562 1333
273.438 210.938 1245
-445.312 -54.6875 2598
273.438 382.812 1317
187.5 -132.812 873
101.562 429.688 1292
-492.188 -54.6875 2598
-54.6875 265.625 1010
132.812 265.625 1193
46.875 289.062 1181
-476.562 -148.438 2883
109.375 265.625 1202
-23.4375 289.062 1206
-132.812 101.562 835
273.438 -445.312 1157
140.625 257.812 1223
117.188 -335.938 1019
101.562 -179.688 962
85.9375 343.75 1392
70.3125 250 1223
218.75 -179.688 864
15.625 320.312 1177
-265.625 328.125 1731
-375 210.938 1947
296.875 203.125 1245
210.938 242.188 1210
-320.312 54.6875 873
-320.312 -242.188 1259
210.938 226.562 1241
304.688 -320.312 970
367.188 289.062 1297
257.812 -421.875 1126
-218.75 398.438 1624
117.188 398.438 1322
-46.875 281.25 1206
23.4375 320.312 1185
132.812 31.25 849
54.6875 281.25 1189
195.312 265.625 1206
210.938 -328.125 951
210.938 265.625 1189
-31.25 281.25 1210
148.438 31.25 854
-476.562 -421.875 2450
242.188 0 862
125 296.875 1193
148.438 234.375 1236
78.125 242.188 1245
257.812 226.562 1232
234.375 0 862
-85.9375 -460.938 2812
-101.562 93.75 835
-398.438 281.25 1833
445.312 -15.625 1804
140.625 414.062 1302
296.875 -429.688 1130
-273.438 132.812 823
171.875 273.438 1202
-62.5 273.438 1010
273.438 195.312 1250
312.5 226.562 1219
-203.125 328.125 1722
-390.625 234.375 1904
195.312 109.375 964
-70.3125 328.125 1054
257.812 -85.9375 873
226.562 250 1214
257.812 218.75 1245
234.375 187.5 1028
-78.125 343.75 1073
-31.25 265.625 1016
-78.125 265.625 998
15.625 -328.125 1016
-398.438 187.5 1993
250 -367.188 1060
460.938 -109.375 910
70.3125 234.375 1019
289.062 210.938 1219
226.562 -54.6875 887
242.188 226.562 1241
-304.688 203.125 1947
0 265.625 1232
179.688 -78.125 903
492.188 117.188 1415
-39.0625 445.312 1210
195.312 218.75 1241
-15.625 296.875 1181
296.875 -78.125 918
273.438 242.188 1214
171.875 -117.188 887
-484.375 -398.438 2349
171.875 203.125 1041
-31.25 273.438 1210
335.938 210.938 1157
335.938 -156.25 878
164.062 -78.125 933
335.938 -406.25 1073
-54.6875 281.25 1206
39.0625 242.188 1022
39.0625 281.25 1219
23.4375 -335.938 1022
250 328.125 1376
195.312 -210.938 889
-304.688 -257.812 1292
132.812 234.375 1232
70.3125 -351.562 1041
414.062 -234.375 829
-367.188 210.938 1936
0 273.438 1210
-148.438 132.812 896
320.312 234.375 1202
320.312 351.562 1322
-39.0625 -296.875 956
-257.812 429.688 1564
-320.312 -210.938 1197
-234.375 195.312 1959
15.625 93.75 908
7.8125 -164.062 989
171.875 -179.688 898
85.9375 -257.812 885
15.625 250 1016
-312.5 93.75 835
296.875 -328.125 978
156.25 281.25 1202
-468.75 -382.812 2579
328.125 -109.375 880
0 289.062 1210
78.125 281.25 1206
-484.375 -320.312 2005
70.3125 -265.625 891
117.188 -265.625 854
242.188 -250 854
304.688 234.375 1202
171.875 226.562 1232
234.375 -242.188 849
-46.875 304.688 1181
250 250 1214
-132.812 382.812 1105
-250 421.875 1579
62.5 -265.625 896
171.875 218.75 1044
39.0625 250 1022
304.688 164.062 1047
-54.6875 343.75 1415
15.625 257.812 1016
-476.562 -359.375 2129
351.562 156.25 1054
-195.312 140.625 889
39.0625 257.812 1245
-320.312 -226.562 1232
-46.875 414.062 1165
-468.75 -367.188 2598
-125 195.312 943
203.125 7.8125 858
156.25 210.938 1038
367.188 117.188 1031
93.75 304.688 1197
257.812 250 1202
273.438 -250 854
-62.5 335.938 1177
164.062 -242.188 837
343.75 7.8125 882
46.875 281.25 1219
351.562 -429.688 1112
85.9375 62.5 851
148.438 414.062 1302
234.375 226.562 1245
109.375 289.062 1189
187.5 -335.938 973
281.25 -140.625 856
210.938 234.375 1241
-140.625 132.812 901
453.125 -140.625 889
-54.6875 382.812 1134
390.625 -39.0625 878
-70.3125 85.9375 839
226.562 210.938 1241
195.312 -132.812 873
210.938 -54.6875 889
-23.4375 -312.5 981
289.062 171.875 1044
-62.5 281.25 1232
226.562 -46.875 896
-70.3125 281.25 1232
328.125 -289.062 935
101.562 54.6875 854
328.125 -429.688 1119
15.625 281.25 1210
250 203.125 1245
304.688 210.938 1236
328.125 7.8125 882
-46.875 335.938 1173
15.625 54.6875 841
46.875 312.5 1181
-125 210.938 954
-7.8125 289.062 1214
-78.125 304.688 1047
273.438 -210.938 894
-476.562 -328.125 2016
-453.125 -187.5 2170
148.438 257.812 1193
31.25 -187.5 964
429.688 23.4375 1739
281.25 15.625 875
-320.312 -187.5 1165
-62.5 351.562 1404
-320.312 -218.75 1219
203.125 398.438 1312
-62.5 398.438 1149
-78.125 312.5 1047
-7.8125 265.625 1232
-85.9375 312.5 1047
-226.562 406.25 1601
257.812 195.312 1278
-39.0625 312.5 1169
-273.438 335.938 1713
-46.875 312.5 1181
-421.875 -242.188 2859
85.9375 242.188 1245
398.438 242.188 1439
132.812 -132.812 992
156.25 250 1227
62.5 250 1223
367.188 -31.25 875
31.25 359.375 1381
296.875 187.5 1259
437.5 -15.625 1785
-62.5 289.062 1197
218.75 250 1206
156.25 -265.625 835
-7.8125 -320.312 998
-289.062 335.938 1713
187.5 250 1214
15.625 -273.438 930
265.625 0 867
-359.375 343.75 1713
-398.438 304.688 1785
406.25 -23.4375 889
179.688 273.438 1202
-320.312 46.875 882
-62.5 367.188 1108
140.625 -335.938 1001
171.875 -437.5 1214
382.812 250 1427
85.9375 273.438 1202
281.25 250 1185
226.562 257.812 1202
-281.25 195.312 1959
-164.062 351.562 1671
164.062 257.812 1197
-484.375 -296.875 2016
281.25 367.188 1317
132.812 218.75 1031
296.875 234.375 1202
54.6875 250 1245
-437.5 -140.625 2271
31.25 265.625 1219
414.062 -93.75 918
-31.25 -273.438 1227
195.312 -242.188 864
39.0625 -195.312 962
125 398.438 1322
-367.188 343.75 1713
281.25 242.188 1185
343.75 367.188 1322
-210.938 -273.438 1288
-109.375 250 989
195.312 398.438 1312
-468.75 -140.625 2241
-320.312 -195.312 1181
367.188 156.25 1094
93.75 250 1232
148.438 234.375 1236
156.25 414.062 1302
195.312 242.188 1232
312.5 -54.6875 896
109.375 -273.438 858
-7.8125 70.3125 843
-23.4375 -203.125 1112
-398.438 296.875 1794
203.125 218.75 1241
257.812 31.25 933
62.5 304.688 1185
179.688 218.75 1264
203.125 -218.75 851
414.062 -351.562 940
250 195.312 1273
-187.5 250 970
273.438 242.188 1214
15.625 289.062 1185
70.3125 242.188 1250
257.812 -179.688 854
-476.562 -304.688 2723
93.75 296.875 1197
93.75 273.438 1197
179.688 406.25 1307
406.25 23.4375 962
62.5 257.812 1223
-304.688 -250 1273
101.562 296.875 1193
85.9375 -273.438 878
70.3125 -101.562 967
-210.938 328.125 1722
-359.375 -210.938 3010
281.25 171.875 1044
-320.312 23.4375 898
351.562 281.25 1283
156.25 -171.875 925
328.125 -156.25 873
39.0625 445.312 1288
281.25 218.75 1219
296.875 -414.062 1097
148.438 62.5 918
-484.375 -460.938 2503
93.75 265.625 1219
187.5 242.188 1232
-296.875 203.125 1947
31.25 -335.938 1025
46.875 156.25 956
203.125 -234.375 856
250 -125 862
234.375 -335.938 930
109.375 242.188 1227
234.375 -171.875 856
-398.438 312.5 1766
281.25 -85.9375 871
23.4375 281.25 1214
296.875 -281.25 878
171.875 -328.125 981
117.188 234.375 1250
382.812 7.8125 948
-54.6875 382.812 1134
-234.375 414.062 1594
132.812 289.062 1193
-23.4375 335.938 1421
23.4375 -203.125 964
-62.5 78.125 837
-390.625 -203.125 3010
140.625 -171.875 935
468.75 -7.8125 1785
203.125 -78.125 885
250 257.812 1214
140.625 257.812 1223
257.812 257.812 1202
-320.312 7.8125 913
-23.4375 257.812 1013
-140.625 140.625 903
31.25 257.812 1245
195.312 210.938 1264
78.125 -265.625 887
46.875 281.25 1219
70.3125 437.5 1292
39.0625 -265.625 915
250 250 1214
-70.3125 320.312 1054
312.5 -226.562 891
-492.188 -351.562 1915
-140.625 156.25 913
445.312 -23.4375 891
101.562 242.188 1232
-359.375 210.938 1947
250 382.812 1317
328.125 304.688 1255
70.3125 296.875 1185
-390.625 242.188 1915
250 -250 860
31.25 289.062 1214
-390.625 -187.5 3064
320.312 -429.688 1138
-31.25 -304.688 975
-156.25 343.75 1050
273.438 187.5 1041
187.5 -421.875 1185
-46.875 265.625 1013
-468.75 -406.25 2503
-500 -289.062 1981
171.875 273.438 1197
203.125 -148.438 882
132.812 257.812 1219
85.9375 -101.562 970
148.438 -265.625 841
-289.062 203.125 1970
-15.625 328.125 1177
62.5 -195.312 973
187.5 273.438 1197
93.75 242.188 1028
-132.812 171.875 923
351.562 328.125 1354
-367.188 210.938 1959
-390.625 -39.0625 2432
406.25 31.25 970
0 265.625 1236
-31.25 304.688 1202
218.75 -359.375 1153
0 320.312 1181
23.4375 296.875 1210
-460.938 -140.625 2241
164.062 296.875 1197
0 296.875 1202
62.5 250 1022
273.438 375 1317
148.438 281.25 1193
218.75 234.375 1241
-70.3125 289.062 1227
31.25 312.5 1177
140.625 281.25 1197
-476.562 148.438 2116
-132.812 179.688 928
-171.875 359.375 1688
-367.188 -210.938 2984
-70.3125 304.688 1034
-320.312 -210.938 1219
-195.312 375 1663
15.625 320.312 1177
-78.125 351.562 1073
359.375 179.688 1108
187.5 218.75 1034
-15.625 304.688 1185
-70.3125 375 1105
398.438 46.875 975
226.562 265.625 1206
-484.375 -171.875 2184
226.562 -250 856
234.375 39.0625 878
-7.8125 304.688 1185
15.625 -179.688 987
7.8125 -156.25 995
-203.125 351.562 1696
-375 343.75 1739
296.875 367.188 1317
187.5 312.5 1421
429.688 85.9375 1536
-7.8125 273.438 1227
-39.0625 296.875 1206
210.938 -281.25 880
351.562 -257.812 908
-312.5 421.875 1609
78.125 273.438 1219
203.125 273.438 1197
23.4375 -125 1013
125 421.875 1297
117.188 265.625 1219
335.938 265.625 1206
414.062 132.812 1564
109.375 257.812 1223
429.688 265.625 1410
46.875 445.312 1292
343.75 179.688 1123
484.375 -351.562 962
7.8125 320.312 1181
-320.312 -203.125 1214
195.312 273.438 1202
-39.0625 406.25 1343
-203.125 328.125 1731
421.875 148.438 1523
93.75 234.375 1028
312.5 -421.875 1126
85.9375 304.688 1185
-7.8125 -203.125 1019
70.3125 -117.188 998
109.375 -257.812 864
-320.312 -15.625 951
375 304.688 1312
156.25 -343.75 992
171.875 218.75 1038
-164.062 328.125 1038
-492.188 -421.875 1936
70.3125 273.438 1214
70.3125 273.438 1214
-54.6875 335.938 1177
-320.312 140.625 825
-296.875 335.938 1731
-437.5 -62.5 2271
132.812 265.625 1227
109.375 -265.625 864
-359.375 -148.438 2908
125 218.75 1031
453.125 -343.75 954
-320.312 -179.688 1169
7.8125 328.125 1181
-250 414.062 1609
-210.938 117.188 831
-31.25 273.438 1232
-437.5 -78.125 2271
148.438 226.562 1259
78.125 335.938 1410
476.562 109.375 1464
54.6875 -257.812 910
101.562 226.562 1025
210.938 265.625 1193
-234.375 117.188 827
31.25 226.562 1010
31.25 -148.438 992
-460.938 -78.125 2723
-320.312 31.25 906
242.188 195.312 1044
-484.375 -445.312 2522
273.438 226.562 1219
-15.625 296.875 1202
-179.688 367.188 1671
242.188 250 1214
195.312 -234.375 869
-460.938 -359.375 2618
234.375 250 1210
46.875 -257.812 915
234.375 226.562 1241
132.812 -250 851
-109.375 125 849
-39.0625 312.5 1202
78.125 304.688 1185
187.5 -250 843
-406.25 343.75 1739
-23.4375 281.25 1210
-93.75 85.9375 839
195.312 -250 843
-476.562 -335.938 2065
85.9375 -343.75 1041
-390.625 -164.062 3010
226.562 -31.25 891
429.688 -31.25 891
46.875 242.188 1019
-125 125 843
171.875 -335.938 989
70.3125 234.375 1019
7.8125 -179.688 1022
414.062 -242.188 835
281.25 -218.75 851
179.688 281.25 1197
226.562 210.938 1236
179.688 242.188 1232
-351.562 210.938 1959
156.25 273.438 1197
78.125 281.25 1214
140.625 62.5 864
-468.75 -351.562 2198
390.625 -242.188 847
-23.4375 328.125 1169
335.938 -132.812 875
437.5 -54.6875 887
-390.625 250 1904
-15.625 273.438 1227
15.625 250 1022
242.188 234.375 1245
-46.875 281.25 1227
70.3125 257.812 1227
-46.875 304.688 1197
-15.625 257.812 1013
-351.562 343.75 1722
-39.0625 -296.875 964
445.312 -250 835
203.125 203.125 1038
359.375 218.75 1161
-476.562 -296.875 1981
-62.5 351.562 1090
70.3125 265.625 1219
101.562 265.625 1219
-476.562 -320.312 2040
-460.938 -375 2618
203.125 218.75 1255
-164.062 351.562 1696
445.312 195.312 1496
226.562 203.125 1041
78.125 -351.562 1047
-320.312 -54.6875 995
-257.812 195.312 1970
226.562 257.812 1206
265.625 226.562 1241
125 -265.625 856
-476.562 -398.438 2398
226.562 390.625 1312
-406.25 -195.312 2958
54.6875 257.812 1250
39.0625 320.312 1177
351.562 0 885
