ply
format ascii 1.0
comment Created by Open3D
element vertex 2357
property double x
property double y
property double z
end_header
109.375 234.375 1713
-429.688 -421.875 3010
-109.375 -320.312 975
328.125 -125 829
476.562 406.25 1189
367.188 125 860
-85.9375 15.625 933
351.562 414.062 1189
-31.25 -367.188 1105
-179.688 -359.375 956
-140.625 -203.125 1013
257.812 -125 837
343.75 -125 827
23.4375 367.188 1370
-367.188 -453.125 2933
-203.125 -218.75 1016
382.812 125 856
187.5 351.562 1365
226.562 -132.812 837
367.188 -148.438 823
335.938 312.5 1019
-500 -23.4375 973
460.938 406.25 1193
-406.25 281.25 1307
468.75 343.75 1161
-453.125 -250 2503
429.688 -164.062 1202
-179.688 -257.812 1001
484.375 -234.375 1141
484.375 312.5 964
-351.562 -257.812 3149
453.125 375 1145
93.75 31.25 930
70.3125 31.25 935
226.562 -148.438 837
195.312 320.312 1376
156.25 -234.375 923
335.938 390.625 1067
195.312 -218.75 930
-109.375 234.375 1705
-203.125 -210.938 1038
375 -62.5 849
101.562 31.25 930
164.062 390.625 1278
-93.75 -320.312 975
218.75 -125 843
187.5 -210.938 878
187.5 -148.438 843
-85.9375 -140.625 873
460.938 -343.75 1108
-46.875 -140.625 869
-414.062 -46.875 956
289.062 -23.4375 871
-109.375 226.562 1705
203.125 -132.812 841
359.375 39.0625 913
62.5 406.25 1312
421.875 -140.625 1241
484.375 382.812 1219
-85.9375 -320.312 975
125 -242.188 951
-500 -148.438 973
-7.8125 -140.625 862
218.75 -148.438 837
-164.062 -375 954
-382.812 -421.875 2933
-171.875 -210.938 1022
-335.938 242.188 1070
132.812 -226.562 889
-54.6875 -398.438 1141
-78.125 -140.625 873
-343.75 -15.625 951
179.688 -234.375 928
-359.375 -304.688 3092
-351.562 -312.5 3092
-39.0625 -351.562 1067
-78.125 -218.75 1013
343.75 296.875 984
187.5 -265.625 940
421.875 390.625 1134
78.125 234.375 1722
-343.75 -234.375 3208
-500 -382.812 2271
-320.312 343.75 1223
218.75 -132.812 839
328.125 390.625 1067
-375 -281.25 2958
-273.438 328.125 1134
-31.25 328.125 1557
0 -375 1097
-39.0625 -414.062 1161
-156.25 -335.938 967
-125 -398.438 946
-343.75 -23.4375 940
-125 -226.562 1010
296.875 -148.438 831
-39.0625 -343.75 1063
-140.625 -304.688 978
-429.688 -218.75 1202
-78.125 -93.75 887
109.375 -203.125 896
367.188 390.625 1161
-281.25 242.188 1067
-265.625 -132.812 896
445.312 -218.75 1169
-140.625 -359.375 956
375 -109.375 829
7.8125 -406.25 1105
320.312 -156.25 837
375 -101.562 833
-171.875 -375 954
-31.25 -375 1108
359.375 296.875 981
-375 -85.9375 975
289.062 15.625 887
-195.312 -234.375 1010
187.5 343.75 1376
-148.438 -359.375 956
156.25 156.25 1632
-85.9375 -406.25 951
101.562 -234.375 954
421.875 296.875 973
421.875 125 894
-437.5 296.875 1288
343.75 15.625 880
156.25 390.625 1278
-132.812 -312.5 978
140.625 -187.5 896
-85.9375 -390.625 948
-85.9375 -312.5 978
257.812 -132.812 835
242.188 -125 837
187.5 39.0625 925
289.062 -39.0625 864
414.062 125 849
203.125 -218.75 930
-375 -351.562 3092
-109.375 -320.312 975
320.312 390.625 1067
-437.5 -164.062 975
-101.562 -320.312 975
312.5 437.5 1094
265.625 -109.375 841
7.8125 -414.062 1105
-406.25 0 1019
273.438 -125 835
-476.562 0 981
234.375 -226.562 920
-39.0625 -359.375 1161
476.562 382.812 1227
-437.5 304.688 1288
15.625 -359.375 1022
-421.875 -140.625 959
156.25 -171.875 887
-390.625 -406.25 2958
-453.125 -390.625 2541
156.25 -148.438 845
-109.375 -250 1001
-460.938 -62.5 959
304.688 15.625 882
367.188 -15.625 864
468.75 -132.812 1193
484.375 -132.812 1189
-164.062 -390.625 956
179.688 429.688 1288
-101.562 -335.938 967
179.688 -148.438 845
148.438 390.625 1278
156.25 39.0625 923
-375 -164.062 989
-39.0625 328.125 1564
171.875 -148.438 845
-156.25 -203.125 1013
-109.375 320.312 1564
-351.562 343.75 1223
492.188 -132.812 1165
-343.75 257.812 1084
-476.562 -23.4375 973
375 -78.125 841
218.75 39.0625 923
-148.438 -203.125 1010
226.562 -132.812 837
187.5 -234.375 938
242.188 70.3125 880
304.688 -289.062 1202
-187.5 -210.938 1022
-460.938 -382.812 2560
429.688 -156.25 1206
-312.5 296.875 1288
460.938 382.812 1169
-156.25 -453.125 1173
-476.562 351.562 1489
343.75 414.062 1206
179.688 343.75 1381
-320.312 296.875 1292
-125 343.75 1536
23.4375 7.8125 913
-398.438 -367.188 3120
-382.812 -54.6875 964
109.375 -210.938 889
484.375 328.125 1189
-148.438 -398.438 954
-148.438 -312.5 975
-93.75 234.375 1757
375 296.875 978
453.125 125 849
453.125 367.188 1145
-148.438 -406.25 954
-375 -132.812 915
164.062 -171.875 889
390.625 296.875 975
-304.688 320.312 1259
-468.75 257.812 1354
62.5 31.25 935
-476.562 351.562 1489
-195.312 -390.625 956
-164.062 -296.875 984
-320.312 359.375 1223
460.938 429.688 1169
289.062 -132.812 831
-468.75 -140.625 962
367.188 -140.625 823
-375 -109.375 978
226.562 -109.375 845
125 -195.312 891
-406.25 -382.812 3120
-351.562 -304.688 3092
140.625 -195.312 889
195.312 -195.312 880
187.5 -195.312 880
-78.125 -382.812 948
-78.125 -328.125 973
-203.125 -203.125 1031
273.438 109.375 871
7.8125 -390.625 1108
-351.562 320.312 1264
-171.875 -265.625 995
375 -70.3125 847
375 -93.75 837
-492.188 -70.3125 978
445.312 375 1141
-492.188 -117.188 1041
-328.125 273.438 1328
78.125 335.938 1365
-273.438 351.562 1157
101.562 234.375 1713
-367.188 -414.062 3010
171.875 250 1705
-468.75 312.5 1259
101.562 375 1288
-351.562 -320.312 3149
296.875 -125 831
-296.875 343.75 1219
117.188 31.25 933
-85.9375 -382.812 948
-7.8125 265.625 1663
375 -85.9375 839
328.125 437.5 1094
85.9375 -148.438 851
460.938 -375 1090
203.125 -148.438 841
31.25 -148.438 860
-484.375 -39.0625 973
-375 -375 3064
359.375 -148.438 825
-70.3125 -234.375 1010
-335.938 132.812 1007
-468.75 -156.25 964
-312.5 -85.9375 918
-164.062 -351.562 959
398.438 320.312 1177
312.5 15.625 882
-78.125 -351.562 964
289.062 -156.25 843
46.875 273.438 1639
-187.5 -390.625 954
85.9375 273.438 1663
156.25 -203.125 878
335.938 -132.812 825
-109.375 -304.688 978
-398.438 335.938 1232
210.938 -210.938 925
-359.375 -312.5 3092
179.688 -242.188 935
-312.5 156.25 1013
-359.375 -382.812 3064
218.75 -234.375 923
375 -117.188 827
320.312 15.625 882
93.75 273.438 1639
-445.312 -210.938 1189
-85.9375 -320.312 975
164.062 242.188 1705
187.5 -210.938 878
-437.5 328.125 1236
117.188 234.375 1713
-156.25 -312.5 975
375 -101.562 833
296.875 15.625 882
-62.5 -429.688 1145
-320.312 234.375 1063
-468.75 -109.375 962
0 31.25 946
-93.75 -398.438 954
-281.25 304.688 1119
-70.3125 -210.938 1010
-429.688 -140.625 962
-109.375 -296.875 981
-421.875 -296.875 2789
7.8125 -398.438 1105
-382.812 328.125 1227
-62.5 -140.625 871
-85.9375 -218.75 1013
-398.438 -148.438 973
-375 -140.625 987
179.688 -203.125 878
-335.938 -250 3208
140.625 85.9375 878
-7.8125 -414.062 1097
171.875 -273.438 946
375 328.125 1177
-39.0625 250 1722
-125 -140.625 878
359.375 421.875 1173
195.312 -125 843
195.312 -125 841
-500 -23.4375 973
-109.375 -140.625 875
-359.375 -328.125 3149
210.938 -23.4375 875
-281.25 -132.812 896
343.75 -132.812 821
-85.9375 -375 951
164.062 164.062 1639
-367.188 -195.312 1007
398.438 429.688 1130
328.125 390.625 1060
367.188 171.875 920
-85.9375 -234.375 1007
-390.625 -23.4375 975
132.812 390.625 1283
-312.5 328.125 1259
156.25 -226.562 915
320.312 414.062 1080
257.812 15.625 887
-93.75 -226.562 1010
-93.75 -437.5 1134
-375 312.5 1268
-195.312 -226.562 1010
-78.125 -304.688 978
-367.188 -445.312 2958
-359.375 289.062 1297
179.688 -195.312 875
328.125 414.062 1080
375 -109.375 825
-328.125 164.062 1022
-328.125 164.062 1022
148.438 234.375 1696
-78.125 312.5 1586
335.938 -125 823
-375 -125 913
-117.188 -234.375 1010
375 -125 823
375 -132.812 821
-328.125 23.4375 973
-460.938 312.5 1255
265.625 15.625 882
-367.188 -437.5 2958
-93.75 -406.25 948
-164.062 -359.375 956
-382.812 -390.625 3037
-109.375 -257.812 998
-85.9375 -328.125 970
-125 -367.188 954
85.9375 39.0625 920
-109.375 -242.188 1001
101.562 273.438 1632
-421.875 -109.375 962
-125 -203.125 1001
-367.188 335.938 1223
335.938 15.625 875
-476.562 -23.4375 975
62.5 -359.375 1013
62.5 273.438 1632
-304.688 296.875 1283
-117.188 -460.938 1141
281.25 15.625 882
-406.25 -242.188 1202
140.625 234.375 1696
484.375 390.625 1189
312.5 -125 829
289.062 15.625 882
367.188 -39.0625 851
343.75 -125 823
-390.625 -46.875 962
109.375 234.375 1705
-421.875 265.625 1343
7.8125 -406.25 1105
242.188 -132.812 833
-453.125 -156.25 973
-273.438 -101.562 906
398.438 421.875 1130
-351.562 335.938 1232
398.438 -101.562 1145
-468.75 -101.562 975
-62.5 -234.375 1004
367.188 421.875 1173
-359.375 -289.062 3064
-359.375 320.312 1259
234.375 39.0625 915
132.812 -179.688 898
93.75 234.375 1713
210.938 -226.562 920
-179.688 -367.188 954
-445.312 -31.25 959
-179.688 -429.688 1169
-484.375 265.625 1470
289.062 15.625 882
-23.4375 -351.562 1044
-382.812 -445.312 2883
-93.75 -367.188 954
-70.3125 -226.562 1010
-78.125 -359.375 956
351.562 39.0625 908
-390.625 304.688 1278
492.188 367.188 1149
-164.062 -304.688 975
-132.812 -273.438 989
-382.812 -78.125 967
265.625 -320.312 1317
93.75 367.188 1312
54.6875 31.25 935
-171.875 -351.562 962
375 -140.625 819
-296.875 23.4375 973
367.188 -31.25 856
15.625 31.25 940
156.25 -234.375 918
187.5 -218.75 920
375 -93.75 833
-281.25 289.062 1112
218.75 -125 839
273.438 15.625 882
-460.938 -85.9375 959
-148.438 -312.5 975
187.5 234.375 1696
109.375 429.688 1273
468.75 406.25 1126
351.562 -132.812 821
-156.25 -234.375 1010
-117.188 -140.625 875
-312.5 351.562 1223
273.438 -132.812 831
-453.125 -101.562 959
195.312 -132.812 839
-210.938 -250 1004
-171.875 -250 1001
-273.438 -132.812 894
320.312 -148.438 823
218.75 -132.812 837
351.562 273.438 970
-54.6875 31.25 943
-132.812 -304.688 978
164.062 31.25 925
375 132.812 903
-148.438 -320.312 973
109.375 382.812 1288
-132.812 31.25 951
-85.9375 -367.188 954
-406.25 320.312 1245
-500 -156.25 970
164.062 -179.688 885
-148.438 -335.938 964
-132.812 -312.5 975
-31.25 -390.625 1115
-382.812 -398.438 3037
-429.688 -164.062 984
179.688 257.812 1639
-62.5 -414.062 1138
-171.875 -406.25 1149
-500 -140.625 1028
-382.812 -406.25 3037
-359.375 -398.438 3037
-390.625 -398.438 3037
-296.875 320.312 1255
320.312 437.5 1094
109.375 31.25 930
437.5 -164.062 1206
226.562 -156.25 835
-39.0625 226.562 1739
-375 -359.375 3092
156.25 -242.188 925
156.25 -195.312 880
0 -148.438 862
148.438 31.25 925
-484.375 -109.375 1041
367.188 -156.25 831
156.25 234.375 1696
304.688 -125 827
-31.25 -359.375 1097
-70.3125 -296.875 978
-445.312 -328.125 2639
15.625 -148.438 860
-359.375 -70.3125 930
-109.375 -320.312 973
351.562 250 956
210.938 132.812 918
-296.875 15.625 964
367.188 156.25 913
125 -210.938 887
195.312 -148.438 839
-460.938 -132.812 962
210.938 -125 839
-320.312 195.312 1041
-234.375 -140.625 894
171.875 -242.188 928
-156.25 -398.438 954
109.375 242.188 1705
-500 -15.625 978
-375 -46.875 973
375 406.25 1141
-367.188 -195.312 1007
-171.875 -359.375 956
-367.188 -140.625 913
-320.312 320.312 1259
351.562 437.5 1177
109.375 -210.938 887
-148.438 -265.625 992
-101.562 -140.625 873
-179.688 -312.5 975
156.25 -218.75 915
-414.062 -195.312 987
-140.625 -335.938 967
-343.75 -7.8125 954
164.062 -148.438 843
-304.688 351.562 1219
-359.375 -375 3064
234.375 -148.438 831
187.5 132.812 946
-445.312 -335.938 2618
156.25 -148.438 841
250 -125 837
406.25 320.312 1173
304.688 -132.812 827
375 -125 823
171.875 -148.438 843
148.438 273.438 1639
109.375 -187.5 915
351.562 -148.438 821
257.812 -320.312 1317
195.312 359.375 1333
367.188 15.625 871
-85.9375 -398.438 948
-31.25 -406.25 1108
343.75 437.5 1177
-148.438 -304.688 975
-484.375 -101.562 1041
-164.062 -242.188 1001
367.188 -46.875 847
-343.75 -257.812 3208
-492.188 7.8125 1010
289.062 15.625 882
-343.75 -265.625 3208
-484.375 -39.0625 973
218.75 -156.25 839
210.938 -148.438 837
-359.375 -367.188 3064
242.188 -148.438 831
257.812 -140.625 831
93.75 101.562 880
-390.625 328.125 1245
148.438 -148.438 839
-156.25 -320.312 973
-39.0625 -414.062 1153
-343.75 -250 3120
-164.062 -398.438 956
-304.688 328.125 1259
-375 -367.188 3092
-398.438 304.688 1273
-367.188 312.5 1268
-125 -335.938 964
226.562 -140.625 833
-320.312 101.562 989
-445.312 -320.312 2639
367.188 148.438 908
-375 -156.25 987
-359.375 -335.938 3120
-289.062 -109.375 903
-398.438 312.5 1273
-117.188 -328.125 967
-23.4375 -375 1108
-429.688 -210.938 1197
-351.562 -312.5 3092
-171.875 -375 951
250 15.625 887
-187.5 -359.375 956
273.438 351.562 1370
-304.688 117.188 1004
171.875 39.0625 920
-101.562 -328.125 970
476.562 390.625 1189
-328.125 23.4375 973
-70.3125 -289.062 984
453.125 429.688 1157
-31.25 23.4375 928
367.188 -39.0625 851
140.625 -218.75 885
265.625 15.625 882
375 -117.188 823
437.5 -171.875 1202
-179.688 375 1214
343.75 343.75 1034
-179.688 -390.625 954
109.375 -203.125 887
195.312 -132.812 839
453.125 343.75 1145
476.562 -132.812 1181
375 -109.375 825
132.812 -226.562 885
367.188 -23.4375 858
351.562 242.188 954
-171.875 -335.938 967
-406.25 289.062 1312
273.438 -125 833
-367.188 -140.625 913
-375 -414.062 2984
375 -148.438 819
156.25 -179.688 887
-460.938 -414.062 3037
-78.125 -296.875 978
375 -132.812 821
406.25 296.875 973
-492.188 375 1255
-101.562 125 987
195.312 -210.938 923
-140.625 -304.688 978
351.562 296.875 975
468.75 382.812 1141
335.938 390.625 1060
-39.0625 -406.25 1108
335.938 414.062 1206
398.438 -203.125 1387
-179.688 -367.188 954
226.562 -210.938 915
296.875 -46.875 858
-328.125 281.25 1328
-484.375 7.8125 987
218.75 -125 839
-70.3125 -210.938 1010
156.25 31.25 925
23.4375 -328.125 1022
-148.438 70.3125 910
-367.188 -257.812 3178
-132.812 -367.188 954
-85.9375 -359.375 956
7.8125 31.25 940
-351.562 -289.062 3120
375 109.375 854
-148.438 -78.125 903
156.25 85.9375 871
171.875 -210.938 873
132.812 -210.938 882
210.938 -125 839
-382.812 281.25 1312
54.6875 273.438 1632
-23.4375 257.812 1680
-492.188 -70.3125 989
7.8125 -390.625 1105
31.25 -335.938 1019
234.375 -125 837
-367.188 328.125 1223
-398.438 250 1090
-101.562 -398.438 954
7.8125 -398.438 1105
-375 -382.812 3037
218.75 -132.812 837
289.062 -132.812 829
-343.75 -273.438 3208
-476.562 -46.875 970
-179.688 -257.812 998
-93.75 -421.875 1126
93.75 125 933
-62.5 -312.5 975
-296.875 -132.812 901
187.5 -156.25 843
-203.125 -203.125 1031
-500 -140.625 1028
-500 -148.438 970
132.812 -187.5 891
-382.812 -195.312 1010
-226.562 250 1197
351.562 125 858
7.8125 -148.438 860
-195.312 -335.938 964
125 -148.438 845
-453.125 -382.812 2541
304.688 15.625 882
445.312 -140.625 1227
-281.25 296.875 1130
148.438 -195.312 880
-140.625 -453.125 1149
398.438 125 847
-351.562 -31.25 940
-375 -132.812 913
-101.562 -242.188 1001
250 39.0625 913
296.875 39.0625 913
-187.5 -210.938 1022
-101.562 -250 998
-85.9375 -375 951
101.562 -148.438 849
-304.688 187.5 1031
156.25 273.438 1632
-289.062 265.625 1070
-195.312 -203.125 1025
265.625 -140.625 829
234.375 15.625 889
-484.375 -85.9375 973
-492.188 -148.438 970
242.188 15.625 889
-70.3125 -421.875 1134
-109.375 210.938 1688
-62.5 -398.438 1138
117.188 -234.375 948
-382.812 -171.875 998
304.688 -125 827
-85.9375 -351.562 959
328.125 -125 825
-445.312 -226.562 1193
-93.75 -296.875 981
-62.5 445.312 1317
93.75 -117.188 854
-156.25 -296.875 981
-101.562 -296.875 978
453.125 -140.625 1193
312.5 -23.4375 862
-359.375 -296.875 3092
335.938 -132.812 821
375 -101.562 831
-93.75 -414.062 1123
-85.9375 -406.25 948
125 -195.312 889
367.188 187.5 928
-367.188 -140.625 913
-187.5 -320.312 970
367.188 179.688 920
281.25 335.938 1067
156.25 -210.938 875
78.125 -148.438 849
-109.375 -460.938 1141
-148.438 -304.688 975
-351.562 -39.0625 940
-437.5 -109.375 956
-117.188 -406.25 943
250 -132.812 833
-23.4375 -367.188 1097
-359.375 -390.625 3064
-85.9375 -390.625 946
210.938 -132.812 837
195.312 -125 841
-15.625 -406.25 1094
312.5 -132.812 827
-453.125 -343.75 2598
-390.625 -156.25 984
-210.938 -234.375 1010
359.375 367.188 1161
281.25 15.625 882
-453.125 -125 954
398.438 -171.875 1328
-31.25 -390.625 1115
-93.75 -250 998
210.938 -195.312 920
7.8125 -382.812 1105
320.312 382.812 1057
-109.375 -398.438 951
-445.312 -187.5 975
-101.562 -289.062 984
-367.188 -195.312 1007
-484.375 -101.562 1041
-257.812 406.25 1415
453.125 406.25 1169
125 335.938 1404
-437.5 -218.75 1193
195.312 -218.75 925
-70.3125 -218.75 1013
-500 -7.8125 1041
187.5 -226.562 920
-273.438 320.312 1130
367.188 171.875 920
-445.312 -195.312 1189
-156.25 -359.375 954
117.188 429.688 1273
-445.312 -203.125 1189
367.188 -62.5 843
195.312 -257.812 935
359.375 195.312 930
-382.812 -109.375 975
-406.25 312.5 1273
-351.562 -296.875 3092
-140.625 -453.125 1149
179.688 -195.312 875
-85.9375 -382.812 946
335.938 304.688 987
-460.938 -226.562 1189
195.312 -250 938
93.75 -125 851
-164.062 -304.688 975
398.438 375 1138
218.75 -132.812 837
460.938 -140.625 1189
125 289.062 1464
328.125 -132.812 823
-468.75 -132.812 959
375 -140.625 819
-132.812 -359.375 956
218.75 -210.938 918
195.312 -132.812 839
335.938 -125 823
179.688 -210.938 873
-78.125 -210.938 1010
-179.688 -281.25 987
-179.688 -335.938 967
492.188 -132.812 1165
-414.062 -164.062 987
-171.875 -375 951
-375 -148.438 987
203.125 -210.938 928
-500 -171.875 975
367.188 148.438 908
70.3125 -242.188 1070
109.375 273.438 1624
7.8125 -375 1105
-85.9375 148.438 1696
-398.438 -62.5 964
-85.9375 -328.125 970
-351.562 -320.312 3149
-78.125 -289.062 984
-195.312 -328.125 967
140.625 -195.312 887
-265.625 343.75 1145
367.188 15.625 871
164.062 -242.188 928
296.875 -125 829
-93.75 -140.625 873
304.688 -132.812 827
-484.375 -93.75 973
281.25 -132.812 829
-500 -125 1038
132.812 31.25 928
-117.188 -304.688 978
460.938 359.375 1141
-140.625 -335.938 967
484.375 -382.812 1073
-85.9375 -398.438 948
-484.375 -31.25 973
54.6875 -351.562 1013
117.188 -148.438 845
109.375 -148.438 847
-39.0625 -117.188 871
-312.5 226.562 1054
-85.9375 -312.5 975
-492.188 -62.5 989
-171.875 -359.375 956
-203.125 -117.188 891
210.938 39.0625 918
-382.812 -140.625 975
-351.562 -265.625 3178
375 -78.125 839
-328.125 171.875 1028
-437.5 -226.562 1193
-132.812 -242.188 1007
125 -234.375 948
-23.4375 -390.625 1108
132.812 -148.438 845
140.625 -148.438 839
7.8125 -390.625 1105
-164.062 -312.5 975
-398.438 -39.0625 959
140.625 31.25 928
93.75 273.438 1632
-39.0625 -367.188 1157
367.188 -101.562 829
-195.312 -101.562 896
437.5 406.25 1153
-156.25 -281.25 989
289.062 -125 831
-85.9375 -250 998
93.75 -148.438 847
-179.688 -273.438 989
-343.75 109.375 995
-31.25 226.562 1739
367.188 -85.9375 833
437.5 -117.188 1169
-101.562 -406.25 954
218.75 -140.625 835
-78.125 -304.688 978
492.188 296.875 954
-500 -7.8125 1041
-375 -234.375 1193
-375 -234.375 1193
-7.8125 265.625 1663
-406.25 -148.438 973
-93.75 -23.4375 915
234.375 -132.812 833
-132.812 -398.438 943
273.438 -156.25 839
-109.375 320.312 1564
437.5 296.875 964
265.625 367.188 1439
-70.3125 -398.438 946
-109.375 -437.5 1130
54.6875 -359.375 1013
-351.562 -23.4375 989
-460.938 -234.375 1189
-484.375 148.438 1054
179.688 -156.25 847
-117.188 -242.188 1004
367.188 -15.625 858
-484.375 -117.188 1038
-406.25 -117.188 967
-171.875 -296.875 981
-156.25 70.3125 913
179.688 -148.438 841
-382.812 -148.438 984
-375 -343.75 3120
-484.375 -140.625 1028
273.438 -109.375 837
-93.75 -296.875 981
343.75 -148.438 821
-484.375 -109.375 1041
-101.562 -421.875 1126
-140.625 -359.375 956
265.625 -132.812 831
0 -359.375 1022
390.625 406.25 1130
429.688 132.812 894
-500 -132.812 1028
-476.562 -140.625 962
367.188 -54.6875 845
-148.438 -304.688 975
359.375 203.125 933
367.188 140.625 906
218.75 -125 839
164.062 -179.688 885
-15.625 -406.25 1094
-23.4375 -382.812 1108
-460.938 148.438 1041
-343.75 -468.75 2933
-492.188 0 1016
195.312 -93.75 854
-187.5 -367.188 954
-70.3125 -312.5 973
-210.938 -226.562 1013
257.812 15.625 887
-187.5 -265.625 995
335.938 335.938 1028
0 -390.625 1094
296.875 15.625 880
-437.5 -62.5 954
-164.062 -203.125 1013
140.625 273.438 1624
101.562 273.438 1632
476.562 429.688 1157
-367.188 -406.25 3037
273.438 -132.812 831
226.562 15.625 891
-93.75 -398.438 948
273.438 15.625 882
-125 359.375 1509
164.062 -171.875 885
304.688 -125 827
250 -132.812 833
-171.875 359.375 1210
-148.438 -398.438 946
-187.5 -335.938 964
-390.625 -367.188 3149
-7.8125 -406.25 1090
70.3125 234.375 1722
312.5 414.062 1073
-179.688 -375 951
148.438 234.375 1696
-351.562 -257.812 3178
148.438 -171.875 871
-156.25 -203.125 1004
351.562 242.188 951
-304.688 195.312 1034
-265.625 195.312 1101
-453.125 -31.25 959
117.188 -195.312 889
-500 -281.25 2398
-85.9375 -296.875 978
-62.5 -429.688 1138
460.938 414.062 1115
-70.3125 -257.812 992
-453.125 -218.75 1189
-78.125 -226.562 1007
351.562 257.812 956
320.312 390.625 1060
-132.812 -265.625 995
140.625 390.625 1273
46.875 -359.375 1013
-398.438 -437.5 3037
-187.5 -210.938 1019
-117.188 -437.5 1130
468.75 351.562 1141
93.75 -46.875 878
-132.812 -226.562 1007
335.938 437.5 1185
-398.438 -171.875 995
171.875 -203.125 869
-351.562 -335.938 3092
210.938 -125 837
-39.0625 -367.188 1094
-468.75 -93.75 964
-484.375 -85.9375 975
367.188 -23.4375 856
179.688 132.812 948
320.312 -85.9375 837
-390.625 -429.688 2933
375 -132.812 817
179.688 -203.125 869
125 39.0625 915
187.5 -210.938 869
7.8125 -382.812 1105
351.562 234.375 946
-85.9375 312.5 1594
125 273.438 1624
-453.125 -359.375 2560
-140.625 -320.312 970
187.5 78.125 867
367.188 -117.188 819
-140.625 -304.688 975
-375 -85.9375 975
85.9375 273.438 1639
-398.438 -117.188 973
-109.375 31.25 946
-492.188 7.8125 1010
312.5 437.5 1090
-187.5 54.6875 923
-304.688 -78.125 918
257.812 328.125 1509
335.938 312.5 1016
-101.562 -250 998
195.312 -132.812 835
125 31.25 928
-15.625 -367.188 1097
-460.938 -156.25 962
156.25 429.688 1268
-70.3125 -234.375 1007
398.438 -289.062 2908
476.562 -367.188 1080
335.938 -148.438 817
289.062 -132.812 825
195.312 -234.375 933
-398.438 281.25 1317
-171.875 -390.625 948
226.562 -132.812 831
-351.562 -328.125 3092
-132.812 -367.188 954
-117.188 -398.438 943
164.062 296.875 1404
-85.9375 -250 998
-304.688 -132.812 898
125 -179.688 885
-125 -398.438 951
250 -140.625 829
-414.062 -179.688 981
-140.625 -140.625 878
-375 -109.375 978
257.812 -125 831
-320.312 187.5 1034
-359.375 -382.812 3064
-132.812 -140.625 875
140.625 -234.375 918
148.438 390.625 1278
257.812 132.812 935
-265.625 351.562 1149
93.75 -140.625 845
257.812 -140.625 829
-132.812 -242.188 1004
-39.0625 -359.375 1090
132.812 -242.188 946
-421.875 -46.875 956
-500 -15.625 978
367.188 -148.438 815
39.0625 -46.875 885
359.375 218.75 938
-171.875 -398.438 954
-476.562 -23.4375 975
468.75 429.688 1157
62.5 281.25 1632
179.688 320.312 1398
-289.062 273.438 1070
-429.688 -15.625 964
265.625 -132.812 829
296.875 -125 825
-296.875 156.25 1022
-179.688 -265.625 992
-390.625 -54.6875 964
-382.812 -453.125 2859
-85.9375 -343.75 962
281.25 -78.125 845
367.188 -125 817
-343.75 -265.625 3178
117.188 273.438 1616
250 15.625 885
109.375 250 1705
234.375 15.625 885
179.688 -210.938 869
265.625 15.625 880
-148.438 -359.375 954
226.562 -140.625 831
-164.062 328.125 1219
-312.5 304.688 1268
-335.938 335.938 1223
-375 -375 3037
132.812 234.375 1696
-367.188 -140.625 915
281.25 -70.3125 847
367.188 -7.8125 860
109.375 328.125 1392
210.938 -218.75 918
367.188 -93.75 829
-164.062 31.25 951
-218.75 -140.625 891
250 132.812 935
-453.125 -78.125 954
-406.25 -7.8125 970
-93.75 31.25 951
367.188 31.25 903
250 -125 831
-492.188 -78.125 1108
93.75 -320.312 1050
-187.5 -406.25 967
93.75 257.812 2005
-117.188 -367.188 951
-312.5 -132.812 901
-23.4375 226.562 1739
-15.625 226.562 1739
132.812 273.438 1616
367.188 -39.0625 849
367.188 0 864
367.188 164.062 913
-85.9375 -210.938 1004
343.75 -132.812 817
210.938 -140.625 831
-31.25 -398.438 1105
-156.25 -398.438 946
-484.375 -132.812 1038
-195.312 -328.125 967
289.062 39.0625 908
-7.8125 -359.375 1025
-210.938 -218.75 1016
-156.25 -265.625 989
156.25 -203.125 873
140.625 -218.75 887
-78.125 -281.25 987
-390.625 250 1087
85.9375 -148.438 845
-171.875 -203.125 1013
226.562 -218.75 910
-257.812 -23.4375 938
101.562 -195.312 928
234.375 -125 835
-351.562 -273.438 3149
156.25 234.375 1696
-62.5 -117.188 873
-31.25 328.125 1572
-148.438 -453.125 1153
273.438 -125 829
101.562 39.0625 915
-281.25 -85.9375 913
171.875 304.688 1404
-70.3125 -429.688 1138
171.875 421.875 1278
320.312 15.625 873
375 -125 819
-187.5 -359.375 956
234.375 132.812 928
203.125 -140.625 833
210.938 15.625 885
-367.188 -445.312 2958
468.75 359.375 1141
-359.375 -375 3037
-31.25 -375 1094
367.188 -15.625 858
-109.375 -101.562 885
-39.0625 -406.25 1094
156.25 390.625 1273
-460.938 -406.25 2579
304.688 7.8125 873
257.812 15.625 885
148.438 -218.75 910
-500 -273.438 2415
-343.75 -257.812 3208
367.188 23.4375 867
367.188 23.4375 867
-429.688 -265.625 2598
359.375 210.938 933
-414.062 -46.875 956
468.75 -132.812 1197
-62.5 -398.438 1134
132.812 -195.312 887
-375 328.125 1245
218.75 15.625 885
367.188 -140.625 815
-179.688 -390.625 948
-445.312 273.438 1322
367.188 132.812 901
-320.312 304.688 1259
367.188 -85.9375 831
312.5 15.625 878
-406.25 -187.5 987
-367.188 -453.125 2859
171.875 31.25 923
-367.188 -460.938 2883
273.438 31.25 915
484.375 -132.812 1173
-421.875 -164.062 984
-437.5 -164.062 978
109.375 -210.938 887
250 -132.812 831
109.375 242.188 1705
-23.4375 257.812 1688
-70.3125 -265.625 989
93.75 429.688 1273
-117.188 -328.125 967
-351.562 -304.688 3092
-367.188 -31.25 984
226.562 -226.562 908
-15.625 -359.375 1025
-179.688 -359.375 956
-281.25 296.875 1123
312.5 -132.812 821
-46.875 -320.312 1189
-140.625 -335.938 964
289.062 -125 827
304.688 421.875 1084
-265.625 414.062 1404
-39.0625 226.562 1739
-156.25 -437.5 1149
210.938 31.25 920
-406.25 281.25 1307
93.75 250 2040
-78.125 312.5 1594
-468.75 7.8125 995
-414.062 281.25 1307
46.875 -148.438 851
-390.625 -437.5 2933
-85.9375 -296.875 978
320.312 39.0625 901
367.188 -109.375 823
-351.562 312.5 1264
-367.188 296.875 1297
85.9375 257.812 2005
242.188 15.625 885
312.5 -125 823
437.5 -156.25 1185
453.125 382.812 1141
-70.3125 -242.188 1001
-93.75 -242.188 1001
-109.375 -242.188 1001
203.125 31.25 920
164.062 31.25 920
-414.062 210.938 1067
367.188 -31.25 854
187.5 31.25 918
-148.438 -304.688 975
-429.688 296.875 1317
453.125 -132.812 1202
351.562 265.625 964
-453.125 296.875 1550
-367.188 -132.812 918
-484.375 -125 1041
-148.438 -140.625 878
179.688 31.25 920
140.625 234.375 1696
-93.75 -429.688 1126
-148.438 -414.062 1130
476.562 -414.062 1060
-429.688 -140.625 964
-39.0625 242.188 1722
328.125 343.75 1034
-179.688 -265.625 992
23.4375 31.25 938
-453.125 -132.812 951
-46.875 31.25 940
-351.562 -312.5 3120
195.312 15.625 889
-156.25 -140.625 880
359.375 -164.062 829
-460.938 -148.438 970
101.562 -148.438 843
-500 -125 1041
218.75 -140.625 831
-429.688 -179.688 973
-468.75 -125 962
132.812 -210.938 882
-164.062 -140.625 880
-320.312 343.75 1223
203.125 -132.812 835
-304.688 296.875 1292
-15.625 -398.438 1094
-140.625 -437.5 1138
-343.75 335.938 1223
226.562 15.625 887
-328.125 296.875 1297
-101.562 -328.125 967
195.312 31.25 918
-70.3125 -218.75 1013
367.188 -101.562 827
-7.8125 117.188 943
156.25 320.312 1410
-460.938 -101.562 962
-23.4375 -359.375 1041
203.125 328.125 1370
-125 -234.375 1007
-382.812 328.125 1241
15.625 -320.312 1038
-93.75 -390.625 946
93.75 31.25 925
226.562 -132.812 831
101.562 31.25 925
-125 31.25 948
-85.9375 31.25 946
476.562 -156.25 1173
-375 -390.625 3037
226.562 31.25 918
-390.625 -187.5 995
179.688 -273.438 938
-210.938 -210.938 1047
-289.062 328.125 1255
-304.688 328.125 1255
328.125 390.625 1060
-414.062 304.688 1268
382.812 406.25 1126
179.688 -210.938 869
-148.438 -265.625 992
460.938 406.25 1115
-375 304.688 1278
-179.688 -281.25 987
-320.312 203.125 1044
414.062 -382.812 2767
-132.812 -367.188 954
85.9375 31.25 930
-54.6875 -382.812 1134
23.4375 -148.438 854
390.625 -62.5 841
-406.25 -109.375 970
-375 273.438 1338
-460.938 -156.25 962
109.375 273.438 1624
289.062 -132.812 825
93.75 -148.438 845
-179.688 -367.188 954
70.3125 -148.438 847
367.188 -23.4375 856
484.375 359.375 1141
476.562 -140.625 1177
-23.4375 -140.625 860
-78.125 -398.438 946
-453.125 312.5 1232
-359.375 296.875 1302
-343.75 312.5 1264
-23.4375 226.562 1739
-171.875 -296.875 978
179.688 -226.562 871
-359.375 -390.625 3064
132.812 -226.562 887
-70.3125 312.5 1601
-351.562 320.312 1241
-367.188 -468.75 2859
343.75 382.812 1193
-140.625 -359.375 956
-125 -140.625 875
93.75 250 2040
-101.562 -210.938 1010
312.5 437.5 1090
-320.312 281.25 1322
-320.312 281.25 1322
421.875 429.688 1153
-289.062 -132.812 896
117.188 429.688 1273
171.875 265.625 1624
328.125 -156.25 825
320.312 437.5 1090
-7.8125 -359.375 1025
226.562 39.0625 913
117.188 -210.938 885
70.3125 265.625 1632
-7.8125 31.25 938
-445.312 -335.938 2618
171.875 -210.938 869
7.8125 -375 1097
-335.938 148.438 1013
-109.375 -257.812 998
0 -359.375 1016
156.25 -257.812 940
312.5 -93.75 833
-132.812 -437.5 1134
-304.688 23.4375 970
-500 -289.062 2381
62.5 -148.438 849
-343.75 -289.062 3092
-93.75 -210.938 1007
-156.25 328.125 1458
-265.625 351.562 1149
-7.8125 226.562 1739
132.812 -187.5 891
460.938 -140.625 1181
-179.688 -359.375 956
-343.75 -281.25 3149
7.8125 -359.375 1013
-117.188 31.25 946
-171.875 -398.438 954
-304.688 304.688 1268
-187.5 -273.438 989
125 273.438 1624
203.125 15.625 887
140.625 273.438 1609
-453.125 -398.438 2579
289.062 31.25 913
-23.4375 328.125 1564
-445.312 -164.062 973
-117.188 -250 998
242.188 31.25 918
-132.812 -406.25 954
-406.25 -429.688 3037
-78.125 -414.062 1126
359.375 398.438 1181
156.25 -250 946
343.75 421.875 1181
-359.375 335.938 1223
101.562 -187.5 908
187.5 15.625 891
-93.75 -312.5 975
15.625 -359.375 1016
-156.25 -320.312 970
-15.625 -359.375 1025
-343.75 -273.438 3178
-359.375 -359.375 3037
375 421.875 1177
-421.875 320.312 1245
-359.375 -398.438 3037
-54.6875 -320.312 973
460.938 -132.812 1202
-93.75 -398.438 948
328.125 421.875 1080
-296.875 343.75 1214
93.75 257.812 2005
31.25 -359.375 1013
335.938 -132.812 819
-429.688 -203.125 1197
101.562 -242.188 948
-23.4375 31.25 940
-265.625 -31.25 935
328.125 414.062 1073
-289.062 343.75 1214
367.188 -132.812 817
-62.5 -320.312 973
-257.812 367.188 1157
328.125 437.5 1090
31.25 31.25 935
179.688 250 1705
-492.188 15.625 992
171.875 -203.125 869
398.438 406.25 1119
-164.062 -382.812 951
-31.25 226.562 1748
-375 -382.812 3037
-296.875 320.312 1250
-351.562 289.062 1297
250 15.625 885
-335.938 257.812 1084
54.6875 -148.438 849
-492.188 -171.875 973
-414.062 -242.188 1202
132.812 429.688 1268
406.25 351.562 1141
-484.375 -148.438 973
-445.312 -343.75 2618
250 -125 831
-187.5 -367.188 954
226.562 -148.438 831
234.375 15.625 885
-39.0625 31.25 943
109.375 -148.438 843
-367.188 312.5 1264
78.125 31.25 933
367.188 31.25 903
-375 265.625 1343
-492.188 -7.8125 978
-109.375 320.312 1564
398.438 296.875 964
304.688 -125 823
-500 -296.875 2381
-179.688 -375 951
-398.438 -234.375 1206
132.812 234.375 1696
0 265.625 1663
-468.75 289.062 1322
-406.25 328.125 1236
-343.75 289.062 1297
156.25 242.188 1696
367.188 -148.438 815
-109.375 -296.875 978
-85.9375 -406.25 951
187.5 -125 841
320.312 414.062 1073
187.5 -203.125 873
250 -140.625 829
-500 304.688 1202
367.188 -117.188 819
-296.875 296.875 1288
-484.375 -31.25 973
-375 -195.312 1007
-406.25 -460.938 3010
-351.562 343.75 1219
179.688 -234.375 920
125 -187.5 891
-93.75 -296.875 978
171.875 320.312 1398
-390.625 -70.3125 964
148.438 328.125 1404
-140.625 -406.25 946
312.5 -156.25 821
359.375 187.5 923
-85.9375 -421.875 1126
203.125 -195.312 913
359.375 39.0625 901
-437.5 -289.062 2701
-406.25 -171.875 984
-421.875 -109.375 959
171.875 15.625 891
-156.25 -382.812 948
171.875 -195.312 871
-460.938 312.5 1250
-117.188 148.438 1632
-398.438 335.938 1241
117.188 382.812 1278
-320.312 296.875 1297
-304.688 296.875 1292
93.75 -242.188 1057
304.688 39.0625 906
218.75 15.625 885
328.125 39.0625 901
187.5 -242.188 935
-320.312 320.312 1259
-93.75 -382.812 946
304.688 -132.812 821
-359.375 289.062 1297
-390.625 304.688 1273
-109.375 -406.25 943
-445.312 320.312 1232
-289.062 320.312 1241
312.5 39.0625 901
367.188 132.812 901
335.938 382.812 1057
156.25 15.625 894
468.75 -140.625 1185
-437.5 -140.625 964
164.062 15.625 894
195.312 -140.625 833
-62.5 31.25 943
437.5 -140.625 1219
-164.062 -312.5 975
-101.562 -257.812 998
-351.562 -335.938 3092
-187.5 367.188 1214
210.938 15.625 885
39.0625 31.25 933
-390.625 250 1087
367.188 -164.062 829
-421.875 281.25 1317
179.688 -250 938
359.375 -164.062 829
-70.3125 31.25 943
156.25 -179.688 882
351.562 -164.062 833
343.75 398.438 1202
-125 -343.75 959
-210.938 -218.75 1016
-15.625 226.562 1739
7.8125 226.562 1731
484.375 289.062 954
320.312 390.625 1060
445.312 406.25 1161
335.938 421.875 1185
-445.312 -171.875 973
-375 -31.25 978
-132.812 -398.438 954
476.562 359.375 1141
109.375 -187.5 908
343.75 -125 821
250 -132.812 831
-398.438 289.062 1317
250 31.25 918
257.812 242.188 1671
-351.562 -109.375 910
-101.562 -312.5 973
101.562 429.688 1268
296.875 31.25 913
-351.562 -343.75 3064
335.938 31.25 906
-195.312 429.688 1255
140.625 -320.312 1338
-382.812 304.688 1273
-398.438 312.5 1273
-195.312 -390.625 956
-367.188 273.438 1333
218.75 429.688 1312
-179.688 -398.438 962
-437.5 304.688 1214
156.25 -171.875 875
-476.562 289.062 1333
218.75 -210.938 915
234.375 31.25 918
-429.688 -109.375 951
-148.438 -359.375 954
-187.5 -390.625 954
242.188 85.9375 862
-468.75 320.312 1255
-375 -140.625 987
-335.938 335.938 1223
-15.625 31.25 940
140.625 -171.875 871
476.562 414.062 1115
343.75 390.625 1197
-39.0625 242.188 1722
-164.062 -414.062 1134
-414.062 -54.6875 959
-78.125 31.25 946
-421.875 265.625 1349
-39.0625 406.25 1427
125 -148.438 841
-414.062 -117.188 967
367.188 171.875 918
218.75 31.25 920
257.812 31.25 915
171.875 242.188 1705
-476.562 -179.688 973
70.3125 31.25 933
-484.375 312.5 1245
7.8125 -367.188 1094
195.312 39.0625 913
-164.062 -382.812 951
343.75 -164.062 833
421.875 359.375 1134
-390.625 335.938 1241
-367.188 -328.125 3064
132.812 -156.25 845
351.562 234.375 946
-125 -398.438 951
7.8125 -359.375 1013
257.812 -140.625 829
-359.375 -382.812 3064
-140.625 -398.438 946
117.188 31.25 928
-359.375 328.125 1236
-476.562 296.875 1477
312.5 437.5 1090
351.562 421.875 1169
-109.375 -335.938 964
62.5 -312.5 1038
-70.3125 -250 998
125 -39.0625 875
-382.812 -460.938 2859
-453.125 -335.938 2618
265.625 39.0625 906
93.75 250 2040
-7.8125 -359.375 1025
132.812 31.25 925
132.812 234.375 1696
-281.25 23.4375 967
-179.688 -289.062 987
437.5 -148.438 1185
-171.875 -304.688 975
-445.312 -398.438 3092
140.625 15.625 896
-320.312 335.938 1223
195.312 -203.125 873
-390.625 -429.688 2933
-421.875 296.875 1317
-359.375 296.875 1302
101.562 -210.938 887
148.438 296.875 1404
-343.75 -265.625 3178
437.5 429.688 1161
-406.25 -117.188 970
437.5 406.25 1153
62.5 31.25 930
203.125 39.0625 910
-445.312 -15.625 967
-453.125 -390.625 2579
-382.812 -398.438 3064
0 31.25 938
-101.562 31.25 951
148.438 31.25 920
93.75 -125 849
-429.688 257.812 1090
-398.438 257.812 1087
421.875 -125 1185
-500 0 1025
195.312 15.625 889
-359.375 304.688 1268
-414.062 265.625 1349
335.938 398.438 1063
-265.625 23.4375 970
-31.25 406.25 1421
-289.062 -109.375 903
-125 -242.188 1004
-289.062 23.4375 967
195.312 -117.188 841
-343.75 312.5 1264
-351.562 328.125 1227
-70.3125 -226.562 1010
-289.062 343.75 1214
304.688 -156.25 823
296.875 -156.25 825
109.375 -242.188 948
-210.938 -226.562 1013
320.312 -23.4375 858
273.438 -132.812 827
335.938 39.0625 898
257.812 39.0625 906
-367.188 265.625 1343
265.625 31.25 915
273.438 31.25 915
359.375 31.25 906
359.375 359.375 1161
85.9375 359.375 1333
-93.75 -312.5 975
-85.9375 -226.562 1010
-132.812 343.75 1529
312.5 -132.812 821
187.5 31.25 918
-132.812 -250 1001
-320.312 273.438 1322
0 -359.375 1016
-328.125 -132.812 903
-398.438 -195.312 984
-312.5 320.312 1259
320.312 31.25 906
-179.688 -359.375 956
31.25 -148.438 854
-382.812 250 1087
281.25 31.25 913
-15.625 -148.438 860
-390.625 -195.312 995
445.312 -156.25 1185
-39.0625 -421.875 1157
46.875 -148.438 851
-296.875 273.438 1312
-382.812 -468.75 2859
-359.375 -46.875 981
195.312 -218.75 920
-429.688 328.125 1236
-351.562 289.062 1297
-390.625 312.5 1268
140.625 -156.25 843
46.875 31.25 930
-429.688 7.8125 998
179.688 -203.125 869
-281.25 328.125 1245
-437.5 273.438 1322
-437.5 -179.688 973
-70.3125 -445.312 1149
406.25 406.25 1119
-273.438 320.312 1126
-445.312 -132.812 951
39.0625 -335.938 1013
-421.875 320.312 1245
265.625 398.438 1376
296.875 -125 825
-179.688 -140.625 885
328.125 398.438 1063
492.188 335.938 1161
-289.062 320.312 1241
85.9375 -148.438 845
-398.438 281.25 1317
-320.312 23.4375 970
23.4375 226.562 1731
-492.188 156.25 1057
304.688 31.25 910
179.688 -273.438 938
-359.375 312.5 1264
195.312 -132.812 835
-156.25 -382.812 948
-15.625 -359.375 1025
-31.25 31.25 946
-312.5 281.25 1322
-187.5 -398.438 967
-335.938 312.5 1259
-70.3125 312.5 1601
-46.875 -320.312 1189
-132.812 -328.125 967
-31.25 250 1713
179.688 250 1705
-437.5 320.312 1223
15.625 226.562 1731
-125 -406.25 951
226.562 85.9375 862
31.25 226.562 1731
109.375 31.25 925
-179.688 367.188 1214
-7.8125 226.562 1739
484.375 367.188 1149
-406.25 304.688 1268
-117.188 -210.938 1016
-296.875 328.125 1255
335.938 296.875 981
281.25 85.9375 858
476.562 367.188 1138
-70.3125 -312.5 973
-156.25 -140.625 880
-445.312 273.438 1322
-164.062 -398.438 951
429.688 406.25 1115
-382.812 -132.812 1038
367.188 367.188 1153
140.625 328.125 1404
148.438 15.625 896
460.938 382.812 1157
-250 23.4375 964
390.625 312.5 973
-484.375 273.438 1333
468.75 312.5 959
-187.5 -210.938 1019
468.75 359.375 1141
179.688 15.625 891
-85.9375 -210.938 1004
-367.188 250 1084
-468.75 -156.25 967
-453.125 -148.438 964
-164.062 -281.25 987
257.812 -39.0625 862
367.188 -23.4375 856
328.125 375 1050
-125 -328.125 967
273.438 85.9375 858
-312.5 343.75 1223
117.188 -156.25 845
429.688 429.688 1161
140.625 -226.562 915
-453.125 7.8125 1007
-343.75 93.75 989
-187.5 -203.125 1016
-312.5 335.938 1232
125 -203.125 882
320.312 -156.25 823
-390.625 93.75 1001
226.562 31.25 918
62.5 -148.438 849
-70.3125 -273.438 989
320.312 85.9375 854
-101.562 -296.875 978
-351.562 320.312 1241
367.188 -46.875 845
-476.562 -156.25 970
265.625 -156.25 831
164.062 -234.375 915
-171.875 -140.625 880
335.938 -156.25 825
-398.438 328.125 1241
226.562 -140.625 831
359.375 7.8125 869
328.125 31.25 906
-31.25 117.188 951
-273.438 -140.625 896
-445.312 -140.625 962
-406.25 289.062 1307
367.188 -7.8125 860
281.25 -156.25 829
210.938 31.25 920
-414.062 320.312 1241
-367.188 -54.6875 975
-414.062 -148.438 967
-398.438 -23.4375 973
328.125 -132.812 821
125 31.25 928
23.4375 -148.438 854
125 15.625 896
-359.375 -406.25 3010
-156.25 -460.938 1169
70.3125 -359.375 1016
-171.875 437.5 1232
-23.4375 328.125 1564
-375 -132.812 918
343.75 -164.062 833
117.188 15.625 896
-476.562 265.625 1328
-296.875 23.4375 970
-343.75 320.312 1259
-195.312 -203.125 1019
-171.875 -382.812 951
101.562 328.125 1387
328.125 367.188 1044
117.188 382.812 1278
-437.5 -15.625 964
351.562 125 858
-382.812 -421.875 2958
453.125 125 839
-335.938 335.938 1223
-382.812 -125 984
445.312 390.625 1141
-156.25 -273.438 989
-148.438 -320.312 970
-164.062 -140.625 880
-148.438 -398.438 946
-390.625 -46.875 962
93.75 257.812 2005
-304.688 304.688 1268
-382.812 -320.312 3037
164.062 234.375 1705
-46.875 -367.188 1149
-93.75 -226.562 1010
-343.75 265.625 1084
171.875 15.625 891
-195.312 -93.75 898
-375 328.125 1245
484.375 335.938 1165
-382.812 304.688 1273
-343.75 335.938 1223
-429.688 304.688 1245
-101.562 304.688 1601
-7.8125 -148.438 860
-460.938 250 1094
492.188 289.062 946
-351.562 -320.312 3120
-382.812 -109.375 975
-359.375 -109.375 910
-296.875 296.875 1288
-140.625 -140.625 878
-296.875 351.562 1210
-156.25 117.188 989
445.312 414.062 1165
164.062 15.625 894
-304.688 273.438 1322
-359.375 335.938 1223
-312.5 273.438 1322
109.375 15.625 898
257.812 -156.25 831
-132.812 -140.625 875
289.062 31.25 913
117.188 328.125 1398
335.938 -164.062 831
-257.812 -140.625 894
-343.75 343.75 1219
117.188 -242.188 948
351.562 31.25 908
218.75 -226.562 915
-500 226.562 1108
203.125 31.25 920
-453.125 320.312 1255
101.562 375 1292
-304.688 351.562 1214
156.25 15.625 894
-492.188 304.688 1202
-320.312 -132.812 903
-320.312 -132.812 903
-31.25 -375 1094
-140.625 31.25 948
265.625 -132.812 829
-15.625 -125 864
-453.125 312.5 1232
-398.438 -54.6875 964
140.625 31.25 923
0 265.625 1663
-187.5 -140.625 885
-328.125 335.938 1223
421.875 85.9375 841
-320.312 296.875 1297
54.6875 -359.375 1013
0 -148.438 860
-343.75 289.062 1297
-23.4375 -359.375 1041
-171.875 31.25 954
132.812 234.375 1696
453.125 -148.438 1181
-281.25 320.312 1241
132.812 -250 946
390.625 85.9375 845
-351.562 -281.25 3120
-289.062 328.125 1255
328.125 335.938 1025
-484.375 -179.688 970
132.812 15.625 896
-132.812 31.25 951
242.188 31.25 918
-398.438 320.312 1241
289.062 -156.25 825
328.125 -156.25 825
-359.375 93.75 995
-375 -140.625 987
-414.062 -171.875 981
-468.75 289.062 1322
-476.562 320.312 1259
242.188 15.625 885
-492.188 -46.875 978
-187.5 367.188 1214
-101.562 -312.5 973
320.312 421.875 1080
-445.312 -351.562 2579
-39.0625 -414.062 1090
351.562 398.438 1189
117.188 242.188 1705
-273.438 23.4375 970
-23.4375 226.562 1739
171.875 -273.438 938
93.75 15.625 901
210.938 -210.938 918
335.938 -140.625 817
23.4375 -335.938 1016
-281.25 343.75 1214
140.625 15.625 896
-289.062 296.875 1123
-367.188 -335.938 3064
-195.312 -335.938 964
367.188 7.8125 867
312.5 445.312 1094
320.312 398.438 1063
343.75 31.25 908
-281.25 289.062 1112
390.625 429.688 1177
-179.688 -210.938 1019
-39.0625 242.188 1722
15.625 31.25 938
85.9375 31.25 930
62.5 23.4375 906
-289.062 -140.625 901
-390.625 281.25 1317
-421.875 328.125 1236
-390.625 -171.875 995
-359.375 -39.0625 987
210.938 -242.188 948
-304.688 23.4375 970
-320.312 257.812 1073
-351.562 -203.125 1019
-296.875 -140.625 901
-140.625 117.188 978
-140.625 -265.625 995
85.9375 -257.812 1077
-281.25 -140.625 901
-304.688 328.125 1255
437.5 85.9375 839
171.875 31.25 923
-203.125 -140.625 887
-445.312 -164.062 973
-375 281.25 1307
-382.812 -195.312 1001
-140.625 -203.125 1007
-437.5 -164.062 978
367.188 -140.625 815
164.062 171.875 1647
476.562 390.625 1112
382.812 85.9375 845
-156.25 -265.625 989
195.312 -125 839
7.8125 -382.812 1105
-171.875 -203.125 1013
-109.375 -210.938 1013
85.9375 15.625 903
-85.9375 -335.938 964
296.875 -78.125 843
492.188 -132.812 1153
-320.312 312.5 1259
429.688 398.438 1123
367.188 31.25 903
-320.312 234.375 1063
-460.938 -156.25 962
-195.312 -218.75 1013
-304.688 343.75 1214
125 242.188 1705
54.6875 -148.438 849
-460.938 257.812 1354
351.562 31.25 908
-101.562 -210.938 1010
-367.188 273.438 1333
-328.125 -226.562 3238
335.938 375 1044
398.438 429.688 1130
359.375 31.25 906
-351.562 23.4375 973
273.438 31.25 915
-351.562 296.875 1302
414.062 390.625 1138
-93.75 -414.062 956
-320.312 281.25 1322
-429.688 -46.875 956
-289.062 343.75 1214
-453.125 -93.75 959
359.375 398.438 1181
156.25 -242.188 918
195.312 31.25 918
-164.062 -320.312 970
-398.438 -390.625 3149
-187.5 328.125 1223
-93.75 -390.625 946
164.062 -226.562 910
195.312 351.562 1354
-187.5 -375 951
250 -156.25 831
54.6875 31.25 930
140.625 -179.688 887
132.812 226.562 1696
-296.875 328.125 1255
78.125 421.875 1288
-390.625 312.5 1268
312.5 -93.75 833
-171.875 -343.75 962
-15.625 328.125 1557
218.75 -93.75 847
101.562 15.625 898
-195.312 -140.625 885
203.125 -93.75 849
476.562 -140.625 1177
460.938 367.188 1138
101.562 -250 1087
382.812 406.25 1126
-148.438 -265.625 992
-437.5 -140.625 964
484.375 -140.625 1169
476.562 289.062 954
-140.625 -343.75 959
-304.688 62.5 928
46.875 15.625 908
-335.938 312.5 1259
343.75 -140.625 817
-367.188 304.688 1268
125 -218.75 885
171.875 242.188 1705
453.125 101.562 839
-93.75 -304.688 975
234.375 31.25 918
-78.125 -210.938 1004
250 -140.625 829
-460.938 289.062 1317
148.438 15.625 896
-125 -210.938 1016
-7.8125 31.25 938
-343.75 -250 3208
367.188 -31.25 854
62.5 15.625 906
-289.062 320.312 1241
226.562 -132.812 831
-296.875 320.312 1250
-234.375 23.4375 962
195.312 15.625 889
359.375 421.875 1169
39.0625 226.562 1731
179.688 -242.188 923
242.188 -156.25 833
15.625 226.562 1731
-414.062 281.25 1307
-148.438 -328.125 967
-406.25 -156.25 978
-312.5 234.375 1060
-78.125 -375 948
70.3125 15.625 906
-117.188 -406.25 943
-421.875 242.188 1094
210.938 39.0625 910
-304.688 -140.625 903
-453.125 281.25 1317
492.188 343.75 1161
-429.688 296.875 1317
296.875 31.25 913
328.125 -148.438 819
93.75 250 2040
-54.6875 -281.25 987
468.75 125 839
-406.25 265.625 1338
-468.75 -148.438 970
-335.938 -132.812 903
-500 281.25 1202
171.875 -210.938 869
-421.875 -429.688 3037
218.75 -203.125 918
250 31.25 918
-460.938 -15.625 978
-125 125 984
-164.062 -203.125 1010
-421.875 296.875 1317
273.438 -156.25 831
-93.75 31.25 951
-85.9375 31.25 946
-117.188 31.25 946
-382.812 -203.125 1001
234.375 -156.25 831
-140.625 -460.938 1149
-437.5 281.25 1328
296.875 -312.5 1292
281.25 140.625 928
-281.25 23.4375 967
-398.438 289.062 1317
-476.562 234.375 1108
-390.625 -78.125 964
-132.812 -265.625 995
-414.062 289.062 1312
-117.188 -257.812 995
-484.375 265.625 1333
234.375 -140.625 829
7.8125 -148.438 858
-187.5 437.5 1245
93.75 -242.188 1057
367.188 0 864
-476.562 7.8125 989
148.438 398.438 1273
117.188 429.688 1273
93.75 367.188 1312
179.688 382.812 1292
23.4375 226.562 1731
15.625 265.625 1647
257.812 31.25 915
-265.625 54.6875 925
-179.688 70.3125 913
492.188 125 827
164.062 -195.312 873
460.938 429.688 1161
-54.6875 31.25 940
-414.062 320.312 1241
304.688 31.25 910
-62.5 312.5 1594
-359.375 -328.125 3064
-132.812 -328.125 967
125 15.625 896
-132.812 343.75 1529
250 -125 831
-117.188 -210.938 1016
-351.562 -265.625 3178
-437.5 273.438 1322
375 -46.875 847
367.188 -54.6875 841
-375 250 1087
-351.562 335.938 1227
-203.125 -203.125 1025
375 -54.6875 845
-31.25 250 1713
-445.312 281.25 1317
453.125 85.9375 837
46.875 226.562 1731
-414.062 296.875 1268
54.6875 15.625 906
343.75 -132.812 817
-414.062 257.812 1349
171.875 -203.125 869
117.188 -234.375 887
-359.375 273.438 1338
-140.625 343.75 1523
-445.312 296.875 1564
-148.438 23.4375 954
117.188 234.375 1705
109.375 15.625 898
-382.812 335.938 1241
421.875 125 847
-304.688 281.25 1322
-156.25 -445.312 1161
-367.188 -460.938 2883
-23.4375 -148.438 860
-132.812 -242.188 1004
-375 -398.438 2984
484.375 -125 1177
320.312 31.25 906
-335.938 335.938 1223
-359.375 312.5 1264
-289.062 296.875 1123
-421.875 -179.688 978
-179.688 -289.062 987
-187.5 -398.438 967
-460.938 312.5 1250
-195.312 23.4375 959
15.625 15.625 913
-453.125 312.5 1232
468.75 414.062 1115
335.938 -132.812 819
-179.688 -203.125 1013
93.75 31.25 925
-382.812 304.688 1273
257.812 -125 831
-343.75 296.875 1297
-31.25 -421.875 1090
7.8125 31.25 940
-351.562 -132.812 908
117.188 15.625 896
-500 -164.062 973
-117.188 132.812 987
-414.062 265.625 1349
406.25 -164.062 1288
-140.625 -406.25 946
-156.25 31.25 951
148.438 390.625 1278
-289.062 281.25 1108
-62.5 -320.312 973
-421.875 -164.062 984
375 -70.3125 839
-398.438 304.688 1273
414.062 429.688 1112
171.875 -234.375 915
-281.25 320.312 1241
-343.75 320.312 1259
-328.125 312.5 1259
-453.125 -164.062 962
-281.25 343.75 1214
367.188 -62.5 839
31.25 15.625 910
117.188 -187.5 906
312.5 31.25 908
-328.125 15.625 967
-375 328.125 1245
468.75 -140.625 1185
-406.25 -23.4375 970
-93.75 -296.875 978
492.188 -140.625 1153
-367.188 328.125 1245
-164.062 -406.25 1134
-429.688 273.438 1328
-148.438 -320.312 970
375 429.688 1181
-39.0625 -359.375 1090
15.625 -328.125 1028
210.938 -195.312 910
296.875 -156.25 825
-62.5 31.25 943
-273.438 343.75 1206
468.75 367.188 1134
398.438 -85.9375 1105
-148.438 -343.75 962
328.125 375 1050
-148.438 31.25 951
-414.062 -148.438 967
-414.062 -148.438 967
281.25 31.25 913
-132.812 117.188 981
-31.25 -375 1094
-453.125 -132.812 951
-39.0625 -148.438 867
359.375 31.25 906
93.75 15.625 901
-179.688 31.25 954
140.625 328.125 1404
328.125 -164.062 835
-109.375 -343.75 962
-406.25 -62.5 964
-484.375 -390.625 2467
-429.688 -109.375 951
-125 -148.438 878
-500 -171.875 975
-468.75 -62.5 962
-351.562 -335.938 3092
-359.375 265.625 1338
-31.25 -148.438 864
31.25 226.562 1731
-453.125 414.062 1398
101.562 250 2040
-101.562 -328.125 967
320.312 -164.062 837
453.125 406.25 1115
