ply
format ascii 1.0
comment Created by Open3D
element vertex 2394
property double x
property double y
property double z
end_header
421.875 -351.562 2598
218.75 -382.812 2723
437.5 78.125 759
437.5 140.625 723
-78.125 46.875 767
429.688 -109.375 878
164.062 -390.625 2789
0 -242.188 798
437.5 0 803
164.062 265.625 684
7.8125 -117.188 757
-148.438 -265.625 817
-414.062 226.562 742
7.8125 -312.5 841
-226.562 -398.438 3010
-500 226.562 819
70.3125 -101.562 739
492.188 -343.75 2503
-148.438 -359.375 811
-328.125 257.812 742
7.8125 -234.375 787
-273.438 257.812 716
0 -343.75 839
85.9375 -398.438 2835
-218.75 -414.062 2933
-429.688 -367.188 2241
-23.4375 -406.25 862
70.3125 -109.375 739
-85.9375 78.125 794
148.438 -390.625 2812
156.25 -156.25 819
46.875 -156.25 798
429.688 -93.75 864
296.875 156.25 728
-203.125 -203.125 1001
15.625 -101.562 757
-437.5 -398.438 2170
-15.625 -210.938 880
-125 -226.562 831
-351.562 320.312 841
-382.812 70.3125 998
-23.4375 -93.75 843
31.25 328.125 672
-234.375 46.875 792
-484.375 70.3125 802
429.688 -226.562 973
-210.938 46.875 792
-343.75 -7.8125 1057
93.75 -109.375 734
164.062 203.125 691
-312.5 -93.75 1130
-31.25 -406.25 849
109.375 -281.25 1044
-218.75 -7.8125 747
-93.75 -62.5 694
-70.3125 -312.5 807
-234.375 281.25 722
15.625 -218.75 792
156.25 171.875 730
148.438 179.688 727
437.5 -70.3125 847
429.688 -132.812 894
93.75 -101.562 734
-312.5 -70.3125 1105
351.562 -367.188 2639
46.875 -148.438 798
-101.562 -101.562 675
-117.188 -312.5 803
54.6875 -117.188 742
-187.5 -273.438 829
132.812 210.938 711
-250 -132.812 694
-140.625 78.125 798
242.188 359.375 643
-164.062 -406.25 837
-265.625 46.875 825
0 -273.438 781
0 -265.625 781
-359.375 23.4375 978
-31.25 -257.812 833
0 -109.375 766
-460.938 -375 2198
0 -195.312 803
304.688 -367.188 2659
-296.875 -31.25 878
171.875 85.9375 773
-250 406.25 805
70.3125 -117.188 790
-406.25 109.375 854
7.8125 -242.188 785
70.3125 -359.375 2958
437.5 -351.562 2598
429.688 -203.125 954
-187.5 -226.562 856
-179.688 -210.938 873
-179.688 -125 684
-500 93.75 794
-78.125 7.8125 741
-281.25 7.8125 851
-421.875 -39.0625 875
164.062 164.062 734
148.438 156.25 738
-414.062 125 833
203.125 164.062 690
-500 109.375 802
-453.125 -140.625 973
-312.5 -101.562 1134
-460.938 -460.938 2053
70.3125 414.062 783
-164.062 -164.062 704
132.812 -195.312 819
-421.875 140.625 827
-218.75 273.438 708
437.5 187.5 703
-210.938 -218.75 882
-289.062 -15.625 867
7.8125 320.312 675
-54.6875 -351.562 811
7.8125 -226.562 790
-132.812 -382.812 803
-7.8125 -179.688 796
-203.125 -140.625 694
15.625 -140.625 761
-226.562 0 752
-125 -296.875 805
-437.5 304.688 849
164.062 -171.875 800
281.25 -359.375 2723
93.75 -117.188 805
-421.875 -335.938 2301
-203.125 -304.688 835
-210.938 -78.125 694
-78.125 -359.375 805
-195.312 -70.3125 697
-23.4375 -234.375 847
-7.8125 -359.375 835
445.312 -351.562 2598
148.438 -273.438 1031
-382.812 23.4375 978
-179.688 -62.5 703
429.688 -218.75 967
-320.312 -93.75 1130
93.75 -281.25 1044
-125 -304.688 803
-445.312 -101.562 984
-23.4375 -296.875 823
-218.75 -93.75 684
-468.75 109.375 803
46.875 -93.75 742
257.812 101.562 691
125 351.562 666
7.8125 -125 757
0 -54.6875 811
164.062 210.938 674
-429.688 156.25 817
-140.625 -218.75 837
-164.062 46.875 783
-226.562 351.562 821
-23.4375 -375 833
-7.8125 -304.688 831
-406.25 234.375 749
0 -171.875 794
-39.0625 -375 823
-226.562 -398.438 3010
31.25 -398.438 2883
-445.312 -109.375 978
-445.312 125 841
-296.875 -445.312 2859
179.688 101.562 719
-109.375 296.875 691
-445.312 414.062 1433
250 187.5 694
281.25 -257.812 1010
226.562 -382.812 2723
-226.562 -414.062 2958
-117.188 -250 817
-398.438 93.75 867
46.875 -164.062 798
-296.875 328.125 835
78.125 -398.438 2835
-304.688 -85.9375 1115
-171.875 -210.938 860
15.625 -148.438 821
234.375 171.875 691
39.0625 -140.625 803
-93.75 62.5 783
-148.438 -328.125 809
15.625 -109.375 755
-351.562 -398.438 3208
-367.188 -250 1288
-203.125 -328.125 837
-54.6875 -281.25 813
210.938 -265.625 1019
-210.938 -234.375 871
195.312 203.125 693
195.312 210.938 687
-46.875 320.312 690
-70.3125 304.688 684
-109.375 23.4375 757
-257.812 -117.188 688
-132.812 -390.625 800
-250 -414.062 3010
-117.188 -85.9375 680
-156.25 -414.062 833
429.688 -78.125 854
70.3125 -109.375 739
-15.625 320.312 680
78.125 -78.125 742
0 -242.188 798
296.875 382.812 648
-296.875 -437.5 2883
70.3125 -398.438 2835
23.4375 -117.188 750
109.375 -109.375 734
-23.4375 -140.625 780
-195.312 -7.8125 744
-351.562 250 742
-109.375 -54.6875 700
-343.75 -398.438 3208
429.688 296.875 653
429.688 281.25 658
-312.5 -70.3125 1105
-54.6875 -406.25 833
-492.188 320.312 847
234.375 62.5 706
-23.4375 -148.438 780
234.375 179.688 691
-203.125 429.688 802
-304.688 -54.6875 891
-187.5 -132.812 688
117.188 234.375 703
70.3125 -132.812 787
429.688 -85.9375 862
-62.5 -289.062 811
-359.375 234.375 728
250 179.688 703
273.438 -257.812 1010
125 -203.125 811
437.5 -148.438 908
0 -164.062 794
-203.125 -398.438 849
-437.5 -390.625 2184
-226.562 -93.75 683
-421.875 -31.25 869
-382.812 242.188 736
-382.812 39.0625 987
429.688 320.312 642
-281.25 -406.25 2984
414.062 375 623
39.0625 -164.062 796
-445.312 78.125 823
-437.5 -54.6875 901
-93.75 -54.6875 698
-117.188 -125 679
-335.938 -23.4375 867
-421.875 218.75 741
85.9375 -117.188 803
218.75 156.25 693
-398.438 109.375 796
-234.375 31.25 774
-93.75 46.875 767
-70.3125 0 752
93.75 -109.375 733
-140.625 -273.438 809
-429.688 -273.438 2381
101.562 -289.062 1047
226.562 117.188 694
-437.5 -15.625 847
195.312 132.812 706
351.562 359.375 632
-179.688 -7.8125 736
-195.312 -289.062 821
-437.5 -382.812 2198
-148.438 289.062 693
7.8125 -234.375 783
234.375 164.062 694
39.0625 -218.75 790
-429.688 -359.375 2241
117.188 335.938 657
-101.562 -304.688 802
125 -132.812 811
210.938 109.375 701
0 -335.938 843
-93.75 -250 815
70.3125 -101.562 734
93.75 -101.562 733
218.75 148.438 696
437.5 54.6875 771
-101.562 -101.562 672
-23.4375 -164.062 790
250 140.625 706
-445.312 -93.75 915
39.0625 -109.375 742
93.75 -117.188 803
179.688 195.312 696
-195.312 -117.188 682
70.3125 -78.125 739
-93.75 312.5 687
-210.938 -140.625 696
-296.875 -31.25 875
31.25 -257.812 776
-296.875 257.812 717
257.812 62.5 781
140.625 -187.5 805
-210.938 -265.625 841
265.625 187.5 693
-15.625 -210.938 889
109.375 0 819
62.5 -132.812 790
273.438 117.188 696
156.25 234.375 672
171.875 226.562 678
-414.062 234.375 746
-460.938 78.125 817
-414.062 125 789
-437.5 226.562 747
-156.25 -23.4375 722
-382.812 15.625 975
148.438 234.375 672
-125 -85.9375 679
-296.875 -414.062 2933
156.25 250 693
-460.938 140.625 829
437.5 -46.875 833
7.8125 -148.438 821
-132.812 -414.062 794
-453.125 140.625 829
101.562 -117.188 803
-468.75 156.25 819
-382.812 62.5 1001
-218.75 -78.125 690
484.375 -343.75 2503
242.188 164.062 698
-234.375 15.625 762
117.188 226.562 706
-85.9375 78.125 792
-195.312 -195.312 992
-195.312 -132.812 688
414.062 398.438 628
-359.375 250 736
-117.188 -78.125 683
164.062 218.75 675
-85.9375 -23.4375 728
-132.812 296.875 693
-460.938 62.5 805
-304.688 -46.875 887
-93.75 15.625 746
132.812 -117.188 738
46.875 -148.438 796
-445.312 39.0625 815
-445.312 -132.812 964
101.562 7.8125 821
156.25 179.688 727
-7.8125 -367.188 843
-406.25 351.562 831
78.125 -359.375 2933
-289.062 -7.8125 860
367.188 453.125 701
-320.312 -85.9375 1119
164.062 234.375 672
-54.6875 -343.75 811
281.25 125 727
-210.938 -390.625 856
39.0625 -203.125 790
312.5 132.812 719
46.875 -132.812 798
-109.375 -281.25 805
-375 46.875 829
23.4375 -234.375 785
-476.562 250 825
46.875 -171.875 798
-171.875 -273.438 815
-390.625 7.8125 970
-7.8125 -257.812 781
-390.625 46.875 987
-437.5 -7.8125 839
-15.625 -125 764
39.0625 -210.938 790
-437.5 23.4375 823
-226.562 414.062 798
-367.188 234.375 731
406.25 -359.375 2598
179.688 70.3125 780
-195.312 -15.625 733
-453.125 203.125 815
-437.5 -304.688 2349
-242.188 23.4375 771
234.375 -382.812 2723
-390.625 78.125 809
-281.25 257.812 714
54.6875 -62.5 773
156.25 132.812 717
15.625 -257.812 780
429.688 -62.5 845
-7.8125 -117.188 759
-7.8125 -187.5 798
-39.0625 -382.812 831
0 -15.625 841
-445.312 -85.9375 915
-390.625 234.375 734
-109.375 -148.438 691
-210.938 250 710
-46.875 -390.625 833
-101.562 -93.75 674
140.625 -125 741
0 -109.375 755
-445.312 70.3125 827
0 -234.375 781
-445.312 -335.938 2286
148.438 195.312 697
-85.9375 -15.625 728
-23.4375 -367.188 835
-343.75 242.188 727
429.688 328.125 638
156.25 226.562 672
-234.375 406.25 800
7.8125 -218.75 787
-304.688 -304.688 2908
-250 -132.812 694
-335.938 -195.312 1227
242.188 -382.812 2723
-23.4375 -156.25 789
171.875 148.438 704
296.875 -375 2659
-250 265.625 710
-234.375 -39.0625 720
-468.75 -320.312 2984
-101.562 7.8125 739
-15.625 -273.438 837
-421.875 140.625 776
39.0625 -195.312 790
-31.25 -179.688 790
-203.125 -312.5 825
-203.125 -281.25 829
-312.5 -257.812 2744
-390.625 15.625 970
-15.625 -257.812 789
-375 234.375 733
117.188 -117.188 738
-148.438 7.8125 742
7.8125 -226.562 785
421.875 359.375 628
-39.0625 -257.812 829
-93.75 304.688 684
148.438 -132.812 827
257.812 101.562 691
-125 7.8125 741
-492.188 273.438 867
179.688 125 717
-54.6875 -265.625 819
-164.062 -414.062 833
-164.062 62.5 790
-156.25 -351.562 809
-437.5 171.875 764
398.438 421.875 659
-304.688 -437.5 2883
-453.125 7.8125 943
0 -273.438 778
70.3125 -117.188 790
54.6875 -140.625 796
437.5 85.9375 754
85.9375 -398.438 2835
-234.375 85.9375 802
-62.5 -140.625 930
-289.062 421.875 1028
31.25 -140.625 800
-257.812 70.3125 811
-453.125 93.75 809
148.438 171.875 731
421.875 -210.938 959
203.125 343.75 648
-476.562 -429.688 2116
-218.75 -328.125 847
-289.062 -46.875 717
-304.688 -46.875 887
-125 -179.688 873
15.625 -7.8125 837
-203.125 -382.812 851
-171.875 -171.875 703
-164.062 -171.875 703
437.5 -39.0625 829
-312.5 406.25 998
-203.125 -390.625 849
304.688 -375 2659
164.062 -390.625 2744
-23.4375 -226.562 864
109.375 257.812 690
-320.312 -85.9375 1119
-296.875 265.625 723
-226.562 273.438 706
-31.25 -250 837
31.25 -156.25 798
-218.75 78.125 803
-203.125 281.25 701
-492.188 -296.875 2933
117.188 242.188 698
-281.25 7.8125 851
-265.625 398.438 803
-500 265.625 871
-148.438 -421.875 835
-23.4375 -132.812 776
-164.062 351.562 789
429.688 273.438 663
273.438 351.562 642
187.5 164.062 693
218.75 351.562 646
453.125 -351.562 2598
-85.9375 -304.688 803
-226.562 -117.188 684
171.875 109.375 719
421.875 -218.75 967
-460.938 -132.812 970
-304.688 257.812 720
250 156.25 706
-23.4375 -242.188 794
-257.812 -125 691
-406.25 109.375 796
125 -109.375 739
-492.188 -398.438 3149
-187.5 -132.812 687
-445.312 148.438 821
-54.6875 312.5 682
-234.375 -398.438 2958
-273.438 31.25 773
85.9375 -62.5 736
-101.562 296.875 686
-476.562 62.5 802
-460.938 109.375 803
-445.312 -93.75 915
-15.625 -367.188 839
-70.3125 -296.875 809
406.25 406.25 638
-312.5 250 720
-265.625 54.6875 821
-226.562 -296.875 856
-437.5 0 839
-296.875 -398.438 2984
390.625 421.875 662
-320.312 -93.75 1126
437.5 23.4375 789
-296.875 -117.188 693
-156.25 -406.25 800
-125 -117.188 676
39.0625 -140.625 798
-23.4375 -171.875 790
15.625 -101.562 749
125 343.75 657
-187.5 -218.75 849
-203.125 289.062 708
140.625 195.312 722
-109.375 46.875 771
-390.625 226.562 734
-437.5 -460.938 2065
-125 375 805
-140.625 382.812 803
429.688 -179.688 930
-234.375 -414.062 2984
-15.625 -148.438 785
0 -234.375 781
-101.562 -85.9375 676
-445.312 187.5 750
-164.062 -187.5 867
226.562 195.312 693
171.875 164.062 698
343.75 -367.188 2618
148.438 -140.625 825
-296.875 -78.125 694
-367.188 31.25 984
-39.0625 -117.188 910
39.0625 -132.812 802
-453.125 -78.125 987
179.688 148.438 703
54.6875 328.125 667
281.25 148.438 723
-437.5 54.6875 807
171.875 203.125 693
-117.188 -85.9375 676
218.75 -265.625 1019
-453.125 -39.0625 975
-62.5 -148.438 938
-62.5 -234.375 829
445.312 -132.812 889
-7.8125 -46.875 807
-140.625 437.5 787
304.688 367.188 632
-15.625 -203.125 889
-335.938 242.188 722
-250 -54.6875 711
-187.5 -15.625 731
140.625 335.938 655
-398.438 -15.625 975
-78.125 -171.875 878
-203.125 -78.125 690
0 -156.25 792
-140.625 39.0625 767
125 218.75 707
-468.75 242.188 819
31.25 -148.438 798
132.812 210.938 714
101.562 -398.438 2812
-187.5 -70.3125 693
257.812 351.562 642
-125 -320.312 802
429.688 -101.562 869
93.75 -398.438 2835
-437.5 -23.4375 858
-7.8125 -257.812 781
7.8125 -109.375 750
-171.875 78.125 800
-265.625 -85.9375 693
-78.125 -367.188 809
-281.25 -414.062 2933
250 101.562 691
-195.312 281.25 700
-460.938 -125 973
343.75 -351.562 2639
85.9375 -335.938 2908
-296.875 -406.25 2958
39.0625 -203.125 790
-78.125 -187.5 875
-109.375 -125 679
-54.6875 320.312 688
-179.688 23.4375 761
-109.375 -132.812 683
226.562 179.688 690
-31.25 312.5 678
-453.125 -46.875 984
-289.062 -7.8125 860
0 -335.938 843
367.188 367.188 629
421.875 -195.312 946
-257.812 -62.5 707
250 62.5 704
-320.312 -85.9375 1119
31.25 -250 774
23.4375 -187.5 792
7.8125 -140.625 757
-31.25 -257.812 835
382.812 -351.562 2659
156.25 -390.625 2767
-242.188 -414.062 3010
-445.312 -453.125 2053
-304.688 250 720
70.3125 328.125 663
7.8125 -265.625 778
-289.062 390.625 805
-445.312 210.938 746
171.875 -390.625 2767
-117.188 296.875 688
-93.75 -54.6875 698
335.938 375 631
148.438 -171.875 813
-171.875 -140.625 691
-398.438 54.6875 1013
-429.688 -54.6875 898
-93.75 -46.875 703
234.375 70.3125 706
117.188 -140.625 813
-46.875 -398.438 835
39.0625 -46.875 759
367.188 -281.25 2659
-93.75 -148.438 694
-85.9375 -7.8125 733
-289.062 -335.938 3010
-125 -312.5 802
15.625 320.312 671
210.938 351.562 646
-109.375 -320.312 802
-85.9375 -273.438 809
-39.0625 -148.438 787
250 -382.812 2659
-414.062 218.75 739
23.4375 -171.875 796
-375 46.875 829
-101.562 -265.625 809
-453.125 46.875 807
414.062 -359.375 2598
-492.188 343.75 964
140.625 -62.5 781
210.938 171.875 688
7.8125 -93.75 754
-367.188 39.0625 829
-281.25 15.625 847
31.25 -257.812 776
78.125 -93.75 734
-250 -70.3125 698
312.5 156.25 727
93.75 335.938 658
39.0625 335.938 671
0 -109.375 755
-234.375 31.25 774
-421.875 351.562 833
31.25 335.938 672
-273.438 265.625 714
-359.375 15.625 851
-148.438 15.625 752
429.688 257.812 670
-445.312 -70.3125 908
-445.312 218.75 746
-210.938 -7.8125 741
-500 0 867
-171.875 289.062 697
179.688 250 666
-31.25 -382.812 835
-265.625 -390.625 3037
156.25 335.938 655
93.75 -156.25 851
7.8125 -156.25 817
-312.5 -62.5 898
-445.312 -320.312 2301
-210.938 39.0625 776
195.312 148.438 697
273.438 171.875 693
-445.312 -117.188 964
-453.125 -62.5 992
0 -203.125 802
-117.188 -78.125 683
0 -171.875 794
-312.5 -375 3092
-445.312 -78.125 915
-39.0625 -171.875 790
-31.25 -171.875 790
-476.562 359.375 1038
234.375 359.375 642
429.688 -210.938 959
-15.625 -171.875 794
171.875 -351.562 2859
-484.375 -335.938 3037
218.75 210.938 694
-54.6875 -273.438 817
-218.75 -7.8125 741
-304.688 -46.875 887
-312.5 -468.75 2789
-23.4375 -226.562 864
-304.688 -39.0625 882
226.562 140.625 700
-31.25 -203.125 882
-7.8125 -39.0625 805
-195.312 -234.375 841
-445.312 226.562 747
15.625 -132.812 757
39.0625 -125 802
351.562 -367.188 2639
-429.688 -46.875 887
226.562 -265.625 1019
-85.9375 -15.625 728
46.875 -125 798
-187.5 -265.625 827
-359.375 -398.438 3208
125 140.625 747
31.25 -242.188 781
-132.812 -15.625 727
70.3125 -101.562 734
-187.5 -351.562 823
-296.875 -23.4375 875
148.438 140.625 720
-437.5 -15.625 847
-78.125 31.25 754
-85.9375 62.5 780
-39.0625 -164.062 790
-54.6875 -296.875 811
-296.875 -437.5 2883
-15.625 -187.5 798
-117.188 -85.9375 676
312.5 -375 2659
-187.5 -273.438 823
-195.312 -382.812 851
-437.5 -296.875 2365
-7.8125 -250 785
-460.938 -367.188 2212
429.688 -203.125 954
-109.375 -109.375 674
101.562 -281.25 1044
187.5 343.75 647
-257.812 -70.3125 700
-15.625 320.312 676
-85.9375 70.3125 787
429.688 242.188 676
-39.0625 -281.25 819
39.0625 -179.688 794
-390.625 15.625 970
-15.625 -179.688 796
-109.375 -117.188 675
-101.562 -85.9375 676
429.688 -187.5 938
-281.25 257.812 714
-250 -117.188 687
234.375 148.438 700
-85.9375 -281.25 807
15.625 7.8125 825
210.938 203.125 693
-453.125 335.938 837
-312.5 -70.3125 1101
117.188 226.562 706
31.25 -234.375 785
-273.438 -117.188 690
-335.938 250 725
-101.562 -304.688 802
-304.688 -242.188 1268
-117.188 -70.3125 688
226.562 148.438 697
-125 -382.812 798
-437.5 210.938 746
210.938 195.312 690
-289.062 351.562 823
-210.938 -328.125 839
429.688 -218.75 967
304.688 -375 2659
54.6875 -109.375 738
-195.312 -70.3125 693
-39.0625 -367.188 825
-31.25 -257.812 835
-398.438 -7.8125 973
-273.438 39.0625 831
468.75 -187.5 2415
367.188 -367.188 2618
-289.062 -398.438 2984
-242.188 273.438 708
-398.438 226.562 736
-164.062 46.875 778
-39.0625 -187.5 894
250 101.562 691
-140.625 -320.312 803
85.9375 -78.125 734
-398.438 93.75 796
-382.812 62.5 1001
-93.75 -39.0625 708
-390.625 359.375 827
-429.688 218.75 742
-203.125 23.4375 764
-437.5 15.625 835
-312.5 -62.5 898
109.375 242.188 698
-468.75 -398.438 2143
-468.75 -390.625 2198
109.375 -101.562 734
156.25 203.125 694
-437.5 31.25 819
164.062 179.688 700
171.875 78.125 778
15.625 398.438 790
-289.062 257.812 714
-398.438 85.9375 867
-437.5 85.9375 815
0 -257.812 781
-296.875 -429.688 2908
148.438 187.5 722
-7.8125 -351.562 843
-171.875 -406.25 833
-218.75 -140.625 696
304.688 375 634
-453.125 -445.312 2090
132.812 -39.0625 796
-7.8125 -164.062 792
-210.938 46.875 783
-93.75 -375 807
-265.625 54.6875 821
296.875 132.812 722
-117.188 -132.812 683
-242.188 281.25 717
-304.688 -39.0625 882
-320.312 -468.75 2812
-78.125 304.688 684
-125 304.688 694
-117.188 -296.875 802
-437.5 343.75 835
-195.312 -375 847
164.062 226.562 674
-242.188 -125 690
-460.938 -375 2212
-218.75 -273.438 843
429.688 226.562 683
-125 -273.438 809
-320.312 -54.6875 1090
320.312 -375 2639
-148.438 46.875 773
-226.562 -312.5 854
-226.562 -312.5 854
179.688 -390.625 2723
-23.4375 -179.688 796
-109.375 296.875 687
242.188 -382.812 2723
-39.0625 -382.812 831
-296.875 -54.6875 714
343.75 359.375 634
-257.812 70.3125 811
375 -359.375 2598
-187.5 -117.188 680
-445.312 93.75 813
7.8125 -132.812 757
-132.812 -304.688 803
0 320.312 674
-414.062 117.188 843
289.062 156.25 730
-406.25 101.562 796
-398.438 320.312 841
-445.312 -85.9375 915
-148.438 289.062 693
0 -250 783
-453.125 218.75 819
148.438 -148.438 823
-437.5 7.8125 837
-179.688 -296.875 811
0 -226.562 781
7.8125 320.312 672
179.688 351.562 649
312.5 367.188 632
-289.062 0 858
109.375 -398.438 2812
7.8125 -210.938 789
187.5 117.188 717
-15.625 -203.125 889
-164.062 -203.125 854
281.25 -257.812 1007
203.125 101.562 707
273.438 203.125 691
-101.562 23.4375 752
-101.562 -93.75 674
-109.375 -257.812 813
429.688 -226.562 973
-390.625 39.0625 984
218.75 140.625 700
85.9375 -359.375 2933
-210.938 -140.625 696
132.812 -117.188 738
148.438 -273.438 1031
-195.312 -320.312 819
-445.312 132.812 835
-437.5 -382.812 2198
-382.812 -289.062 2450
-367.188 31.25 984
-234.375 -39.0625 720
-31.25 -242.188 843
-117.188 -101.562 674
-125 -70.3125 688
39.0625 -187.5 794
242.188 78.125 700
429.688 250 674
-421.875 132.812 829
-500 382.812 1307
-125 -203.125 847
101.562 -390.625 2835
7.8125 -148.438 821
0 -281.25 849
289.062 148.438 723
-195.312 -39.0625 716
-210.938 281.25 704
93.75 -359.375 2908
-203.125 -93.75 680
195.312 -390.625 2723
85.9375 -398.438 2835
-23.4375 312.5 678
281.25 359.375 637
203.125 195.312 688
31.25 -179.688 794
-7.8125 -156.25 790
-85.9375 -179.688 875
-7.8125 -250 785
429.688 -171.875 925
-500 -398.438 3149
-164.062 296.875 700
421.875 -359.375 2598
31.25 -242.188 781
-367.188 242.188 733
421.875 -171.875 925
-429.688 15.625 831
-31.25 -226.562 858
117.188 218.75 708
7.8125 -125 755
-421.875 -328.125 2301
15.625 -250 781
-234.375 -93.75 684
-187.5 -242.188 833
148.438 -164.062 813
-429.688 -398.438 2198
39.0625 -171.875 796
-132.812 -85.9375 680
-164.062 414.062 789
-117.188 -148.438 691
429.688 -46.875 835
-429.688 156.25 767
109.375 -148.438 823
-101.562 -312.5 802
31.25 -250 774
-85.9375 -296.875 803
429.688 218.75 688
-179.688 -382.812 823
-218.75 -15.625 736
39.0625 -195.312 790
-296.875 -39.0625 727
-179.688 -359.375 819
148.438 -156.25 817
-437.5 -273.438 2835
-125 -320.312 802
-117.188 -93.75 674
132.812 -31.25 802
-257.812 -62.5 707
-109.375 -296.875 802
-148.438 -382.812 803
-15.625 328.125 679
-132.812 -93.75 676
-445.312 -421.875 2129
-351.562 0 860
93.75 -281.25 1041
-39.0625 -234.375 843
203.125 375 663
-460.938 -117.188 973
31.25 -257.812 776
-453.125 195.312 813
101.562 -398.438 2812
-320.312 -78.125 1115
-195.312 -218.75 854
171.875 351.562 649
-210.938 -273.438 837
156.25 195.312 696
-445.312 343.75 837
-46.875 -398.438 835
70.3125 335.938 663
-109.375 -312.5 802
-265.625 46.875 825
-265.625 -281.25 2812
-148.438 39.0625 769
-210.938 -390.625 856
-289.062 -328.125 2984
0 -328.125 843
-414.062 382.812 1038
-320.312 250 720
-187.5 -125 684
-226.562 273.438 706
-453.125 210.938 815
-39.0625 -226.562 847
93.75 -101.562 733
-93.75 -31.25 713
101.562 335.938 658
-39.0625 -242.188 837
-15.625 -109.375 769
-460.938 -101.562 978
-351.562 7.8125 851
-125 7.8125 741
93.75 343.75 661
195.312 343.75 647
-117.188 -140.625 687
39.0625 -164.062 796
31.25 -234.375 785
-101.562 -398.438 794
-23.4375 -218.75 871
-484.375 250 823
-398.438 -7.8125 973
-406.25 210.938 744
-101.562 -46.875 703
-289.062 -39.0625 727
-171.875 296.875 703
-203.125 -70.3125 693
-265.625 -398.438 3037
-101.562 -296.875 802
0 -250 783
15.625 -406.25 2859
-453.125 85.9375 815
-132.812 -296.875 803
-78.125 -320.312 805
179.688 -382.812 2767
-85.9375 -289.062 803
-437.5 15.625 835
179.688 132.812 717
-304.688 -429.688 2908
140.625 -390.625 2812
-7.8125 -171.875 794
93.75 -109.375 733
234.375 171.875 693
-46.875 -359.375 817
0 -242.188 783
-132.812 304.688 697
-109.375 -109.375 674
-70.3125 304.688 683
-171.875 -179.688 978
-179.688 -187.5 878
-257.812 265.625 711
-7.8125 -101.562 766
148.438 164.062 736
-445.312 -62.5 903
-343.75 -15.625 867
-335.938 257.812 736
31.25 -226.562 789
-460.938 54.6875 807
-85.9375 -359.375 807
-312.5 -382.812 3064
-421.875 226.562 741
31.25 -125 747
-7.8125 -265.625 781
-15.625 -195.312 798
-429.688 148.438 821
23.4375 -406.25 2859
-218.75 -78.125 690
-304.688 -468.75 2789
328.125 -375 2639
-453.125 -132.812 970
-453.125 -335.938 2286
429.688 203.125 694
-453.125 -140.625 970
429.688 -179.688 930
-476.562 -250 1317
-203.125 -328.125 825
-273.438 273.438 722
-468.75 101.562 805
-390.625 70.3125 1001
-125 382.812 803
-445.312 70.3125 827
203.125 187.5 688
-140.625 -187.5 869
-101.562 304.688 686
-312.5 -460.938 2812
226.562 117.188 694
156.25 226.562 672
-156.25 -375 811
382.812 437.5 684
70.3125 -93.75 734
-39.0625 312.5 679
-46.875 -62.5 873
171.875 132.812 717
429.688 -164.062 918
148.438 343.75 654
468.75 -351.562 2598
-195.312 -132.812 688
156.25 218.75 674
93.75 -117.188 803
-54.6875 -226.562 841
296.875 140.625 722
117.188 -398.438 2812
406.25 -359.375 2598
0 -257.812 781
-312.5 250 720
-281.25 23.4375 843
156.25 148.438 742
-62.5 312.5 682
-250 78.125 805
-445.312 85.9375 815
-132.812 -39.0625 710
93.75 -398.438 2835
7.8125 -265.625 778
-46.875 -257.812 825
171.875 -390.625 2767
0 -273.438 778
-187.5 31.25 769
-265.625 -125 693
-390.625 23.4375 975
-414.062 -7.8125 845
140.625 250 694
-140.625 -406.25 794
-187.5 -125 684
156.25 -273.438 1031
-226.562 -39.0625 719
-101.562 -70.3125 688
-445.312 31.25 821
-304.688 -70.3125 704
-210.938 101.562 789
-125 46.875 771
-421.875 234.375 747
437.5 257.812 670
-460.938 101.562 805
-242.188 -398.438 2958
-242.188 15.625 766
-460.938 250 819
-304.688 414.062 1013
-398.438 234.375 738
-273.438 46.875 827
-46.875 -367.188 819
-273.438 -156.25 714
429.688 234.375 679
-148.438 78.125 798
117.188 -109.375 738
-257.812 -117.188 687
250 140.625 706
-234.375 23.4375 769
132.812 203.125 717
-476.562 281.25 864
421.875 343.75 632
-164.062 78.125 798
0 -289.062 845
0 -7.8125 837
148.438 148.438 742
273.438 -375 2701
234.375 140.625 704
-179.688 101.562 787
-195.312 281.25 700
-414.062 117.188 843
-296.875 -15.625 869
-179.688 78.125 802
-140.625 -312.5 803
-140.625 -312.5 803
7.8125 -406.25 2835
148.438 257.812 688
-218.75 -250 862
23.4375 335.938 676
-85.9375 -398.438 802
-281.25 15.625 847
0 -156.25 792
-398.438 85.9375 867
-242.188 -390.625 3010
257.812 -382.812 2659
265.625 -382.812 2680
-312.5 398.438 815
-117.188 -250 815
-312.5 -54.6875 887
-7.8125 -70.3125 819
-171.875 -320.312 809
-148.438 -375 807
-210.938 -210.938 882
31.25 -218.75 789
39.0625 -109.375 742
-23.4375 -218.75 871
-85.9375 54.6875 774
101.562 -101.562 733
-382.812 54.6875 1007
-218.75 -304.688 839
-429.688 -351.562 2256
39.0625 -179.688 794
23.4375 -218.75 789
460.938 -351.562 2598
-62.5 320.312 688
398.438 406.25 637
250 -382.812 2659
250 101.562 691
-187.5 -257.812 827
468.75 -335.938 2618
226.562 -265.625 1019
-85.9375 -7.8125 733
-484.375 242.188 819
312.5 -375 2659
-39.0625 -179.688 959
-343.75 242.188 727
-273.438 39.0625 831
132.812 125 720
-492.188 78.125 800
-109.375 -273.438 807
171.875 218.75 680
-78.125 -359.375 807
-289.062 0 858
429.688 195.312 700
414.062 -359.375 2598
-31.25 -187.5 967
-7.8125 -351.562 843
148.438 218.75 674
429.688 -187.5 938
-390.625 242.188 741
62.5 -109.375 738
125 -23.4375 802
210.938 226.562 663
-406.25 -23.4375 875
-70.3125 -359.375 809
0 -226.562 781
-140.625 289.062 693
-78.125 -312.5 805
-15.625 -117.188 769
-203.125 281.25 701
7.8125 -203.125 790
156.25 250 693
-406.25 226.562 736
-117.188 296.875 688
-304.688 -421.875 2908
-453.125 195.312 813
-335.938 -265.625 2812
117.188 250 694
-453.125 -125 973
414.062 375 623
-187.5 -62.5 698
-39.0625 -257.812 829
164.062 -132.812 752
-171.875 -31.25 717
171.875 234.375 675
421.875 382.812 620
31.25 -234.375 785
-445.312 179.688 813
23.4375 -164.062 798
39.0625 -171.875 796
117.188 343.75 657
70.3125 -109.375 734
-109.375 -117.188 675
0 -304.688 843
171.875 171.875 698
-320.312 -78.125 1115
-140.625 -375 803
-117.188 -148.438 691
484.375 -195.312 2432
429.688 210.938 691
375 -367.188 2598
-140.625 -343.75 803
-390.625 31.25 978
-437.5 164.062 815
-46.875 -281.25 817
-445.312 -414.062 2143
140.625 -132.812 835
476.562 -351.562 2579
-390.625 226.562 734
179.688 257.812 667
-484.375 226.562 815
-304.688 -437.5 2883
-179.688 -62.5 698
-468.75 164.062 815
-101.562 -78.125 683
-242.188 31.25 778
-218.75 -257.812 856
-468.75 39.0625 825
-117.188 -62.5 693
-265.625 -117.188 688
31.25 -406.25 2835
132.812 234.375 676
-250 -250 2701
-7.8125 -265.625 781
23.4375 -265.625 778
-453.125 -117.188 973
109.375 -398.438 2812
-476.562 -421.875 2129
-406.25 265.625 785
328.125 375 632
-210.938 -203.125 882
31.25 -226.562 789
31.25 -242.188 781
-85.9375 0 736
-320.312 -70.3125 1105
7.8125 -257.812 781
468.75 312.5 811
398.438 414.062 649
-140.625 296.875 693
421.875 -234.375 981
-218.75 46.875 787
218.75 117.188 698
-109.375 -109.375 674
62.5 -78.125 741
-132.812 -171.875 704
-78.125 39.0625 762
0 -117.188 755
-62.5 -273.438 815
-7.8125 -242.188 790
23.4375 328.125 670
93.75 -109.375 733
-195.312 -132.812 688
-93.75 -46.875 703
-234.375 -117.188 686
-23.4375 -375 837
-156.25 289.062 694
132.812 -125 807
429.688 -156.25 910
156.25 343.75 653
-375 39.0625 984
156.25 140.625 719
-218.75 -210.938 882
-328.125 -93.75 1126
-31.25 -195.312 882
-70.3125 -289.062 809
429.688 -195.312 943
-117.188 -125 679
0 -320.312 843
0 -234.375 781
226.562 70.3125 704
164.062 156.25 738
429.688 187.5 703
-101.562 -390.625 798
-31.25 -382.812 835
-445.312 156.25 817
148.438 187.5 722
0 -242.188 783
15.625 -117.188 749
273.438 359.375 638
15.625 -406.25 2859
125 -398.438 2767
-93.75 -273.438 809
-78.125 -367.188 809
39.0625 -406.25 2835
195.312 -390.625 2723
156.25 -273.438 1031
-179.688 -304.688 811
-257.812 46.875 787
-328.125 -273.438 2812
46.875 -125 790
101.562 -281.25 1041
-304.688 265.625 720
-375 234.375 730
-273.438 -429.688 2984
164.062 210.938 693
117.188 -359.375 2908
-289.062 -421.875 2908
-296.875 -390.625 2958
-398.438 390.625 1031
234.375 117.188 691
-226.562 -343.75 854
-351.562 406.25 1025
-367.188 23.4375 843
132.812 -46.875 792
132.812 -195.312 805
-414.062 0 837
-460.938 -367.188 2170
-234.375 -132.812 690
-468.75 -460.938 2040
-289.062 -437.5 2883
-234.375 -281.25 856
-109.375 7.8125 738
-15.625 -195.312 800
-62.5 -187.5 887
140.625 -179.688 805
-23.4375 -125 764
39.0625 -164.062 796
-117.188 -296.875 802
-335.938 -31.25 878
-23.4375 -328.125 831
-203.125 -234.375 837
-62.5 -328.125 809
-132.812 -15.625 723
-31.25 -148.438 787
117.188 -398.438 2812
148.438 -148.438 759
421.875 328.125 638
-281.25 23.4375 773
-429.688 -453.125 2156
429.688 171.875 708
93.75 -101.562 733
-289.062 -382.812 3010
-187.5 -203.125 856
-390.625 39.0625 984
281.25 -382.812 2639
-156.25 -335.938 803
429.688 -359.375 2598
-109.375 -320.312 800
-242.188 -210.938 1004
-312.5 -54.6875 894
140.625 -109.375 741
-132.812 -296.875 800
-125 -421.875 843
-445.312 -429.688 2116
-140.625 -320.312 802
-7.8125 -343.75 845
-390.625 70.3125 811
-484.375 171.875 809
-289.062 7.8125 849
-140.625 -257.812 811
-265.625 62.5 813
-414.062 -304.688 2349
15.625 -179.688 792
-164.062 -375 809
-23.4375 320.312 674
-23.4375 320.312 674
-429.688 78.125 858
179.688 -390.625 2723
-265.625 -62.5 704
-140.625 -390.625 790
164.062 273.438 680
-164.062 -406.25 796
93.75 -117.188 800
-226.562 -281.25 841
-320.312 -70.3125 1101
-476.562 -54.6875 987
132.812 -398.438 2744
257.812 125 693
-406.25 -281.25 2398
148.438 265.625 686
171.875 359.375 653
70.3125 -54.6875 738
-148.438 437.5 789
429.688 -125 885
-250 -132.812 693
-382.812 54.6875 825
421.875 312.5 646
-218.75 -234.375 854
0 -234.375 781
23.4375 -406.25 2859
-132.812 -226.562 825
234.375 359.375 641
234.375 359.375 641
-468.75 -390.625 2156
226.562 359.375 642
-289.062 257.812 714
273.438 -382.812 2659
-156.25 -414.062 794
-125 296.875 688
0 -226.562 785
320.312 -375 2659
117.188 -109.375 736
39.0625 -156.25 796
-15.625 -187.5 796
-117.188 359.375 771
-171.875 109.375 781
-31.25 -156.25 787
-359.375 15.625 851
-210.938 -226.562 856
296.875 367.188 632
429.688 148.438 720
187.5 -367.188 2812
421.875 -148.438 903
140.625 234.375 670
-398.438 0 967
-23.4375 -179.688 790
289.062 453.125 750
-492.188 359.375 1057
125 125 719
-132.812 -242.188 815
203.125 -390.625 2723
-101.562 -179.688 875
-70.3125 -265.625 815
234.375 164.062 698
125 140.625 746
70.3125 -101.562 734
421.875 359.375 627
335.938 -375 2639
187.5 359.375 648
-203.125 -289.062 819
382.812 -367.188 2598
101.562 -101.562 733
242.188 140.625 704
218.75 -375 2744
390.625 -242.188 984
148.438 195.312 694
421.875 -187.5 938
406.25 375 623
242.188 70.3125 700
85.9375 -101.562 733
78.125 -398.438 2835
31.25 -406.25 2835
421.875 -156.25 910
-414.062 265.625 778
-7.8125 -242.188 780
-7.8125 -320.312 839
-304.688 -31.25 875
-23.4375 -210.938 802
-484.375 187.5 807
-117.188 -109.375 672
-15.625 -156.25 790
-437.5 46.875 813
-85.9375 46.875 767
-195.312 -132.812 687
-351.562 -7.8125 860
296.875 -375 2659
-187.5 -281.25 815
390.625 429.688 668
7.8125 -296.875 862
-414.062 351.562 829
-453.125 -109.375 973
31.25 -85.9375 739
-492.188 -453.125 2040
-156.25 54.6875 780
-445.312 -398.438 2156
-367.188 234.375 728
-437.5 23.4375 821
-328.125 -398.438 3149
0 -218.75 785
-39.0625 -257.812 831
156.25 171.875 698
367.188 -367.188 2618
-390.625 23.4375 973
-242.188 46.875 789
39.0625 -406.25 2835
-23.4375 -304.688 829
328.125 -375 2639
-312.5 -234.375 1264
7.8125 7.8125 823
15.625 -195.312 790
-296.875 -382.812 3010
187.5 203.125 691
429.688 -148.438 903
-265.625 -125 691
-312.5 335.938 829
-460.938 -109.375 973
39.0625 -367.188 2933
-7.8125 -273.438 774
-39.0625 -218.75 860
164.062 -273.438 1028
-476.562 -398.438 2143
-367.188 250 733
46.875 -406.25 2835
-429.688 148.438 769
-296.875 -85.9375 693
-351.562 242.188 727
195.312 218.75 680
-101.562 312.5 691
-93.75 78.125 789
-359.375 7.8125 851
-476.562 242.188 819
406.25 406.25 634
226.562 164.062 693
234.375 187.5 696
31.25 -210.938 792
125 -117.188 738
-328.125 -46.875 887
-31.25 -171.875 790
31.25 -218.75 790
-218.75 -390.625 851
85.9375 -117.188 802
62.5 -93.75 734
148.438 -156.25 805
218.75 70.3125 701
-203.125 -7.8125 738
-210.938 -390.625 845
429.688 -140.625 898
62.5 -148.438 787
-406.25 46.875 901
-367.188 23.4375 843
-359.375 250 730
62.5 -109.375 734
0 -312.5 851
171.875 218.75 687
-289.062 7.8125 849
39.0625 -148.438 796
-234.375 273.438 706
7.8125 -257.812 778
-460.938 179.688 809
-210.938 -304.688 823
7.8125 -109.375 746
242.188 179.688 698
156.25 -85.9375 749
390.625 421.875 659
429.688 164.062 713
31.25 -203.125 794
-296.875 -15.625 864
-31.25 -140.625 785
-93.75 54.6875 773
-203.125 -117.188 680
-179.688 421.875 789
125 -398.438 2767
0 -226.562 785
164.062 93.75 769
140.625 -398.438 2744
-23.4375 -164.062 790
-46.875 -171.875 948
-125 -101.562 671
-289.062 281.25 736
414.062 390.625 621
429.688 156.25 716
-250 273.438 708
421.875 375 623
-460.938 -85.9375 981
-210.938 -117.188 682
-445.312 -54.6875 894
62.5 -101.562 734
54.6875 -101.562 736
-70.3125 -328.125 807
78.125 343.75 662
-429.688 -39.0625 875
-109.375 46.875 767
234.375 179.688 694
265.625 -382.812 2659
218.75 -390.625 2723
421.875 -359.375 2598
-125 -78.125 682
437.5 -359.375 2598
-453.125 101.562 807
-296.875 -7.8125 858
109.375 335.938 657
171.875 265.625 683
54.6875 -132.812 789
-257.812 -117.188 684
-140.625 -296.875 800
46.875 328.125 666
62.5 -117.188 785
-140.625 -304.688 800
-109.375 -304.688 802
164.062 85.9375 771
-203.125 -242.188 835
-54.6875 -78.125 882
-375 39.0625 837
-468.75 54.6875 805
273.438 -382.812 2659
7.8125 -101.562 746
-117.188 -320.312 800
-460.938 -54.6875 987
-70.3125 -148.438 935
-117.188 -132.812 682
-273.438 46.875 825
-460.938 46.875 811
-15.625 -257.812 778
390.625 -367.188 2598
132.812 -54.6875 783
429.688 179.688 706
-132.812 -320.312 800
39.0625 -54.6875 752
218.75 171.875 688
-179.688 -54.6875 698
-7.8125 -171.875 796
-367.188 398.438 1028
-187.5 -117.188 679
492.188 273.438 827
85.9375 -109.375 733
476.562 15.625 989
343.75 -375 2639
-164.062 -414.062 829
-328.125 -85.9375 1115
46.875 -117.188 790
7.8125 -140.625 831
93.75 -85.9375 733
429.688 7.8125 796
421.875 320.312 642
-15.625 -117.188 757
-101.562 -257.812 811
-312.5 320.312 825
226.562 62.5 783
-179.688 289.062 697
-23.4375 -171.875 790
210.938 -390.625 2723
-476.562 -414.062 2090
-31.25 -234.375 796
460.938 -171.875 2365
484.375 -351.562 2503
398.438 375 623
-195.312 -125 684
-31.25 -367.188 829
-257.812 265.625 708
-312.5 257.812 717
250 -351.562 2744
-414.062 62.5 918
187.5 -390.625 2723
164.062 101.562 766
281.25 -382.812 2639
-203.125 101.562 789
0 -265.625 776
429.688 -164.062 915
54.6875 -406.25 2835
-453.125 203.125 746
289.062 -382.812 2639
-406.25 93.75 882
7.8125 -250 780
148.438 171.875 730
140.625 195.312 694
-445.312 117.188 809
132.812 -398.438 2744
429.688 -7.8125 805
-203.125 289.062 701
-328.125 -93.75 1123
-179.688 -273.438 811
85.9375 -101.562 733
429.688 15.625 792
62.5 -406.25 2812
-398.438 234.375 734
-15.625 -164.062 790
-7.8125 -164.062 796
-445.312 -460.938 2065
117.188 -15.625 813
-453.125 218.75 741
-234.375 359.375 817
-406.25 -23.4375 981
-242.188 -406.25 2984
-429.688 375 992
-132.812 -117.188 675
148.438 250 672
46.875 -23.4375 757
46.875 -406.25 2835
-187.5 -210.938 849
226.562 70.3125 700
-31.25 -218.75 867
-85.9375 304.688 682
23.4375 -156.25 796
-453.125 195.312 752
-242.188 -398.438 3010
132.812 -125 741
-7.8125 -109.375 754
39.0625 -132.812 796
140.625 -132.812 749
70.3125 -117.188 785
-117.188 -257.812 811
-257.812 -132.812 693
-171.875 70.3125 796
476.562 -164.062 2365
429.688 -179.688 930
445.312 -351.562 2598
304.688 -375 2659
-484.375 70.3125 802
-265.625 70.3125 811
210.938 109.375 697
-453.125 -132.812 964
-46.875 -164.062 946
-296.875 257.812 716
0 -296.875 847
210.938 148.438 696
-257.812 -414.062 2984
156.25 -273.438 1031
-406.25 -15.625 975
-250 23.4375 769
242.188 78.125 700
-85.9375 -226.562 829
-335.938 -195.312 1227
-23.4375 -210.938 802
-390.625 31.25 975
-421.875 125 835
62.5 -109.375 734
-85.9375 -148.438 938
-429.688 -23.4375 856
-39.0625 -250 833
-195.312 -226.562 841
-289.062 -39.0625 727
31.25 -226.562 790
-62.5 -273.438 815
117.188 351.562 658
-414.062 117.188 785
250 101.562 690
-281.25 265.625 713
-445.312 101.562 813
-390.625 62.5 1004
-187.5 -7.8125 734
-312.5 -375 3037
-101.562 -54.6875 693
7.8125 -296.875 862
-414.062 109.375 781
-156.25 -421.875 835
-109.375 -46.875 700
429.688 101.562 744
85.9375 -117.188 802
492.188 -281.25 2579
-171.875 -375 811
39.0625 -156.25 796
0 -148.438 817
-343.75 257.812 731
125 -117.188 738
156.25 210.938 691
62.5 -117.188 785
-210.938 -359.375 841
-132.812 -382.812 794
-31.25 -382.812 839
54.6875 -93.75 736
31.25 -195.312 792
0 -109.375 749
31.25 -109.375 741
31.25 -132.812 798
226.562 -390.625 2680
-54.6875 -156.25 938
164.062 -273.438 1028
-421.875 -320.312 2317
390.625 421.875 659
-453.125 -429.688 2116
-46.875 -234.375 841
-85.9375 39.0625 757
-117.188 -281.25 803
156.25 242.188 672
-234.375 -70.3125 693
-125 -85.9375 676
226.562 171.875 693
-257.812 -70.3125 696
-101.562 -273.438 807
-140.625 46.875 769
-453.125 -101.562 933
257.812 171.875 694
429.688 62.5 766
429.688 54.6875 769
-62.5 -156.25 940
-296.875 -429.688 2908
148.438 -140.625 761
171.875 226.562 679
-273.438 398.438 807
-468.75 -382.812 2170
-398.438 78.125 811
23.4375 -257.812 774
187.5 273.438 679
-351.562 -7.8125 860
-281.25 -437.5 2958
-281.25 -335.938 2984
-304.688 -429.688 2908
-250 -101.562 682
0 -226.562 785
-398.438 -101.562 1141
-429.688 -265.625 2450
-156.25 -406.25 794
-460.938 -93.75 978
-265.625 -367.188 3092
-492.188 46.875 817
429.688 140.625 723
289.062 359.375 635
-312.5 -367.188 3064
-7.8125 -273.438 774
-203.125 281.25 698
-15.625 -359.375 843
-148.438 -343.75 802
-335.938 328.125 835
-70.3125 -54.6875 869
-421.875 218.75 741
-23.4375 -281.25 831
117.188 -398.438 2812
304.688 367.188 632
-109.375 -398.438 794
429.688 85.9375 754
31.25 -140.625 796
-460.938 242.188 817
-7.8125 -234.375 785
429.688 109.375 741
-117.188 -125 678
-445.312 23.4375 823
218.75 70.3125 701
-421.875 132.812 780
-210.938 289.062 707
-117.188 46.875 767
-54.6875 398.438 792
148.438 -398.438 2767
132.812 -62.5 778
-23.4375 -375 843
-304.688 -23.4375 869
-148.438 -382.812 798
429.688 31.25 785
210.938 156.25 693
-210.938 54.6875 789
-460.938 -359.375 2170
-382.812 31.25 981
-148.438 -375 802
-218.75 -15.625 733
125 156.25 736
226.562 -351.562 2767
140.625 -140.625 761
-117.188 -140.625 686
414.062 -226.562 970
296.875 -382.812 2639
-31.25 -226.562 796
-296.875 -7.8125 858
429.688 125 731
-453.125 -109.375 973
-39.0625 -210.938 869
31.25 -125 798
-109.375 -320.312 800
-125 343.75 750
429.688 -156.25 908
-15.625 -257.812 778
-320.312 250 719
234.375 -390.625 2701
-93.75 78.125 789
0 -304.688 847
-125 78.125 794
-210.938 -203.125 873
179.688 250 662
-148.438 -414.062 792
164.062 187.5 697
421.875 304.688 648
-406.25 93.75 882
210.938 101.562 697
-234.375 0 747
-93.75 -375 807
31.25 -23.4375 762
429.688 78.125 757
398.438 -367.188 2598
140.625 -398.438 2744
-250 -132.812 693
85.9375 -125 805
-46.875 -343.75 815
-46.875 -179.688 956
156.25 265.625 683
-101.562 70.3125 783
164.062 195.312 694
-195.312 78.125 800
-500 -7.8125 878
62.5 328.125 663
429.688 117.188 738
-101.562 54.6875 773
125 -31.25 800
179.688 171.875 690
-117.188 -117.188 675
-453.125 109.375 805
414.062 -234.375 978
-187.5 281.25 697
-398.438 23.4375 970
-31.25 312.5 675
-125 -109.375 672
-148.438 -320.312 802
429.688 39.0625 780
195.312 -390.625 2723
351.562 -375 2618
203.125 -390.625 2723
414.062 382.812 621
23.4375 -257.812 774
-93.75 367.188 769
54.6875 -406.25 2835
156.25 218.75 674
-312.5 -453.125 2835
-453.125 187.5 811
-210.938 -7.8125 738
-445.312 -7.8125 841
-281.25 31.25 835
226.562 179.688 693
-320.312 -62.5 896
-203.125 -70.3125 691
-148.438 296.875 691
-179.688 296.875 707
445.312 -359.375 2598
-234.375 -257.812 869
226.562 62.5 783
-195.312 -117.188 679
132.812 195.312 719
31.25 -203.125 794
-15.625 -187.5 796
218.75 117.188 694
-132.812 -312.5 800
-476.562 70.3125 802
-109.375 -140.625 687
-156.25 7.8125 741
187.5 70.3125 761
492.188 -351.562 2503
156.25 -398.438 2767
-23.4375 328.125 680
54.6875 -70.3125 741
-164.062 -117.188 676
-171.875 62.5 790
39.0625 -406.25 2835
-445.312 171.875 815
132.812 335.938 655
-453.125 -85.9375 920
39.0625 328.125 666
-453.125 -93.75 930
-328.125 -85.9375 1115
-39.0625 -257.812 831
-468.75 62.5 802
23.4375 -195.312 790
421.875 -117.188 880
-460.938 171.875 811
265.625 359.375 637
-453.125 226.562 741
148.438 242.188 671
164.062 164.062 700
62.5 -117.188 785
85.9375 -109.375 733
-125 296.875 688
242.188 187.5 716
-93.75 70.3125 783
62.5 -406.25 2812
-234.375 -117.188 683
15.625 -187.5 790
-101.562 -203.125 847
-304.688 -468.75 2812
-210.938 23.4375 762
265.625 351.562 641
218.75 -390.625 2723
31.25 -46.875 755
-23.4375 -203.125 803
-445.312 70.3125 829
-101.562 -265.625 809
-445.312 0 839
-445.312 0 839
-421.875 125 835
-46.875 -148.438 783
-54.6875 -257.812 823
-453.125 234.375 819
-460.938 -70.3125 987
-46.875 -242.188 835
-226.562 -320.312 841
171.875 195.312 694
-203.125 -195.312 873
-234.375 273.438 706
-46.875 -187.5 964
-242.188 15.625 759
-39.0625 -171.875 790
203.125 109.375 703
-85.9375 31.25 752
-7.8125 -234.375 785
-39.0625 -179.688 790
-437.5 -7.8125 839
195.312 78.125 754
62.5 343.75 666
-429.688 226.562 741
117.188 -7.8125 821
187.5 234.375 663
140.625 343.75 653
148.438 179.688 700
-187.5 -31.25 716
-265.625 265.625 710
-140.625 -93.75 674
-429.688 140.625 825
-234.375 -312.5 851
-250 15.625 761
-250 15.625 761
-367.188 15.625 851
-312.5 -39.0625 882
-382.812 46.875 998
-39.0625 -226.562 856
125 -195.312 807
-62.5 -296.875 811
-382.812 234.375 730
54.6875 328.125 666
203.125 -304.688 2744
-85.9375 445.312 774
-242.188 -406.25 2984
421.875 -125 885
-117.188 -296.875 802
-62.5 -265.625 817
46.875 -54.6875 749
359.375 367.188 629
-125 -93.75 671
-39.0625 -187.5 964
-328.125 -78.125 1112
289.062 -382.812 2639
-304.688 -296.875 2883
85.9375 -281.25 1041
-195.312 -273.438 819
-125 -125 676
31.25 -195.312 792
117.188 132.812 750
-429.688 -343.75 2271
62.5 335.938 663
-218.75 -125 686
-62.5 -164.062 946
-109.375 -31.25 710
0 -125 752
-7.8125 -109.375 754
0 -93.75 750
-304.688 -23.4375 869
93.75 335.938 658
31.25 -187.5 790
93.75 -101.562 733
-78.125 304.688 682
164.062 -335.938 2859
-125 -296.875 802
-210.938 -242.188 841
-93.75 -296.875 803
226.562 234.375 696
156.25 234.375 672
234.375 367.188 641
-265.625 -62.5 704
210.938 140.625 698
351.562 367.188 629
-109.375 -62.5 690
-31.25 -117.188 769
-445.312 210.938 741
-375 242.188 730
23.4375 -250 776
-101.562 -54.6875 693
-132.812 -78.125 682
-500 31.25 835
289.062 148.438 723
70.3125 343.75 663
125 210.938 711
156.25 210.938 691
-445.312 78.125 823
7.8125 320.312 671
148.438 132.812 716
-421.875 234.375 742
-398.438 78.125 811
-257.812 31.25 774
-406.25 -15.625 975
-265.625 70.3125 811
70.3125 -406.25 2835
0 -210.938 787
-23.4375 -156.25 790
335.938 -375 2639
-437.5 31.25 817
-218.75 281.25 703
257.812 203.125 707
429.688 46.875 776
171.875 -273.438 1028
359.375 -375 2579
-390.625 62.5 1004
-437.5 156.25 769
-31.25 -226.562 796
-203.125 85.9375 796
289.062 -375 2639
-398.438 226.562 734
429.688 -23.4375 817
-70.3125 -289.062 809
78.125 -78.125 734
343.75 -375 2639
-164.062 -273.438 809
-203.125 -132.812 687
-109.375 304.688 686
-289.062 15.625 845
-164.062 289.062 693
101.562 257.812 690
-359.375 7.8125 851
125 -101.562 736
148.438 281.25 679
-328.125 -78.125 1112
-234.375 -273.438 858
203.125 351.562 644
-476.562 289.062 858
-218.75 -328.125 833
-460.938 101.562 805
-453.125 218.75 741
-125 -328.125 798
429.688 132.812 728
-242.188 -117.188 684
109.375 156.25 741
23.4375 -257.812 774
148.438 234.375 671
-414.062 109.375 781
-140.625 -273.438 805
-39.0625 -203.125 878
429.688 0 802
-117.188 -273.438 803
179.688 85.9375 766
-39.0625 -312.5 817
195.312 257.812 659
-414.062 -296.875 2381
7.8125 -101.562 746
-460.938 210.938 813
-39.0625 -382.812 835
-234.375 93.75 794
164.062 351.562 652
-93.75 62.5 776
15.625 328.125 668
-23.4375 -148.438 785
390.625 -367.188 2598
23.4375 -132.812 802
-203.125 -320.312 819
-312.5 -304.688 2908
-132.812 0 733
156.25 289.062 675
429.688 70.3125 761
7.8125 0 829
62.5 -367.188 2933
-250 281.25 714
-320.312 -62.5 896
421.875 289.062 654
-187.5 -367.188 821
226.562 70.3125 700
-460.938 -140.625 962
15.625 -171.875 794
-31.25 -164.062 790
429.688 -351.562 2598
31.25 -140.625 796
226.562 -390.625 2680
-23.4375 -203.125 803
-312.5 -39.0625 882
-31.25 -148.438 787
-117.188 -117.188 675
-445.312 -390.625 2184
-226.562 -304.688 839
242.188 -390.625 2701
-476.562 117.188 798
-210.938 -70.3125 691
171.875 125 717
-125 -140.625 686
-343.75 242.188 725
-117.188 -54.6875 693
-15.625 -250 781
-343.75 250 725
382.812 429.688 670
-351.562 242.188 727
-273.438 -117.188 688
-281.25 -23.4375 736
-125 -101.562 671
257.812 187.5 693
31.25 -179.688 790
-31.25 328.125 680
109.375 -109.375 734
-148.438 -179.688 871
-187.5 289.062 698
-312.5 -460.938 2812
109.375 226.562 704
-343.75 320.312 839
-398.438 85.9375 809
-453.125 289.062 858
-257.812 273.438 708
-476.562 46.875 817
-218.75 46.875 785
-39.0625 312.5 678
218.75 359.375 644
0 320.312 672
-132.812 -203.125 843
-453.125 117.188 805
140.625 273.438 683
-46.875 -382.812 833
-265.625 -125 691
-335.938 -468.75 2812
-453.125 125 803
484.375 335.938 800
-445.312 7.8125 839
-23.4375 -125 764
-468.75 -132.812 967
-296.875 -421.875 2908
0 -140.625 821
-7.8125 -257.812 778
78.125 -406.25 2835
453.125 -359.375 2579
109.375 343.75 657
179.688 179.688 688
437.5 -359.375 2598
-468.75 117.188 802
-226.562 -78.125 687
226.562 78.125 700
-234.375 -31.25 722
179.688 359.375 649
-328.125 -406.25 3092
320.312 359.375 634
-218.75 -273.438 835
-453.125 367.188 1022
-125 -62.5 690
164.062 -398.438 2744
-414.062 234.375 739
23.4375 -148.438 798
-398.438 7.8125 967
-265.625 -117.188 686
-15.625 -367.188 845
-273.438 54.6875 823
-210.938 -7.8125 738
242.188 351.562 642
-296.875 -39.0625 728
-171.875 429.688 789
-101.562 62.5 778
296.875 367.188 632
-195.312 -125 684
421.875 -109.375 875
-375 31.25 981
421.875 281.25 658
-453.125 187.5 811
-328.125 -54.6875 1090
171.875 -398.438 2744
265.625 187.5 688
-7.8125 -281.25 845
-296.875 0 856
-85.9375 304.688 682
15.625 -218.75 787
-101.562 -46.875 707
23.4375 -250 776
218.75 140.625 700
39.0625 -125 796
117.188 -109.375 736
257.812 351.562 641
156.25 -164.062 776
140.625 156.25 736
218.75 179.688 688
-125 -148.438 691
-296.875 257.812 716
312.5 359.375 632
218.75 -359.375 2767
242.188 101.562 690
164.062 -117.188 749
203.125 218.75 683
-320.312 -460.938 2812
-39.0625 -257.812 831
-46.875 -140.625 925
-31.25 -312.5 823
-328.125 250 720
-304.688 -460.938 2835
-250 -398.438 3037
-23.4375 -312.5 829
296.875 117.188 734
171.875 148.438 704
85.9375 335.938 661
187.5 132.812 706
-375 234.375 730
195.312 265.625 661
-70.3125 -273.438 813
-125 54.6875 774
-406.25 7.8125 967
23.4375 -234.375 783
132.812 -70.3125 774
164.062 226.562 676
203.125 250 658
-31.25 320.312 675
-406.25 93.75 882
-210.938 -117.188 682
-203.125 281.25 698
-453.125 -117.188 967
148.438 -398.438 2767
-156.25 289.062 693
-375 15.625 981
-289.062 -78.125 697
171.875 250 666
289.062 367.188 634
62.5 -109.375 733
460.938 -359.375 2579
-203.125 -132.812 686
-453.125 -85.9375 920
-54.6875 -250 829
429.688 -359.375 2598
-375 250 731
109.375 -7.8125 815
-398.438 242.188 733
-382.812 46.875 823
-234.375 -78.125 686
-15.625 -265.625 774
-250 -15.625 731
-70.3125 312.5 680
148.438 -164.062 789
23.4375 -242.188 783
-85.9375 -328.125 802
-46.875 312.5 676
132.812 250 672
250 101.562 690
234.375 -390.625 2701
-7.8125 -335.938 845
-492.188 328.125 841
-445.312 125 809
234.375 164.062 701
23.4375 -140.625 796
23.4375 -218.75 794
-445.312 218.75 739
-312.5 -93.75 687
-242.188 31.25 771
-140.625 304.688 690
-117.188 -39.0625 704
-93.75 -382.812 809
-179.688 429.688 787
-304.688 -320.312 2933
140.625 265.625 684
-7.8125 -250 776
-476.562 -406.25 2103
-7.8125 320.312 671
-281.25 273.438 714
-296.875 414.062 813
250 351.562 642
304.688 359.375 632
-429.688 210.938 741
-484.375 15.625 935
54.6875 335.938 664
-226.562 265.625 703
-453.125 -78.125 913
-445.312 85.9375 854
