ply
format ascii 1.0
comment Created by Open3D
element vertex 2342
property double x
property double y
property double z
end_header
-46.875 289.062 1586
-156.25 429.688 1236
-445.312 -78.125 962
-257.812 -7.8125 964
-93.75 -23.4375 970
398.438 -390.625 1259
351.562 -414.062 2984
70.3125 226.562 1688
437.5 289.062 1245
-351.562 312.5 1193
312.5 -78.125 962
398.438 -242.188 910
398.438 320.312 1255
-85.9375 375 1259
398.438 39.0625 1022
203.125 -109.375 956
-23.4375 -406.25 992
-109.375 -187.5 913
-148.438 351.562 1250
101.562 0 935
-70.3125 -250 1025
250 -70.3125 1004
304.688 -218.75 913
156.25 -46.875 975
-250 343.75 1193
-93.75 15.625 938
-23.4375 -39.0625 984
-421.875 -148.438 946
343.75 -62.5 987
234.375 -265.625 946
132.812 312.5 1370
250 39.0625 1022
273.438 -210.938 918
-453.125 304.688 1241
-437.5 265.625 1312
-304.688 257.812 1302
437.5 171.875 1087
414.062 -148.438 946
-46.875 296.875 1572
-140.625 -421.875 975
-85.9375 -437.5 978
265.625 -335.938 1197
-257.812 320.312 1206
-351.562 -125 951
-398.438 335.938 1206
117.188 -54.6875 987
-335.938 -93.75 954
351.562 -62.5 984
-484.375 281.25 1273
351.562 -351.562 3037
406.25 304.688 1297
-85.9375 335.938 1232
-437.5 -234.375 1161
367.188 312.5 1189
351.562 -273.438 981
-132.812 -335.938 1004
367.188 -70.3125 995
-218.75 265.625 1119
382.812 335.938 1264
484.375 257.812 1288
148.438 265.625 1464
-289.062 -70.3125 987
-390.625 257.812 1307
-398.438 -132.812 943
-304.688 312.5 1241
390.625 257.812 1273
-109.375 15.625 940
-132.812 -367.188 992
93.75 -195.312 915
460.938 398.438 1302
-320.312 328.125 1206
179.688 -250 959
-468.75 281.25 1259
179.688 328.125 1359
414.062 304.688 1288
-484.375 -171.875 1077
-281.25 -148.438 918
289.062 -62.5 992
-203.125 367.188 1458
101.562 359.375 1381
195.312 -7.8125 940
328.125 429.688 1283
-445.312 -171.875 951
-85.9375 -23.4375 967
-140.625 414.062 1232
-421.875 335.938 1210
289.062 -109.375 959
187.5 257.812 1470
-226.562 335.938 1206
-429.688 320.312 1189
312.5 -234.375 910
281.25 -218.75 913
257.812 -70.3125 1001
-39.0625 -390.625 998
-273.438 257.812 1302
-203.125 15.625 943
187.5 -62.5 998
-445.312 31.25 933
-281.25 343.75 1206
-242.188 367.188 1452
-367.188 -210.938 973
-234.375 -171.875 913
-93.75 -359.375 998
234.375 31.25 1019
351.562 -382.812 3037
257.812 -78.125 970
179.688 -46.875 978
46.875 226.562 1696
-242.188 312.5 1236
484.375 -421.875 1193
-171.875 -179.688 913
117.188 367.188 1392
101.562 289.062 1398
0 -31.25 964
-320.312 320.312 1210
-429.688 -109.375 973
335.938 289.062 1232
195.312 -242.188 930
-437.5 -187.5 948
375 -218.75 915
390.625 -70.3125 992
-414.062 148.438 1004
-335.938 -187.5 970
-335.938 312.5 1245
-85.9375 -429.688 978
-31.25 -39.0625 987
289.062 -54.6875 978
-359.375 -171.875 954
250 -226.562 910
390.625 -93.75 970
148.438 187.5 1776
-273.438 85.9375 998
-117.188 -187.5 913
210.938 -7.8125 943
-414.062 320.312 1214
-328.125 70.3125 989
-484.375 -164.062 1080
7.8125 -31.25 962
-70.3125 218.75 1731
-54.6875 -398.438 992
398.438 203.125 1302
-328.125 312.5 1241
0 -398.438 1080
351.562 -85.9375 967
-382.812 -242.188 1185
-39.0625 -31.25 973
328.125 -289.062 1031
390.625 -101.562 967
390.625 -23.4375 948
359.375 -265.625 962
-382.812 -164.062 948
-164.062 -23.4375 981
-382.812 -179.688 954
335.938 296.875 1232
109.375 359.375 1359
-359.375 343.75 1206
-398.438 -31.25 964
-359.375 -7.8125 973
-23.4375 -429.688 984
460.938 257.812 1264
-117.188 -429.688 978
359.375 335.938 1210
203.125 -359.375 1381
140.625 39.0625 1013
-234.375 320.312 1210
445.312 320.312 1259
351.562 -453.125 2835
-296.875 320.312 1214
242.188 -289.062 1004
359.375 -234.375 910
359.375 328.125 1206
359.375 -250 915
-476.562 312.5 1206
289.062 -226.562 910
375 -265.625 959
164.062 -46.875 970
148.438 -250 948
-421.875 -195.312 948
-343.75 257.812 1297
-460.938 -117.188 1073
7.8125 289.062 1550
-70.3125 15.625 940
-335.938 -171.875 967
-109.375 -312.5 1016
15.625 -31.25 959
210.938 296.875 1376
-429.688 -210.938 1161
296.875 23.4375 1019
195.312 39.0625 1025
-54.6875 -414.062 987
-414.062 31.25 935
492.188 312.5 1259
359.375 -85.9375 964
-195.312 -414.062 1185
398.438 -132.812 951
-125 -31.25 984
382.812 203.125 1126
320.312 -78.125 1007
-203.125 -15.625 973
-250 312.5 1241
390.625 15.625 1019
-500 -312.5 2381
101.562 320.312 1445
-117.188 -390.625 984
62.5 -210.938 908
148.438 -31.25 951
492.188 250 1250
-54.6875 -250 1019
414.062 226.562 1268
398.438 312.5 1292
-7.8125 -398.438 1028
367.188 -234.375 910
-359.375 312.5 1236
351.562 320.312 1197
398.438 179.688 1090
-242.188 343.75 1193
398.438 414.062 1302
-429.688 -187.5 948
7.8125 195.312 1794
-492.188 414.062 1181
187.5 -218.75 910
335.938 -234.375 910
468.75 -203.125 1297
-445.312 289.062 1278
382.812 -250 918
367.188 296.875 1181
343.75 414.062 1273
-421.875 320.312 1189
31.25 343.75 1483
-46.875 -23.4375 959
187.5 -250 954
476.562 242.188 1264
-54.6875 367.188 1445
351.562 -218.75 910
-312.5 343.75 1206
125 312.5 1376
429.688 171.875 1084
156.25 359.375 1349
250 -70.3125 1004
-382.812 -7.8125 975
179.688 367.188 1392
164.062 46.875 1016
484.375 250 1250
-281.25 312.5 1223
281.25 -226.562 913
390.625 -117.188 956
0 -203.125 910
140.625 367.188 1359
265.625 -203.125 920
-187.5 421.875 1365
-367.188 343.75 1206
148.438 203.125 1713
-429.688 -39.0625 954
-273.438 234.375 1070
-476.562 289.062 1206
210.938 -296.875 984
296.875 -210.938 918
-179.688 -437.5 1177
179.688 -242.188 928
304.688 -234.375 910
-460.938 257.812 1312
-468.75 164.062 995
-257.812 343.75 1210
-265.625 312.5 1236
156.25 -242.188 938
-500 -62.5 1105
-328.125 343.75 1202
0 234.375 1696
476.562 234.375 1273
171.875 -7.8125 938
-289.062 312.5 1227
-453.125 0 970
-7.8125 234.375 1696
476.562 -218.75 1297
148.438 195.312 2103
-101.562 -406.25 978
-500 -265.625 2365
-218.75 335.938 1206
390.625 -242.188 910
390.625 335.938 1264
-429.688 0 970
-171.875 -421.875 973
54.6875 -46.875 987
-460.938 -242.188 1153
-343.75 328.125 1193
-437.5 335.938 1202
-187.5 -328.125 1398
54.6875 0 935
-382.812 -54.6875 943
125 -54.6875 987
132.812 0 938
390.625 93.75 1047
242.188 234.375 1639
-257.812 164.062 1038
234.375 -273.438 943
-15.625 234.375 1696
335.938 -179.688 930
375 -242.188 910
382.812 31.25 1054
-343.75 312.5 1193
-281.25 250 1333
-421.875 -187.5 951
-406.25 320.312 1241
-257.812 179.688 1044
-156.25 -23.4375 978
-234.375 -304.688 3064
265.625 -54.6875 978
-54.6875 -406.25 989
-289.062 -39.0625 1019
468.75 273.438 1292
351.562 -226.562 910
-460.938 164.062 992
-70.3125 -195.312 910
-375 -203.125 967
101.562 -210.938 910
-351.562 343.75 1206
-492.188 -179.688 1041
226.562 -226.562 910
242.188 -70.3125 970
-406.25 -70.3125 948
-335.938 320.312 1210
414.062 15.625 1004
-429.688 257.812 1338
484.375 7.8125 1004
-54.6875 -390.625 995
382.812 -78.125 1004
-257.812 70.3125 995
-265.625 257.812 1307
-476.562 164.062 1001
109.375 -210.938 908
-343.75 -164.062 959
-85.9375 -23.4375 967
-23.4375 -390.625 1001
-382.812 312.5 1241
-351.562 -203.125 973
0 195.312 1794
109.375 -54.6875 989
-453.125 289.062 1273
-101.562 -187.5 913
429.688 296.875 1245
-54.6875 -429.688 981
351.562 421.875 1297
-320.312 343.75 1202
-156.25 15.625 940
390.625 -125 954
-273.438 70.3125 995
351.562 -406.25 3010
382.812 54.6875 1063
492.188 164.062 1084
-148.438 39.0625 946
375 296.875 1185
-460.938 -46.875 1067
-320.312 312.5 1236
-289.062 -70.3125 987
132.812 273.438 1445
179.688 257.812 1470
-148.438 406.25 1232
-421.875 -101.562 964
406.25 242.188 1264
390.625 312.5 1297
445.312 296.875 1241
-171.875 -234.375 1013
-500 312.5 1105
-234.375 -15.625 978
-179.688 -62.5 962
492.188 226.562 1283
218.75 -359.375 1381
-460.938 -78.125 970
156.25 -62.5 992
-203.125 367.188 1458
375 -85.9375 970
148.438 -218.75 908
-484.375 39.0625 933
54.6875 -31.25 959
242.188 39.0625 1022
-39.0625 -429.688 984
-171.875 -23.4375 981
101.562 296.875 1392
132.812 125 1731
343.75 328.125 1206
-218.75 343.75 1206
-265.625 -7.8125 964
-148.438 343.75 1250
-179.688 -23.4375 981
117.188 -54.6875 987
351.562 -343.75 3064
-7.8125 -437.5 1141
273.438 328.125 1458
226.562 -281.25 943
132.812 -39.0625 967
-445.312 335.938 1206
31.25 -46.875 989
-382.812 343.75 1210
-335.938 328.125 1206
-421.875 78.125 992
-93.75 -375 992
-273.438 273.438 1297
429.688 -31.25 948
-226.562 281.25 1278
140.625 -39.0625 964
-132.812 414.062 1264
-304.688 273.438 1302
125 273.438 1445
195.312 273.438 1445
-390.625 -187.5 962
257.812 -70.3125 1001
179.688 -62.5 998
460.938 273.438 1255
484.375 242.188 1250
226.562 218.75 1688
-398.438 289.062 1273
429.688 195.312 1278
171.875 -242.188 933
398.438 -210.938 920
-406.25 343.75 1206
-429.688 -62.5 951
-218.75 320.312 1214
-414.062 -179.688 959
328.125 -78.125 1004
-39.0625 -195.312 910
-250 23.4375 938
-78.125 210.938 1757
-125 -453.125 1149
445.312 171.875 1087
-351.562 312.5 1193
351.562 -390.625 3037
-226.562 312.5 1250
-101.562 367.188 1255
-437.5 0 970
375 289.062 1177
-437.5 78.125 989
-242.188 312.5 1236
-296.875 312.5 1241
85.9375 226.562 1523
-421.875 335.938 1210
-218.75 304.688 1245
46.875 -390.625 1067
-445.312 -156.25 998
304.688 -62.5 992
398.438 23.4375 1013
125 218.75 1550
-351.562 210.938 1060
-226.562 320.312 1214
-257.812 312.5 1241
-39.0625 -296.875 1034
-468.75 289.062 1210
-195.312 -390.625 1189
421.875 179.688 1084
-78.125 7.8125 938
398.438 179.688 1090
406.25 171.875 1084
-39.0625 -257.812 1028
-296.875 23.4375 935
-226.562 343.75 1206
-398.438 -62.5 946
-62.5 281.25 1616
-195.312 -328.125 1398
-39.0625 -382.812 1001
-156.25 320.312 1214
398.438 15.625 1010
-210.938 343.75 1210
195.312 -218.75 910
-273.438 320.312 1210
359.375 -62.5 984
437.5 15.625 1007
-265.625 343.75 1210
-320.312 31.25 938
492.188 -265.625 1273
0 289.062 1550
-289.062 296.875 1241
-62.5 -437.5 981
328.125 335.938 1264
140.625 54.6875 1013
171.875 46.875 1016
187.5 -62.5 998
367.188 195.312 1130
-468.75 -31.25 1031
-406.25 -31.25 962
296.875 -312.5 1126
62.5 -46.875 984
398.438 62.5 1028
210.938 -359.375 1381
-117.188 -242.188 1010
-125 421.875 1268
289.062 -218.75 913
-195.312 -398.438 1189
406.25 -203.125 923
156.25 257.812 1483
15.625 195.312 1785
-492.188 -265.625 2365
257.812 -226.562 910
375 -257.812 938
-406.25 31.25 935
-132.812 -273.438 1031
343.75 343.75 1219
-359.375 -195.312 975
-429.688 335.938 1206
31.25 -31.25 962
351.562 312.5 1193
468.75 320.312 1264
390.625 210.938 1126
-109.375 -351.562 1001
-445.312 -242.188 1161
-109.375 -445.312 981
-460.938 -15.625 995
70.3125 -31.25 959
-78.125 -195.312 910
234.375 -351.562 1004
-148.438 -289.062 1022
-242.188 320.312 1210
117.188 -210.938 908
-156.25 -15.625 967
359.375 242.188 1157
-296.875 -46.875 1031
-484.375 328.125 1210
164.062 257.812 1477
109.375 398.438 1376
-54.6875 -23.4375 962
-335.938 343.75 1206
-164.062 -234.375 1013
-62.5 -195.312 910
-70.3125 -23.4375 962
-492.188 164.062 1001
164.062 -242.188 935
156.25 320.312 1354
-304.688 -156.25 989
414.062 -203.125 923
171.875 15.625 946
-460.938 -85.9375 1077
-54.6875 -382.812 1001
320.312 -234.375 910
-429.688 171.875 995
-351.562 -62.5 954
-484.375 312.5 1232
343.75 -78.125 1004
-234.375 343.75 1202
367.188 -257.812 933
-328.125 289.062 1273
-179.688 -289.062 1010
-250 273.438 1302
-500 -304.688 2415
-109.375 -242.188 1004
-234.375 273.438 1278
-453.125 -78.125 962
429.688 -203.125 1288
187.5 -46.875 978
-335.938 -171.875 964
-351.562 -7.8125 973
-140.625 -187.5 913
46.875 7.8125 940
312.5 -218.75 915
-390.625 242.188 1073
-195.312 398.438 1214
-296.875 343.75 1206
-375 343.75 1206
-7.8125 -39.0625 981
-437.5 -171.875 989
-7.8125 -390.625 1087
390.625 -242.188 910
-226.562 -7.8125 959
101.562 -351.562 1123
406.25 320.312 1259
-500 328.125 1119
-406.25 242.188 1070
-31.25 -398.438 995
187.5 343.75 1376
-23.4375 -39.0625 984
273.438 -226.562 910
-492.188 289.062 1097
140.625 0 940
273.438 -54.6875 981
-109.375 -304.688 1022
390.625 179.688 1087
320.312 -78.125 1007
242.188 -351.562 1317
46.875 -31.25 959
-195.312 15.625 943
453.125 296.875 1302
289.062 -179.688 930
-117.188 320.312 1227
-437.5 -62.5 951
-429.688 78.125 992
-492.188 -132.812 1080
-367.188 -171.875 956
125 132.812 1739
390.625 -132.812 951
132.812 117.188 1722
343.75 335.938 1206
242.188 242.188 1632
-250 343.75 1202
-359.375 242.188 1070
132.812 406.25 1365
-250 257.812 1307
164.062 359.375 1354
-304.688 312.5 1241
359.375 320.312 1193
-445.312 -62.5 951
-117.188 414.062 1259
265.625 -70.3125 1004
-101.562 -23.4375 970
203.125 -250 943
-304.688 -70.3125 981
445.312 -203.125 1292
-242.188 101.562 1010
-437.5 -78.125 959
-46.875 -304.688 1031
359.375 -265.625 959
-460.938 -7.8125 984
-304.688 296.875 1245
-7.8125 -429.688 1138
-23.4375 -390.625 998
-70.3125 281.25 1616
289.062 -226.562 913
-375 312.5 1241
453.125 171.875 1080
-453.125 -132.812 1016
109.375 -39.0625 967
-242.188 -15.625 978
-453.125 -15.625 995
-31.25 -23.4375 959
195.312 281.25 1433
-343.75 296.875 1241
-125 39.0625 943
398.438 101.562 1047
-39.0625 -23.4375 962
-351.562 242.188 1070
468.75 296.875 1297
109.375 203.125 2090
-195.312 23.4375 943
195.312 -62.5 995
-179.688 23.4375 943
367.188 257.812 1161
-54.6875 -265.625 1047
-398.438 -179.688 951
-359.375 -234.375 1115
109.375 304.688 1392
-250 312.5 1236
-367.188 312.5 1241
-281.25 78.125 995
-234.375 312.5 1245
85.9375 351.562 1381
296.875 -54.6875 978
242.188 -281.25 1004
-390.625 -62.5 940
132.812 109.375 1713
203.125 -328.125 1013
-132.812 -15.625 964
492.188 -203.125 1283
164.062 320.312 1354
46.875 359.375 1452
-242.188 -7.8125 964
382.812 -78.125 1004
218.75 -226.562 913
203.125 273.438 1445
-101.562 -343.75 1010
-414.062 -148.438 943
468.75 289.062 1297
-492.188 -54.6875 1084
-187.5 -15.625 967
-453.125 335.938 1202
-156.25 -273.438 1025
-148.438 -15.625 964
375 -234.375 913
-7.8125 289.062 1594
304.688 -218.75 913
-171.875 -15.625 967
-156.25 -54.6875 964
187.5 335.938 1376
132.812 -54.6875 989
117.188 273.438 1452
93.75 195.312 1776
-109.375 203.125 1785
-234.375 320.312 1210
-390.625 281.25 1283
-414.062 -31.25 962
343.75 -210.938 918
-359.375 -70.3125 943
-132.812 -250 1001
179.688 359.375 1359
54.6875 -46.875 987
-31.25 -281.25 1044
-437.5 -203.125 946
-62.5 -23.4375 962
-164.062 -164.062 920
265.625 -226.562 910
-117.188 -15.625 959
-54.6875 7.8125 938
-296.875 335.938 1210
351.562 195.312 1153
195.312 -328.125 1013
-484.375 -46.875 1067
-468.75 164.062 995
312.5 -78.125 1007
-421.875 -31.25 956
-226.562 -15.625 975
-78.125 -31.25 975
-265.625 312.5 1245
-335.938 242.188 1073
312.5 -54.6875 981
-93.75 375 1259
382.812 140.625 1070
-304.688 335.938 1206
-367.188 242.188 1070
-453.125 164.062 995
375 -62.5 984
-476.562 296.875 1241
-335.938 312.5 1245
414.062 7.8125 1001
-218.75 -359.375 1223
-429.688 320.312 1193
-406.25 -156.25 943
125 125 1731
-164.062 -179.688 913
445.312 312.5 1264
-39.0625 234.375 1696
-453.125 320.312 1241
226.562 -7.8125 943
484.375 234.375 1278
460.938 210.938 1283
-257.812 171.875 1044
351.562 -273.438 973
-257.812 187.5 1047
-359.375 -39.0625 959
-273.438 296.875 1245
-289.062 -62.5 967
-398.438 31.25 935
-78.125 210.938 1757
-296.875 -132.812 923
-132.812 -187.5 913
-414.062 343.75 1210
328.125 -78.125 1004
234.375 -257.812 962
-85.9375 -31.25 978
-265.625 148.438 1028
195.312 -296.875 984
171.875 -140.625 940
-406.25 -7.8125 975
-148.438 359.375 1219
148.438 320.312 1354
-179.688 -273.438 1145
-218.75 -15.625 975
453.125 195.312 1302
-187.5 -367.188 989
-125 -265.625 1038
-281.25 335.938 1206
421.875 265.625 1264
-226.562 281.25 1134
-382.812 312.5 1241
-500 -62.5 1101
-234.375 250 1115
-257.812 335.938 1210
-78.125 281.25 1624
-406.25 289.062 1278
-70.3125 -15.625 954
70.3125 -39.0625 973
367.188 335.938 1264
-359.375 -171.875 959
171.875 -218.75 910
-414.062 242.188 1070
460.938 7.8125 1007
140.625 -281.25 1041
460.938 312.5 1259
351.562 -62.5 987
-398.438 -31.25 964
-343.75 242.188 1073
-359.375 343.75 1206
-242.188 343.75 1202
296.875 414.062 1317
132.812 101.562 1713
406.25 265.625 1264
-304.688 -148.438 987
-15.625 -23.4375 959
-312.5 335.938 1206
453.125 250 1259
-382.812 242.188 1073
-273.438 250 1333
296.875 406.25 1333
-398.438 -125 943
-312.5 289.062 1273
-117.188 -23.4375 970
-7.8125 414.062 1376
281.25 -54.6875 978
421.875 320.312 1259
-421.875 242.188 1070
-195.312 335.938 1165
-273.438 335.938 1206
-320.312 -85.9375 962
-281.25 -15.625 975
-273.438 -171.875 910
-312.5 -31.25 1010
304.688 -54.6875 978
-85.9375 398.438 1273
-500 -70.3125 1119
-445.312 -78.125 959
-257.812 -171.875 908
-140.625 414.062 1268
117.188 335.938 1354
-304.688 -93.75 973
0 -39.0625 978
-320.312 -23.4375 998
-460.938 164.062 995
-54.6875 -343.75 1016
-328.125 335.938 1206
46.875 -46.875 987
148.438 367.188 1354
140.625 -289.062 1019
132.812 93.75 1705
-445.312 242.188 1063
398.438 -179.688 933
164.062 -218.75 910
-343.75 343.75 1206
-289.062 335.938 1206
101.562 187.5 1794
-414.062 -78.125 948
265.625 39.0625 1022
-476.562 328.125 1206
-281.25 398.438 1404
156.25 187.5 1785
492.188 242.188 1354
-210.938 343.75 1210
382.812 156.25 1077
-437.5 -117.188 975
-273.438 328.125 1210
-312.5 242.188 1070
164.062 39.0625 1016
-414.062 312.5 1241
-156.25 -234.375 1004
-351.562 281.25 1268
0 -281.25 1090
203.125 -62.5 995
390.625 85.9375 1041
-460.938 -70.3125 967
-343.75 -171.875 964
93.75 226.562 1543
-85.9375 281.25 1594
-421.875 312.5 1193
-320.312 335.938 1202
-390.625 -210.938 964
390.625 -164.062 940
-484.375 289.062 1268
-492.188 -78.125 1070
-78.125 -23.4375 964
-70.3125 218.75 1739
7.8125 -390.625 1077
-453.125 0 970
-54.6875 -437.5 981
367.188 421.875 1297
-398.438 -46.875 951
-140.625 -234.375 998
-375 -171.875 954
-328.125 312.5 1241
-148.438 351.562 1219
31.25 -203.125 913
148.438 -39.0625 964
375 328.125 1268
-437.5 -125 975
-281.25 70.3125 995
-187.5 -414.062 975
210.938 -46.875 973
78.125 187.5 1776
-500 -148.438 1123
468.75 398.438 1302
156.25 -218.75 908
-93.75 367.188 1268
-70.3125 -429.688 981
234.375 -226.562 910
-320.312 242.188 1060
453.125 281.25 1283
226.562 54.6875 1696
343.75 -234.375 910
-390.625 289.062 1278
-390.625 312.5 1241
15.625 -281.25 1080
312.5 -296.875 1057
7.8125 234.375 1696
195.312 -218.75 913
398.438 -148.438 946
195.312 -250 946
-148.438 -23.4375 973
-78.125 -351.562 1010
-23.4375 -390.625 998
-406.25 242.188 1070
-140.625 -382.812 987
273.438 -54.6875 981
-140.625 -15.625 964
-468.75 -23.4375 1016
-351.562 -187.5 967
367.188 -257.812 933
-351.562 343.75 1206
-351.562 242.188 1070
234.375 -46.875 973
476.562 265.625 1302
125 117.188 1731
382.812 257.812 1278
390.625 117.188 1054
46.875 -203.125 910
210.938 -273.438 948
-257.812 23.4375 938
-109.375 -429.688 978
-265.625 335.938 1210
-31.25 54.6875 1019
-398.438 -85.9375 940
0 234.375 1696
-437.5 328.125 1197
-468.75 335.938 1202
-359.375 242.188 1070
-460.938 -187.5 948
-93.75 -187.5 913
398.438 335.938 1264
-382.812 -187.5 962
203.125 -218.75 913
-437.5 320.312 1193
-257.812 -7.8125 962
-31.25 -195.312 913
23.4375 -406.25 1067
484.375 195.312 1317
-390.625 242.188 1073
70.3125 203.125 1776
-132.812 312.5 1219
156.25 -242.188 938
-250 203.125 1057
70.3125 -46.875 984
-390.625 -31.25 954
-15.625 414.062 1376
-250 335.938 1202
-453.125 -234.375 1157
-468.75 304.688 1232
-289.062 -62.5 967
-335.938 242.188 1073
-93.75 382.812 1259
-156.25 -257.812 1034
-476.562 -54.6875 1080
-351.562 -195.312 973
-351.562 -171.875 962
-468.75 -101.562 1073
-312.5 250 1333
406.25 179.688 1090
-382.812 -164.062 951
-62.5 -273.438 1044
421.875 304.688 1292
-15.625 -31.25 970
117.188 210.938 1705
257.812 -70.3125 1004
-437.5 242.188 1063
23.4375 195.312 1794
445.312 -257.812 1288
-218.75 343.75 1206
-85.9375 -375 998
492.188 -375 1214
-375 281.25 1283
156.25 320.312 1354
-406.25 -171.875 948
-398.438 343.75 1210
320.312 429.688 1288
-70.3125 203.125 1776
-484.375 -156.25 1044
-398.438 -101.562 940
-414.062 -117.188 946
-406.25 328.125 1210
-492.188 -117.188 1080
-218.75 -7.8125 959
265.625 -70.3125 1004
414.062 296.875 1278
-304.688 281.25 1278
187.5 -328.125 1016
31.25 195.312 1785
-296.875 250 1073
492.188 -390.625 1202
85.9375 -39.0625 970
125 -351.562 1349
382.812 -328.125 1317
460.938 250 1264
7.8125 195.312 1794
-351.562 335.938 1206
-500 289.062 1097
-492.188 -195.312 973
-125 390.625 1245
-390.625 78.125 992
-296.875 -31.25 1007
-460.938 -7.8125 984
-85.9375 -398.438 989
-382.812 265.625 1297
-406.25 78.125 989
492.188 7.8125 1007
148.438 -289.062 1019
164.062 -31.25 951
-367.188 -7.8125 973
-437.5 335.938 1202
-304.688 242.188 1077
-257.812 78.125 995
15.625 195.312 1785
-445.312 265.625 1307
-62.5 226.562 1722
-203.125 -179.688 913
-218.75 -171.875 913
-281.25 85.9375 998
179.688 265.625 1464
-78.125 203.125 1776
-390.625 -250 1177
148.438 203.125 1739
-421.875 328.125 1193
179.688 -242.188 928
406.25 312.5 1273
-437.5 -156.25 995
375 101.562 1070
171.875 -242.188 933
328.125 429.688 1283
203.125 312.5 1359
125 -39.0625 967
117.188 -210.938 910
359.375 343.75 1223
398.438 304.688 1297
-242.188 312.5 1236
429.688 289.062 1245
398.438 312.5 1297
-429.688 250 1070
109.375 -351.562 1123
-101.562 -242.188 1001
437.5 312.5 1264
-382.812 289.062 1278
-195.312 -390.625 1177
375 312.5 1189
-320.312 289.062 1273
-375 242.188 1073
-46.875 -320.312 1025
257.812 -210.938 918
-125 -304.688 1022
179.688 -328.125 1019
414.062 179.688 1090
-460.938 320.312 1206
226.562 195.312 1731
78.125 -39.0625 970
460.938 265.625 1283
-242.188 296.875 1232
484.375 281.25 1312
429.688 15.625 1010
148.438 320.312 1354
-351.562 289.062 1268
-367.188 281.25 1278
-179.688 375 1193
-171.875 -234.375 1010
-31.25 -125 940
-281.25 312.5 1219
265.625 -54.6875 981
-187.5 429.688 1349
187.5 265.625 1464
-195.312 -382.812 1181
15.625 234.375 1688
148.438 -273.438 962
-195.312 -179.688 913
125 -210.938 910
242.188 335.938 1410
-250 296.875 1227
-468.75 257.812 1297
-414.062 78.125 992
484.375 -382.812 1214
-492.188 250 1070
-414.062 -125 946
320.312 -54.6875 975
-125 351.562 1227
-7.8125 7.8125 938
-414.062 -179.688 956
265.625 257.812 1536
-328.125 281.25 1273
-445.312 320.312 1241
-226.562 328.125 1210
-281.25 -7.8125 962
-234.375 257.812 1119
-367.188 -210.938 973
-281.25 335.938 1206
-492.188 375 1149
-265.625 -7.8125 962
125 101.562 1713
-304.688 343.75 1206
101.562 359.375 1370
-62.5 -429.688 984
-195.312 -7.8125 956
-351.562 312.5 1197
-273.438 -117.188 930
-101.562 -375 992
-265.625 -171.875 910
-54.6875 -406.25 989
132.812 70.3125 1696
23.4375 -203.125 913
-125 -187.5 913
468.75 265.625 1302
-281.25 250 1333
445.312 15.625 1007
-156.25 -359.375 992
-54.6875 -23.4375 962
-15.625 -328.125 1031
-390.625 -203.125 956
-304.688 335.938 1206
-203.125 367.188 1193
-117.188 -343.75 1004
-85.9375 39.0625 943
-265.625 296.875 1255
476.562 -375 1223
-312.5 -132.812 973
132.812 -54.6875 989
-414.062 7.8125 956
398.438 23.4375 1010
-140.625 -367.188 992
421.875 15.625 1010
-406.25 312.5 1236
-382.812 257.812 1297
-429.688 242.188 1070
468.75 -203.125 1292
-484.375 390.625 1370
171.875 -281.25 954
-476.562 -187.5 951
148.438 -46.875 975
-390.625 -70.3125 940
-46.875 -421.875 987
-320.312 281.25 1273
62.5 -31.25 959
148.438 195.312 1739
-101.562 289.062 1601
-125 15.625 940
164.062 -70.3125 967
390.625 -156.25 943
-265.625 250 1333
375 -250 915
-132.812 15.625 940
70.3125 -179.688 923
437.5 296.875 1245
-195.312 398.438 1214
-492.188 296.875 1105
-460.938 39.0625 930
-70.3125 -335.938 1016
-195.312 -101.562 943
-234.375 335.938 1202
-335.938 31.25 938
257.812 39.0625 1028
171.875 257.812 1470
-335.938 -46.875 962
171.875 -273.438 956
218.75 -281.25 946
117.188 273.438 1452
-23.4375 54.6875 1016
-367.188 242.188 1070
-148.438 398.438 1259
453.125 320.312 1264
70.3125 210.938 1696
164.062 -273.438 956
-460.938 -234.375 1153
-343.75 242.188 1073
-382.812 -203.125 964
-398.438 281.25 1283
-375 289.062 1273
335.938 23.4375 1025
132.812 273.438 1452
156.25 -39.0625 962
398.438 54.6875 1022
-500 -289.062 2415
-382.812 281.25 1283
460.938 218.75 1273
-187.5 421.875 1236
-382.812 242.188 1073
-476.562 242.188 1067
-445.312 -187.5 948
390.625 -148.438 948
54.6875 -203.125 910
-335.938 250 1073
-85.9375 382.812 1264
-242.188 242.188 1057
125 109.375 1722
15.625 0 938
148.438 -296.875 1016
453.125 312.5 1264
218.75 171.875 1785
164.062 257.812 1477
-351.562 281.25 1268
-109.375 -242.188 1004
335.938 -78.125 1004
437.5 179.688 1090
226.562 -46.875 973
-242.188 335.938 1202
-351.562 -203.125 978
-140.625 -406.25 978
187.5 -265.625 959
-148.438 -234.375 1001
-226.562 335.938 1206
-398.438 78.125 992
429.688 328.125 1268
-164.062 -15.625 967
-93.75 281.25 1609
226.562 -54.6875 984
453.125 171.875 1080
-257.812 343.75 1210
125 78.125 1696
-335.938 -218.75 989
367.188 -257.812 933
-335.938 -234.375 995
-437.5 31.25 930
85.9375 226.562 1536
484.375 -375 1223
-367.188 343.75 1206
367.188 -218.75 918
468.75 281.25 1297
-375 250 1338
39.0625 -406.25 1067
-296.875 242.188 1073
390.625 335.938 1264
-93.75 -281.25 1034
335.938 31.25 1025
-101.562 -429.688 978
250 -343.75 1268
-7.8125 -421.875 1141
476.562 304.688 1302
31.25 -39.0625 975
-289.062 335.938 1206
-351.562 250 1333
335.938 375 1236
429.688 296.875 1283
-39.0625 -23.4375 962
-359.375 -62.5 946
140.625 -46.875 975
-460.938 289.062 1268
-484.375 250 1070
0 -39.0625 978
296.875 -62.5 992
156.25 398.438 1365
-289.062 312.5 1232
140.625 375 1381
15.625 -31.25 959
-164.062 -421.875 973
-281.25 -15.625 975
-390.625 -187.5 964
-273.438 335.938 1206
-367.188 -62.5 943
-421.875 312.5 1193
-78.125 -31.25 975
109.375 179.688 1776
453.125 -203.125 1292
-250 250 1057
-398.438 312.5 1241
-101.562 -398.438 989
-382.812 -70.3125 940
-31.25 -414.062 989
375 -62.5 984
-312.5 335.938 1206
-429.688 -164.062 959
304.688 -203.125 920
54.6875 7.8125 940
-23.4375 195.312 1785
351.562 335.938 1206
453.125 328.125 1264
117.188 -351.562 1312
-468.75 -39.0625 1041
343.75 -273.438 973
125 -281.25 1054
-257.812 179.688 1047
-250 335.938 1202
125 312.5 1370
101.562 234.375 1543
382.812 -85.9375 973
-195.312 304.688 1149
390.625 328.125 1264
-281.25 265.625 1302
23.4375 -31.25 959
-195.312 343.75 1173
-429.688 -218.75 1169
-468.75 -54.6875 987
-234.375 289.062 1268
-320.312 -54.6875 975
-500 242.188 1047
-445.312 -85.9375 959
-109.375 -351.562 1001
-421.875 0 970
-156.25 -421.875 973
-289.062 242.188 1073
-179.688 351.562 1177
187.5 -179.688 928
-328.125 242.188 1060
-250 -171.875 910
414.062 -203.125 930
171.875 -39.0625 962
-351.562 -226.562 984
-421.875 -31.25 956
335.938 421.875 1278
437.5 -203.125 1288
-132.812 -390.625 987
-367.188 257.812 1317
382.812 -62.5 984
296.875 -226.562 910
382.812 421.875 1292
-250 125 1019
281.25 -54.6875 978
445.312 -234.375 1302
476.562 257.812 1283
-328.125 335.938 1206
-375 -7.8125 973
-132.812 429.688 1278
382.812 304.688 1297
-460.938 242.188 1063
-257.812 312.5 1245
250 -7.8125 946
414.062 304.688 1292
406.25 -203.125 925
-195.312 -398.438 1177
359.375 -218.75 918
-210.938 242.188 1108
-187.5 -359.375 995
-421.875 335.938 1206
-453.125 164.062 995
-414.062 156.25 995
242.188 -46.875 973
-304.688 -125 978
375 296.875 1173
484.375 164.062 1084
328.125 406.25 1259
382.812 -359.375 1307
335.938 429.688 1283
23.4375 -273.438 1060
281.25 -203.125 923
-343.75 -15.625 984
93.75 -210.938 913
328.125 31.25 1028
-234.375 296.875 1255
-359.375 242.188 1070
-195.312 -390.625 1177
445.312 281.25 1245
-46.875 -273.438 1047
-140.625 -23.4375 973
-406.25 -156.25 943
-343.75 281.25 1273
-437.5 -39.0625 954
-328.125 281.25 1273
-242.188 -7.8125 964
-359.375 -171.875 959
-484.375 351.562 1202
-421.875 31.25 935
-171.875 304.688 1185
-359.375 -195.312 975
375 -218.75 918
-304.688 -140.625 981
-304.688 250 1077
-453.125 242.188 1067
218.75 -15.625 943
-15.625 -421.875 1141
-351.562 242.188 1070
390.625 15.625 1010
179.688 -54.6875 984
-281.25 242.188 1073
351.562 -70.3125 998
-164.062 -367.188 989
-265.625 335.938 1210
-39.0625 -406.25 989
359.375 -265.625 959
-414.062 -156.25 948
281.25 -70.3125 1004
-414.062 242.188 1070
-242.188 242.188 1057
-234.375 -7.8125 962
296.875 -54.6875 978
-335.938 281.25 1278
-117.188 -390.625 987
-320.312 273.438 1283
31.25 -31.25 962
-85.9375 -187.5 913
-210.938 -179.688 910
156.25 -296.875 1016
156.25 320.312 1354
-351.562 265.625 1302
-289.062 -62.5 967
-148.438 359.375 1219
382.812 -375 1297
-109.375 -296.875 1025
351.562 359.375 1227
-226.562 304.688 1250
359.375 -210.938 920
125 85.9375 1705
-296.875 281.25 1278
-171.875 23.4375 943
-468.75 250 1067
-421.875 320.312 1193
335.938 -62.5 992
-359.375 335.938 1206
-195.312 273.438 1130
-218.75 320.312 1210
-62.5 -281.25 1038
-343.75 296.875 1241
-210.938 -15.625 975
359.375 312.5 1189
-265.625 304.688 1241
-273.438 70.3125 995
-304.688 281.25 1278
382.812 203.125 1126
445.312 -203.125 1292
85.9375 -31.25 954
210.938 -226.562 913
-210.938 -7.8125 959
-46.875 234.375 1696
468.75 -7.8125 951
-390.625 -242.188 1185
406.25 414.062 1302
109.375 -39.0625 967
-445.312 -54.6875 951
-351.562 296.875 1273
-343.75 257.812 1297
-148.438 -242.188 1019
-117.188 -296.875 1025
-406.25 296.875 1273
-445.312 -226.562 1157
195.312 -226.562 910
-179.688 -382.812 981
39.0625 312.5 1421
492.188 -398.438 1197
140.625 320.312 1359
343.75 335.938 1206
-421.875 242.188 1070
117.188 -39.0625 967
-375 257.812 1302
-445.312 242.188 1063
-359.375 312.5 1241
-335.938 296.875 1245
-148.438 406.25 1227
359.375 320.312 1193
101.562 226.562 1543
-468.75 39.0625 933
-101.562 -406.25 984
-296.875 242.188 1073
312.5 -210.938 920
-140.625 62.5 1019
328.125 -203.125 923
-351.562 -171.875 962
-328.125 304.688 1245
-54.6875 -195.312 910
-62.5 203.125 1776
-500 -62.5 1101
-31.25 234.375 1696
70.3125 -46.875 984
-476.562 406.25 1376
-445.312 312.5 1241
-132.812 62.5 1016
125 148.438 1757
-273.438 242.188 1073
-296.875 -117.188 984
-281.25 31.25 938
265.625 -210.938 918
78.125 179.688 1776
-390.625 31.25 935
125 125 1731
164.062 312.5 1354
-421.875 343.75 1206
335.938 351.562 1223
-367.188 296.875 1268
-421.875 -171.875 954
-367.188 0 959
-187.5 -179.688 913
179.688 398.438 1370
117.188 312.5 1381
85.9375 -39.0625 970
328.125 -78.125 1004
-312.5 265.625 1297
195.312 312.5 1359
-156.25 398.438 1219
-390.625 281.25 1283
-296.875 289.062 1268
-148.438 -23.4375 973
-437.5 281.25 1278
-273.438 109.375 1010
70.3125 46.875 1016
171.875 15.625 946
78.125 -46.875 981
-437.5 312.5 1236
-492.188 335.938 1123
-109.375 -453.125 1149
-382.812 296.875 1278
-257.812 195.312 1050
-62.5 226.562 1722
476.562 296.875 1297
-62.5 -421.875 984
-382.812 78.125 992
132.812 -39.0625 967
-390.625 242.188 1073
406.25 218.75 1278
-132.812 -23.4375 975
-171.875 398.438 1214
-70.3125 -429.688 981
-375 78.125 992
492.188 257.812 1333
460.938 -203.125 1288
-359.375 281.25 1278
-468.75 -23.4375 1016
-218.75 281.25 1134
140.625 -351.562 1307
-460.938 -7.8125 984
-460.938 304.688 1241
132.812 -273.438 1016
140.625 -54.6875 989
-500 -78.125 1134
132.812 -351.562 1307
-46.875 -281.25 1041
210.938 -46.875 973
-382.812 31.25 935
-320.312 296.875 1278
125 140.625 1748
-210.938 -171.875 913
484.375 296.875 1297
-93.75 281.25 1609
320.312 -210.938 918
-367.188 -234.375 1134
-414.062 -250 1177
335.938 -234.375 910
-85.9375 281.25 1594
492.188 273.438 1302
-273.438 31.25 938
-414.062 -31.25 962
-296.875 335.938 1210
-31.25 -335.938 1022
-437.5 242.188 1063
-54.6875 -335.938 1019
-62.5 -23.4375 962
15.625 351.562 1470
-406.25 242.188 1070
-148.438 -15.625 964
-382.812 -187.5 962
375 -250 915
-390.625 -15.625 987
-367.188 335.938 1206
414.062 179.688 1090
-23.4375 -398.438 995
-226.562 289.062 1134
-46.875 -312.5 1028
-406.25 -148.438 943
-421.875 -156.25 951
359.375 -62.5 987
-250 210.938 1060
78.125 -210.938 910
265.625 -273.438 998
93.75 226.562 1543
-476.562 320.312 1241
-375 281.25 1283
7.8125 -39.0625 981
-273.438 281.25 1278
-54.6875 281.25 1616
242.188 -226.562 910
-328.125 296.875 1245
460.938 -343.75 1241
289.062 -226.562 913
0 -31.25 964
-15.625 -195.312 915
179.688 -46.875 978
-148.438 -179.688 913
343.75 -78.125 1004
-164.062 23.4375 943
-320.312 -39.0625 1019
343.75 242.188 1169
460.938 171.875 1087
218.75 -46.875 973
-398.438 242.188 1070
-31.25 -398.438 995
335.938 281.25 1206
351.562 312.5 1189
195.312 281.25 1433
406.25 179.688 1090
-289.062 -54.6875 1054
-109.375 -335.938 1010
-31.25 -23.4375 959
320.312 -78.125 1007
-23.4375 -195.312 913
-289.062 242.188 1073
-335.938 -78.125 951
-320.312 257.812 1297
406.25 242.188 1264
-429.688 242.188 1070
-78.125 -398.438 989
-78.125 15.625 943
-453.125 335.938 1202
414.062 -23.4375 951
140.625 367.188 1354
375 70.3125 1067
-226.562 335.938 1206
-62.5 -31.25 975
23.4375 234.375 1688
-476.562 335.938 1202
164.062 -289.062 954
-109.375 -23.4375 967
-414.062 343.75 1210
-429.688 -31.25 954
-203.125 375 1197
-109.375 -406.25 984
-375 312.5 1241
-414.062 281.25 1283
312.5 -226.562 910
-7.8125 -429.688 1138
-414.062 328.125 1210
-132.812 -15.625 964
-406.25 -179.688 954
-250 281.25 1278
-148.438 328.125 1232
-359.375 257.812 1317
-351.562 242.188 1070
460.938 281.25 1302
-132.812 -382.812 987
-468.75 -109.375 1073
-281.25 242.188 1073
171.875 320.312 1354
-406.25 -117.188 943
46.875 -390.625 1067
-93.75 -242.188 995
125 93.75 1705
250 -210.938 918
-468.75 -78.125 1073
-359.375 -187.5 964
-281.25 281.25 1278
320.312 421.875 1283
476.562 289.062 1297
132.812 101.562 1713
-109.375 -429.688 978
-281.25 93.75 1001
390.625 304.688 1297
62.5 -203.125 910
-437.5 343.75 1202
-179.688 -414.062 975
203.125 -62.5 995
-328.125 218.75 1063
148.438 -54.6875 987
-257.812 281.25 1278
-70.3125 203.125 1776
-437.5 -54.6875 951
-234.375 335.938 1202
-312.5 -46.875 981
85.9375 -46.875 984
-468.75 328.125 1206
-78.125 -382.812 995
-250 -7.8125 959
203.125 -46.875 973
406.25 0 998
-453.125 320.312 1241
-195.312 -382.812 1181
132.812 78.125 1696
-179.688 -7.8125 954
-250 242.188 1057
-7.8125 -281.25 1090
429.688 320.312 1264
195.312 -265.625 956
421.875 304.688 1292
398.438 15.625 1004
-492.188 -226.562 1130
-140.625 -421.875 975
-46.875 -195.312 910
351.562 -289.062 1013
390.625 -195.312 925
492.188 289.062 1297
390.625 -179.688 930
-117.188 15.625 940
218.75 -218.75 915
-335.938 -164.062 975
-437.5 -195.312 946
-281.25 78.125 995
-484.375 242.188 1070
125 234.375 1477
101.562 -210.938 910
-15.625 -382.812 1097
281.25 39.0625 1022
93.75 -39.0625 970
-484.375 78.125 989
-304.688 31.25 938
109.375 304.688 1392
-273.438 296.875 1245
476.562 320.312 1259
382.812 132.812 1067
140.625 -39.0625 964
367.188 320.312 1189
460.938 296.875 1297
93.75 296.875 1398
-312.5 281.25 1278
367.188 257.812 1161
-375 -164.062 951
-500 39.0625 930
-210.938 15.625 940
273.438 -70.3125 1004
-375 296.875 1273
-351.562 218.75 1060
281.25 -70.3125 1004
-46.875 15.625 940
-320.312 281.25 1273
343.75 23.4375 1025
-289.062 31.25 938
-421.875 164.062 995
-343.75 242.188 1073
-500 312.5 1105
-375 31.25 935
-414.062 -203.125 951
-31.25 -390.625 998
-437.5 78.125 989
-226.562 281.25 1134
281.25 -78.125 967
148.438 265.625 1477
-445.312 343.75 1206
70.3125 203.125 1776
218.75 -54.6875 984
250 -226.562 913
-281.25 296.875 1245
492.188 -31.25 951
-109.375 -187.5 913
-468.75 -101.562 1073
492.188 164.062 1084
351.562 -78.125 1004
-148.438 421.875 1232
187.5 273.438 1445
31.25 234.375 1696
460.938 15.625 1007
-367.188 242.188 1070
335.938 367.188 1227
226.562 -218.75 913
101.562 203.125 2090
-414.062 -195.312 948
-500 -125 1087
-242.188 242.188 1057
156.25 -242.188 938
-304.688 281.25 1278
101.562 -54.6875 989
-375 335.938 1206
-382.812 -156.25 951
375 335.938 1259
242.188 320.312 1398
390.625 -218.75 918
179.688 -242.188 928
-390.625 343.75 1206
328.125 203.125 1236
132.812 70.3125 1696
132.812 -289.062 1019
-421.875 289.062 1273
-414.062 -15.625 970
-273.438 281.25 1278
46.875 -31.25 959
-109.375 -437.5 978
-382.812 242.188 1073
210.938 -62.5 995
-445.312 -54.6875 951
-265.625 296.875 1255
-429.688 343.75 1202
398.438 78.125 1034
-304.688 -437.5 2883
-187.5 429.688 1349
179.688 257.812 1470
-468.75 -62.5 1094
-460.938 -54.6875 987
-335.938 -85.9375 954
132.812 367.188 1354
-492.188 31.25 933
289.062 39.0625 1022
-468.75 -117.188 1073
-375 -234.375 1157
-500 335.938 1123
-195.312 -375 1189
78.125 7.8125 940
-203.125 -15.625 975
0 -39.0625 978
-117.188 -359.375 998
289.062 -312.5 1119
-421.875 281.25 1278
-289.062 281.25 1278
-171.875 -179.688 913
406.25 15.625 1004
-421.875 -15.625 964
-132.812 -23.4375 975
7.8125 7.8125 940
-437.5 0 967
437.5 328.125 1273
-218.75 -7.8125 959
-398.438 -156.25 943
187.5 351.562 1365
-109.375 -257.812 1044
-312.5 296.875 1273
390.625 -226.562 913
328.125 -54.6875 970
-117.188 -257.812 1041
78.125 -46.875 981
-117.188 -15.625 959
-414.062 -54.6875 948
-218.75 -23.4375 984
382.812 62.5 1044
-101.562 -242.188 1001
-367.188 -171.875 956
-304.688 257.812 1302
-484.375 -257.812 2933
-265.625 242.188 1070
-265.625 273.438 1302
-359.375 -140.625 951
-289.062 -54.6875 1054
-117.188 -187.5 913
70.3125 -31.25 959
265.625 -195.312 923
203.125 289.062 1398
-62.5 -31.25 975
-398.438 343.75 1210
312.5 -203.125 920
-132.812 -281.25 1031
414.062 179.688 1090
132.812 85.9375 1696
-375 343.75 1206
406.25 296.875 1278
-62.5 -343.75 1013
-125 -23.4375 970
-140.625 -23.4375 973
70.3125 -203.125 910
-476.562 -187.5 951
382.812 -54.6875 970
-250 296.875 1227
140.625 320.312 1359
476.562 -203.125 1292
-109.375 -15.625 956
-476.562 242.188 1067
-125 -367.188 995
492.188 -203.125 1283
-429.688 312.5 1193
-281.25 335.938 1206
-109.375 -406.25 984
351.562 -265.625 959
-156.25 -421.875 973
382.812 -242.188 913
203.125 -320.312 1013
-148.438 -421.875 975
-265.625 -164.062 910
-312.5 273.438 1297
-320.312 242.188 1060
-445.312 -46.875 951
-179.688 -273.438 1145
-164.062 -414.062 973
-320.312 218.75 1063
289.062 -70.3125 1004
367.188 289.062 1173
-414.062 15.625 943
257.812 -7.8125 948
335.938 359.375 1227
179.688 320.312 1359
-46.875 -265.625 1047
-250 218.75 1067
-273.438 242.188 1073
31.25 226.562 1696
468.75 257.812 1283
-382.812 335.938 1210
-359.375 -39.0625 959
320.312 -226.562 910
187.5 -242.188 925
-125 -15.625 962
406.25 335.938 1264
-312.5 -23.4375 995
-109.375 359.375 1302
156.25 -54.6875 987
-132.812 39.0625 943
-234.375 46.875 940
-484.375 335.938 1202
-304.688 335.938 1206
382.812 328.125 1264
-429.688 -54.6875 954
304.688 -226.562 910
-359.375 335.938 1206
-281.25 257.812 1307
-296.875 281.25 1278
117.188 312.5 1381
-234.375 281.25 1278
109.375 -210.938 910
-382.812 -78.125 940
-148.438 -367.188 989
70.3125 210.938 1696
-437.5 281.25 1278
125 117.188 1731
-85.9375 -367.188 1001
-210.938 -15.625 975
-140.625 -15.625 964
109.375 0 938
-101.562 -296.875 1025
429.688 -203.125 1288
-7.8125 -414.062 1141
-437.5 15.625 938
179.688 39.0625 1016
101.562 187.5 1794
70.3125 0 938
164.062 0 940
-406.25 -195.312 954
328.125 187.5 1232
-296.875 296.875 1245
-328.125 281.25 1273
-78.125 -328.125 1019
-85.9375 -15.625 954
-343.75 78.125 995
-15.625 -23.4375 959
320.312 -289.062 1028
-382.812 273.438 1292
-335.938 78.125 995
195.312 289.062 1421
132.812 -210.938 910
-359.375 78.125 995
39.0625 -31.25 964
359.375 343.75 1223
156.25 -234.375 908
-39.0625 -421.875 981
250 -46.875 973
125 -39.0625 967
-7.8125 -23.4375 956
-210.938 359.375 1464
-62.5 -421.875 984
460.938 210.938 1283
-203.125 -171.875 913
-445.312 312.5 1241
421.875 -203.125 923
-460.938 312.5 1236
-445.312 273.438 1297
-187.5 -320.312 1307
390.625 -203.125 923
-148.438 -7.8125 951
-351.562 78.125 995
-367.188 335.938 1206
-437.5 312.5 1236
125 78.125 1696
-148.438 -382.812 987
-140.625 -234.375 998
-390.625 335.938 1206
-156.25 406.25 1227
195.312 -257.812 962
445.312 406.25 1302
343.75 429.688 1292
-250 335.938 1202
-195.312 406.25 1223
-453.125 281.25 1273
148.438 -257.812 973
-453.125 -187.5 948
-210.938 351.562 1210
375 -359.375 1307
328.125 390.625 1250
421.875 328.125 1264
-398.438 296.875 1273
421.875 179.688 1090
218.75 -257.812 954
-453.125 312.5 1241
-265.625 164.062 1034
445.312 296.875 1250
-171.875 414.062 1223
421.875 187.5 1090
148.438 -351.562 1343
484.375 -390.625 1206
-93.75 359.375 1283
414.062 328.125 1264
-132.812 320.312 1219
-54.6875 -31.25 973
414.062 -203.125 930
328.125 328.125 1236
148.438 375 1381
-234.375 296.875 1255
367.188 312.5 1189
-93.75 -15.625 954
265.625 -70.3125 1004
-437.5 296.875 1273
-109.375 -390.625 989
226.562 -62.5 995
-164.062 -343.75 998
-62.5 -359.375 1007
-257.812 281.25 1278
203.125 -281.25 951
-179.688 -437.5 975
-257.812 273.438 1302
171.875 -218.75 910
-367.188 273.438 1297
-250 312.5 1236
468.75 226.562 1273
-429.688 15.625 940
484.375 273.438 1328
328.125 39.0625 1206
210.938 -257.812 956
273.438 -320.312 1157
-296.875 218.75 1060
-54.6875 203.125 1739
125 375 1381
-398.438 273.438 1302
-54.6875 -257.812 1025
-250 273.438 1302
-179.688 0 943
-421.875 -117.188 951
-406.25 -156.25 943
-476.562 -46.875 1063
-414.062 296.875 1278
-109.375 -359.375 998
-70.3125 -359.375 1004
148.438 -54.6875 987
-187.5 -7.8125 954
-265.625 0 954
0 -23.4375 956
-367.188 312.5 1241
445.312 218.75 1273
218.75 -62.5 995
39.0625 -203.125 913
-179.688 -265.625 1112
-265.625 257.812 1307
476.562 -375 1223
-242.188 335.938 1202
46.875 195.312 1794
-281.25 273.438 1297
-39.0625 -406.25 989
335.938 -210.938 918
23.4375 -203.125 913
-265.625 31.25 938
-78.125 -187.5 910
-125 -382.812 987
-445.312 7.8125 959
171.875 -242.188 933
335.938 -78.125 1004
-54.6875 -367.188 1007
148.438 367.188 1354
460.938 273.438 1288
-328.125 31.25 938
-351.562 335.938 1206
-101.562 -15.625 954
-7.8125 -382.812 1090
-257.812 296.875 1259
93.75 195.312 1776
132.812 109.375 1713
-195.312 -15.625 973
-93.75 -242.188 995
-125 -289.062 1028
335.938 -54.6875 970
-460.938 242.188 1063
-78.125 -15.625 954
-328.125 273.438 1302
289.062 406.25 1333
-132.812 -250 1001
-289.062 242.188 1073
-273.438 -7.8125 962
382.812 -242.188 913
-242.188 273.438 1302
-359.375 7.8125 946
-273.438 257.812 1307
390.625 -85.9375 970
-476.562 -39.0625 1044
468.75 7.8125 1007
-445.312 -148.438 1004
-218.75 -351.562 2984
375 320.312 1297
-164.062 -85.9375 951
-257.812 320.312 1214
-421.875 242.188 1070
125 109.375 1722
-304.688 7.8125 943
85.9375 -46.875 984
398.438 335.938 1264
273.438 -203.125 923
-39.0625 -195.312 910
-156.25 335.938 1264
187.5 -39.0625 962
-304.688 -23.4375 998
-375 335.938 1206
-257.812 195.312 1050
7.8125 -367.188 1101
343.75 -54.6875 970
210.938 -31.25 951
109.375 226.562 1543
-304.688 312.5 1241
-218.75 335.938 1206
-265.625 281.25 1273
328.125 -226.562 915
-359.375 273.438 1302
328.125 -210.938 920
156.25 -54.6875 987
-117.188 -406.25 981
257.812 -46.875 970
-117.188 -289.062 1031
320.312 179.688 1259
117.188 367.188 1349
468.75 312.5 1259
-351.562 -70.3125 946
-15.625 -281.25 1050
-234.375 320.312 1210
148.438 -39.0625 964
375 421.875 1302
179.688 -218.75 913
476.562 226.562 1283
-46.875 -39.0625 987
-125 -328.125 1010
-54.6875 -343.75 1016
-500 -328.125 2432
-414.062 -179.688 956
93.75 -46.875 981
-210.938 -7.8125 959
359.375 335.938 1202
281.25 367.188 1387
421.875 -31.25 951
-164.062 -328.125 1007
-351.562 -164.062 962
-203.125 -7.8125 956
335.938 -203.125 920
-242.188 281.25 1278
148.438 -273.438 962
-421.875 312.5 1193
476.562 398.438 1302
-164.062 -7.8125 951
-460.938 343.75 1202
156.25 -148.438 938
195.312 312.5 1359
-476.562 39.0625 935
-132.812 -234.375 995
296.875 -210.938 918
-281.25 281.25 1278
-218.75 328.125 1210
-289.062 335.938 1206
296.875 195.312 1376
-132.812 351.562 1219
140.625 -257.812 973
-140.625 -382.812 987
-500 242.188 1047
281.25 -70.3125 1004
382.812 -70.3125 992
-500 -265.625 2381
-85.9375 -242.188 992
-101.562 398.438 1250
382.812 -406.25 1283
468.75 281.25 1297
343.75 -234.375 910
-242.188 257.812 1317
-335.938 281.25 1278
-234.375 -7.8125 962
320.312 -54.6875 975
-382.812 7.8125 951
-250 101.562 1007
109.375 406.25 1370
226.562 -46.875 973
218.75 281.25 1404
-445.312 -226.562 1157
195.312 -234.375 915
164.062 -54.6875 987
-187.5 -351.562 1001
-414.062 -7.8125 975
0 -195.312 915
210.938 -46.875 973
-304.688 296.875 1245
-164.062 -242.188 1022
-179.688 -367.188 989
-54.6875 -429.688 984
-62.5 -320.312 1025
-62.5 203.125 1776
164.062 -273.438 956
78.125 -203.125 913
132.812 117.188 1722
-500 -179.688 1073
31.25 -203.125 913
484.375 257.812 1365
117.188 -39.0625 967
-226.562 187.5 1050
-320.312 78.125 995
15.625 -23.4375 954
-289.062 289.062 1268
85.9375 -31.25 954
-351.562 -140.625 956
-101.562 -398.438 989
-148.438 -429.688 978
-117.188 -23.4375 970
23.4375 -39.0625 978
-460.938 -109.375 1080
343.75 -203.125 920
296.875 -54.6875 978
-148.438 -375 987
390.625 -250 915
-148.438 -296.875 1019
101.562 -31.25 951
468.75 -203.125 1292
-171.875 406.25 1214
343.75 -78.125 1004
250 -203.125 920
-343.75 -179.688 964
15.625 -39.0625 981
140.625 406.25 1359
-500 -257.812 2365
15.625 -15.625 946
-359.375 -7.8125 973
-429.688 -203.125 946
273.438 -7.8125 951
-367.188 -218.75 975
-132.812 -179.688 913
54.6875 -281.25 1063
-460.938 -46.875 987
85.9375 359.375 1415
-437.5 -156.25 995
-203.125 -148.438 923
-70.3125 -398.438 992
203.125 -257.812 956
-234.375 7.8125 943
390.625 101.562 1047
-429.688 0 973
242.188 -343.75 1227
257.812 -335.938 1236
-203.125 382.812 1433
-242.188 343.75 1202
-171.875 -414.062 973
359.375 -78.125 1004
226.562 -351.562 1322
273.438 -39.0625 956
-414.062 289.062 1278
-101.562 -429.688 978
351.562 -15.625 948
-15.625 -445.312 1138
-46.875 234.375 1696
109.375 -39.0625 967
-406.25 281.25 1283
-242.188 320.312 1210
-445.312 296.875 1268
-281.25 218.75 1063
367.188 343.75 1223
-226.562 296.875 1250
-125 -23.4375 970
-234.375 -171.875 913
-70.3125 -187.5 910
23.4375 -406.25 1067
-460.938 328.125 1206
351.562 -78.125 1004
-31.25 -382.812 998
-328.125 250 1333
-289.062 -31.25 1007
460.938 171.875 1087
390.625 281.25 1283
250 -101.562 962
414.062 15.625 1007
-312.5 -15.625 984
-273.438 125 1016
132.812 -54.6875 989
-406.25 -226.562 1185
445.312 171.875 1080
93.75 187.5 1776
-101.562 289.062 1601
-125 328.125 1227
-179.688 359.375 1189
171.875 -250 951
0 -406.25 1077
101.562 179.688 1785
-257.812 -171.875 908
-468.75 164.062 995
-429.688 296.875 1268
-351.562 -39.0625 962
-406.25 335.938 1210
382.812 312.5 1297
195.312 281.25 1433
-429.688 -187.5 948
-453.125 343.75 1202
-125 429.688 1273
406.25 304.688 1297
-132.812 335.938 1232
-257.812 -164.062 910
-125 414.062 1259
-281.25 -15.625 975
359.375 -15.625 948
476.562 250 1264
226.562 312.5 1404
-93.75 164.062 1757
-187.5 437.5 1343
-445.312 242.188 1063
328.125 -281.25 1007
-437.5 -187.5 948
328.125 -54.6875 970
-250 242.188 1057
-445.312 -54.6875 951
210.938 335.938 1349
132.812 93.75 1705
-460.938 -23.4375 1013
-70.3125 -257.812 1038
406.25 -203.125 925
-250 148.438 1031
453.125 304.688 1297
-195.312 -171.875 913
421.875 -23.4375 951
476.562 -390.625 1210
164.062 -359.375 1376
125 218.75 1705
304.688 -78.125 1007
265.625 -203.125 920
-109.375 -390.625 989
296.875 -70.3125 1004
125 54.6875 1022
335.938 -164.062 938
203.125 -265.625 951
-195.312 -375 1189
390.625 304.688 1297
-250 296.875 1227
-164.062 -179.688 913
468.75 320.312 1264
117.188 312.5 1381
31.25 351.562 1470
-101.562 -421.875 978
-460.938 0 970
62.5 359.375 1421
-281.25 289.062 1264
39.0625 234.375 1688
421.875 296.875 1283
242.188 250 1616
156.25 -39.0625 962
-320.312 -109.375 964
-476.562 -234.375 1145
-23.4375 -382.812 998
-437.5 -39.0625 954
-429.688 281.25 1278
421.875 414.062 1297
-273.438 117.188 1013
78.125 -31.25 959
54.6875 195.312 1804
-453.125 242.188 1067
-234.375 265.625 1302
445.312 -203.125 1292
273.438 -46.875 970
-382.812 -203.125 964
-343.75 -164.062 964
85.9375 -351.562 1108
-93.75 -429.688 978
-382.812 -101.562 940
31.25 -39.0625 975
117.188 -23.4375 940
31.25 -31.25 962
375 -78.125 1007
484.375 265.625 1338
85.9375 -23.4375 948
125 343.75 1343
132.812 62.5 1680
-203.125 -15.625 975
-437.5 -117.188 975
-421.875 335.938 1206
-187.5 -312.5 1307
-398.438 -171.875 946
-39.0625 203.125 1776
-468.75 343.75 1202
-429.688 -140.625 984
-390.625 335.938 1206
367.188 -203.125 923
382.812 210.938 1126
382.812 304.688 1297
93.75 359.375 1398
453.125 406.25 1302
-390.625 296.875 1278
179.688 -234.375 918
-250 195.312 1050
-453.125 296.875 1259
-250 257.812 1307
390.625 -101.562 970
-367.188 335.938 1206
-390.625 -125 943
23.4375 187.5 1785
-101.562 -23.4375 970
468.75 289.062 1297
398.438 328.125 1259
-101.562 -273.438 1034
-257.812 414.062 1376
359.375 -257.812 935
