ply
format ascii 1.0
comment Created by Open3D
element vertex 2407
property double x
property double y
property double z
end_header
-203.125 257.812 648
-164.062 -234.375 794
-93.75 -203.125 728
492.188 -328.125 2349
-101.562 148.438 674
265.625 195.312 833
39.0625 406.25 590
171.875 359.375 755
-304.688 -250 708
492.188 109.375 783
0 62.5 675
-421.875 -156.25 792
484.375 -31.25 722
-445.312 -132.812 906
-70.3125 70.3125 686
367.188 -125 815
382.812 -156.25 839
406.25 -203.125 873
414.062 -93.75 1001
-265.625 -46.875 815
-281.25 -406.25 851
-101.562 320.312 620
-101.562 -445.312 835
257.812 101.562 694
-398.438 -203.125 736
-187.5 -406.25 817
-117.188 101.562 680
101.562 343.75 599
-421.875 -164.062 785
351.562 31.25 920
23.4375 31.25 741
320.312 78.125 898
-179.688 -390.625 819
31.25 31.25 741
312.5 109.375 878
-476.562 -367.188 1439
257.812 117.188 787
-62.5 343.75 610
-484.375 -445.312 3149
398.438 -187.5 862
15.625 382.812 589
-257.812 390.625 1392
156.25 164.062 667
375 265.625 783
242.188 -406.25 2701
-296.875 -234.375 714
-7.8125 23.4375 678
-62.5 156.25 687
398.438 -359.375 2522
218.75 281.25 789
-140.625 164.062 652
-62.5 -210.938 796
-132.812 -140.625 736
-54.6875 164.062 683
335.938 62.5 903
359.375 -375 2579
468.75 62.5 887
140.625 390.625 739
179.688 -296.875 964
-15.625 -85.9375 815
0 54.6875 675
351.562 -242.188 903
-187.5 -101.562 845
0 -406.25 3037
390.625 -171.875 849
-70.3125 -234.375 841
-187.5 265.625 647
-125 -304.688 785
-62.5 -296.875 807
-62.5 70.3125 686
-156.25 -265.625 798
382.812 -234.375 891
-31.25 54.6875 667
250 226.562 817
242.188 242.188 809
-164.062 140.625 667
414.062 -101.562 954
-70.3125 -265.625 823
390.625 -46.875 967
-148.438 -273.438 802
195.312 -296.875 964
367.188 0 938
15.625 93.75 694
234.375 226.562 815
-78.125 328.125 613
-429.688 -148.438 792
257.812 210.938 823
-156.25 132.812 670
164.062 375 747
-164.062 210.938 667
-78.125 -296.875 809
328.125 93.75 885
-296.875 203.125 684
234.375 -289.062 951
414.062 -85.9375 995
203.125 -289.062 954
-187.5 257.812 647
304.688 117.188 873
-70.3125 -226.562 841
-132.812 -445.312 827
-492.188 -359.375 1433
-70.3125 -250 833
-46.875 351.562 606
-195.312 -140.625 873
281.25 164.062 847
-296.875 -210.938 720
-273.438 -429.688 849
257.812 187.5 837
218.75 265.625 798
242.188 226.562 817
-445.312 -156.25 1047
39.0625 382.812 583
289.062 31.25 730
-437.5 109.375 741
-109.375 -414.062 833
-281.25 -398.438 849
195.312 304.688 780
-140.625 125 683
-453.125 -132.812 903
-62.5 -390.625 860
304.688 343.75 752
-31.25 125 671
273.438 -398.438 2639
359.375 15.625 930
-132.812 -273.438 790
-437.5 -203.125 759
210.938 296.875 781
-359.375 -195.312 723
-500 281.25 1713
-23.4375 359.375 600
273.438 101.562 798
257.812 85.9375 704
125 304.688 613
-54.6875 23.4375 678
304.688 -70.3125 781
351.562 -93.75 798
-132.812 296.875 630
171.875 328.125 767
296.875 -390.625 2639
-140.625 -265.625 803
-382.812 -101.562 823
117.188 453.125 711
335.938 -101.562 798
-257.812 382.812 785
-273.438 226.562 686
359.375 -109.375 809
-117.188 -359.375 839
281.25 54.6875 717
210.938 265.625 796
343.75 -78.125 787
421.875 0 930
328.125 78.125 896
-312.5 -132.812 752
-195.312 -132.812 867
70.3125 382.812 585
-148.438 -398.438 821
273.438 54.6875 717
-117.188 -367.188 835
398.438 -156.25 885
-93.75 179.688 676
210.938 257.812 800
242.188 125 683
-78.125 78.125 682
101.562 265.625 625
171.875 70.3125 711
375 -156.25 837
125 437.5 719
265.625 187.5 837
242.188 234.375 813
296.875 -156.25 839
-132.812 289.062 630
125 -437.5 2812
-289.062 -210.938 727
46.875 437.5 634
-289.062 -226.562 727
-460.938 -382.812 1458
-414.062 -148.438 798
148.438 -312.5 987
-109.375 -367.188 839
156.25 351.562 757
-109.375 203.125 670
-109.375 -273.438 794
-257.812 -453.125 843
328.125 -382.812 2598
-23.4375 -187.5 736
0 164.062 682
-62.5 164.062 684
148.438 382.812 742
-281.25 -359.375 862
132.812 406.25 734
-257.812 -445.312 841
-265.625 -226.562 744
15.625 -187.5 882
-125 -179.688 728
7.8125 109.375 700
132.812 390.625 739
-23.4375 -195.312 734
0 140.625 693
-351.562 242.188 841
-132.812 312.5 644
-78.125 -312.5 792
7.8125 -226.562 749
-421.875 -226.562 731
-289.062 -54.6875 811
70.3125 390.625 584
-70.3125 -179.688 725
476.562 -179.688 2301
-93.75 62.5 706
257.812 140.625 783
-125 -312.5 785
304.688 125 869
-78.125 54.6875 701
-7.8125 125 670
179.688 351.562 757
187.5 335.938 764
375 -140.625 829
-78.125 -289.062 809
273.438 109.375 796
289.062 156.25 851
-140.625 -132.812 741
-257.812 -312.5 871
-445.312 -195.312 762
156.25 390.625 739
-70.3125 -343.75 880
54.6875 390.625 582
-210.938 -265.625 901
-132.812 -390.625 825
281.25 171.875 843
-39.0625 -187.5 731
-296.875 -203.125 722
-85.9375 -335.938 778
-93.75 -195.312 728
-234.375 -390.625 823
187.5 -421.875 2744
-117.188 -312.5 785
296.875 140.625 862
-281.25 -367.188 858
156.25 367.188 750
-78.125 -187.5 725
414.062 0 933
-93.75 320.312 618
-148.438 -242.188 809
453.125 -187.5 2317
-460.938 -398.438 3238
-156.25 -242.188 800
-453.125 -414.062 3300
-132.812 -398.438 825
304.688 -390.625 2618
312.5 109.375 878
54.6875 398.438 582
-179.688 -414.062 817
-226.562 -78.125 835
-359.375 -203.125 717
414.062 -195.312 880
203.125 312.5 774
250 203.125 829
15.625 62.5 700
-445.312 -390.625 1477
-460.938 359.375 1705
-70.3125 -382.812 858
-250 -171.875 778
-132.812 -218.75 831
375 -117.188 809
-164.062 281.25 637
78.125 375 587
171.875 -296.875 964
359.375 -148.438 829
-164.062 -218.75 747
375 -15.625 948
265.625 93.75 798
-70.3125 117.188 675
-468.75 -218.75 987
-140.625 117.188 686
-54.6875 -187.5 727
296.875 460.938 700
-62.5 -406.25 860
-281.25 -390.625 851
390.625 -226.562 887
-210.938 -406.25 817
-445.312 -132.812 906
140.625 -312.5 987
-15.625 54.6875 671
109.375 429.688 722
-132.812 179.688 649
367.188 -101.562 809
406.25 -179.688 873
382.812 -31.25 959
-7.8125 382.812 602
187.5 304.688 778
195.312 289.062 787
351.562 -70.3125 787
406.25 -203.125 873
-132.812 -359.375 781
226.562 -281.25 943
0 54.6875 675
281.25 148.438 854
304.688 54.6875 817
-70.3125 -257.812 829
-62.5 -351.562 878
-85.9375 171.875 682
-453.125 -406.25 3300
-46.875 148.438 693
125 -312.5 984
-78.125 343.75 624
-70.3125 -281.25 815
351.562 31.25 920
-296.875 -218.75 720
257.812 101.562 694
-78.125 -304.688 798
281.25 109.375 800
140.625 414.062 730
-109.375 -320.312 789
-390.625 -273.438 731
-289.062 203.125 679
-500 -85.9375 875
179.688 -296.875 964
-460.938 -148.438 1019
296.875 70.3125 819
0 132.812 697
343.75 46.875 910
218.75 250 805
0 125 700
226.562 242.188 809
62.5 117.188 697
273.438 125 800
7.8125 -117.188 833
-54.6875 -312.5 803
421.875 -351.562 2522
125 406.25 733
-70.3125 -390.625 858
312.5 93.75 889
-156.25 -312.5 783
39.0625 31.25 741
-39.0625 117.188 680
281.25 62.5 716
437.5 -93.75 1001
367.188 -234.375 896
-78.125 132.812 675
-500 -93.75 894
-156.25 -234.375 802
46.875 125 694
-109.375 -296.875 790
101.562 445.312 666
273.438 187.5 837
-406.25 -265.625 730
-15.625 171.875 679
-125 -320.312 783
312.5 -296.875 2618
-187.5 -367.188 823
-453.125 -125 898
0 -203.125 747
-117.188 -242.188 794
-148.438 132.812 672
93.75 453.125 664
343.75 -54.6875 778
-117.188 312.5 625
-468.75 -414.062 3238
15.625 125 698
-54.6875 78.125 684
148.438 -304.688 978
-320.312 -226.562 697
-62.5 -367.188 873
171.875 367.188 750
-140.625 -312.5 783
-148.438 281.25 635
-132.812 -335.938 781
-78.125 171.875 682
-148.438 -375 825
0 -109.375 829
-234.375 -304.688 864
-281.25 -398.438 849
164.062 359.375 754
-117.188 109.375 680
-265.625 218.75 671
203.125 296.875 783
0 156.25 684
-242.188 -148.438 792
-85.9375 179.688 676
7.8125 -148.438 798
-15.625 101.562 684
23.4375 382.812 587
250 -273.438 935
7.8125 117.188 701
-476.562 -117.188 891
54.6875 -453.125 2933
-148.438 -281.25 800
54.6875 -453.125 2933
-406.25 -132.812 805
-93.75 -203.125 728
-460.938 -289.062 1054
54.6875 31.25 741
445.312 -343.75 2503
-273.438 -203.125 747
-39.0625 -351.562 898
265.625 101.562 792
-164.062 -351.562 829
468.75 -335.938 2485
234.375 257.812 800
382.812 -132.812 823
273.438 164.062 847
203.125 -289.062 954
-70.3125 148.438 679
-101.562 -453.125 837
179.688 -304.688 970
23.4375 54.6875 733
-132.812 164.062 650
-203.125 -382.812 819
250 117.188 693
-406.25 -218.75 725
125 421.875 723
-70.3125 -296.875 809
-132.812 -304.688 785
359.375 15.625 930
-273.438 -414.062 847
-242.188 -375 829
-62.5 -203.125 727
-7.8125 -203.125 741
-265.625 -226.562 744
15.625 -351.562 1038
-265.625 -437.5 845
203.125 312.5 774
-476.562 -125 987
-117.188 78.125 688
-93.75 -210.938 783
-101.562 93.75 676
-39.0625 148.438 664
-54.6875 -203.125 730
-164.062 -250 796
-281.25 -382.812 856
-289.062 -117.188 761
-23.4375 78.125 676
-62.5 -445.312 875
-62.5 -179.688 727
-148.438 -171.875 738
-367.188 156.25 713
-242.188 -54.6875 819
304.688 70.3125 841
-500 -351.562 1410
-101.562 -281.25 811
281.25 171.875 843
-281.25 -390.625 851
-101.562 -382.812 839
265.625 203.125 829
242.188 117.188 693
-109.375 -437.5 833
-351.562 -257.812 713
140.625 382.812 742
15.625 140.625 690
359.375 -210.938 875
-250 -46.875 817
-46.875 70.3125 676
-250 -429.688 831
-468.75 -375 1458
273.438 62.5 716
-31.25 -148.438 774
226.562 273.438 792
250 101.562 694
-429.688 -148.438 792
46.875 132.812 691
-101.562 -156.25 733
-109.375 148.438 672
-46.875 -335.938 1028
0 54.6875 675
-304.688 -179.688 720
-281.25 -375 856
289.062 156.25 851
-78.125 -281.25 815
281.25 179.688 841
335.938 -62.5 780
289.062 140.625 860
-226.562 -375 825
-54.6875 -179.688 728
-179.688 -406.25 817
-296.875 195.312 684
23.4375 398.438 597
156.25 390.625 739
-335.938 -62.5 835
265.625 -273.438 933
414.062 -187.5 885
-437.5 -140.625 908
476.562 -78.125 981
195.312 328.125 767
-70.3125 -242.188 839
-171.875 281.25 641
0 -93.75 819
-7.8125 367.188 595
406.25 -62.5 978
187.5 320.312 773
273.438 -265.625 928
148.438 406.25 734
-117.188 -304.688 787
-62.5 -171.875 728
-445.312 -132.812 906
-304.688 -171.875 725
242.188 -281.25 946
296.875 -257.812 920
398.438 -179.688 858
328.125 70.3125 901
-445.312 -210.938 755
-31.25 31.25 671
320.312 101.562 882
335.938 62.5 903
-281.25 -218.75 734
453.125 31.25 908
148.438 367.188 750
406.25 -171.875 858
46.875 31.25 742
-460.938 -453.125 3468
-54.6875 -187.5 727
257.812 218.75 817
335.938 54.6875 906
304.688 132.812 864
-445.312 -218.75 750
351.562 257.812 790
296.875 85.9375 819
-492.188 -101.562 880
398.438 -156.25 885
7.8125 -109.375 827
-281.25 -171.875 747
-54.6875 -296.875 803
414.062 -179.688 896
-78.125 -179.688 725
-70.3125 -351.562 871
296.875 125 871
-78.125 -320.312 790
-62.5 343.75 610
242.188 218.75 819
-257.812 -203.125 757
-85.9375 -375 849
101.562 343.75 599
-109.375 203.125 670
-78.125 335.938 614
-390.625 -203.125 728
-23.4375 375 604
0 -210.938 744
-101.562 -265.625 796
320.312 -250 913
-250 -414.062 829
164.062 351.562 757
179.688 320.312 771
-492.188 -437.5 2933
-460.938 -117.188 894
312.5 117.188 873
-187.5 -132.812 867
375 -109.375 811
-31.25 -187.5 734
-257.812 -453.125 843
-453.125 -125 898
343.75 54.6875 906
-226.562 -101.562 837
382.812 -125 821
460.938 406.25 711
125 445.312 716
-93.75 -375 845
0 62.5 675
132.812 429.688 722
257.812 445.312 707
367.188 -117.188 809
-234.375 -125 811
359.375 -85.9375 798
-273.438 -390.625 845
390.625 -140.625 837
-93.75 -218.75 785
328.125 85.9375 891
375 -132.812 823
-171.875 -218.75 755
-132.812 304.688 630
-390.625 -93.75 835
-101.562 -359.375 847
-265.625 -382.812 841
187.5 304.688 778
70.3125 109.375 701
-195.312 -273.438 882
-125 125 684
468.75 70.3125 882
343.75 -250 908
398.438 -54.6875 973
-101.562 -234.375 794
335.938 70.3125 898
421.875 -203.125 882
-398.438 -117.188 817
-78.125 -296.875 809
-109.375 62.5 710
-70.3125 85.9375 676
359.375 15.625 930
179.688 -281.25 951
-70.3125 62.5 688
164.062 382.812 742
-148.438 289.062 634
-117.188 148.438 671
-125 296.875 627
23.4375 375 587
-156.25 156.25 671
-421.875 -156.25 792
-109.375 132.812 679
-273.438 -343.75 860
210.938 15.625 736
-414.062 -148.438 798
-70.3125 -195.312 725
-265.625 -437.5 845
367.188 265.625 785
289.062 85.9375 811
406.25 -195.312 873
359.375 109.375 873
-445.312 -226.562 742
179.688 351.562 757
-7.8125 -203.125 741
390.625 -164.062 849
-468.75 -390.625 1458
265.625 179.688 839
-445.312 -390.625 1477
-320.312 -226.562 697
-164.062 -226.562 796
-273.438 -304.688 878
-117.188 117.188 680
-242.188 -437.5 829
203.125 281.25 790
289.062 140.625 860
117.188 421.875 725
-210.938 257.812 654
-31.25 -179.688 736
-62.5 -62.5 805
-281.25 -187.5 741
-156.25 -226.562 802
-109.375 -328.125 787
273.438 117.188 796
226.562 -281.25 943
-93.75 85.9375 676
-289.062 -187.5 734
484.375 101.562 778
39.0625 460.938 714
-179.688 171.875 687
101.562 437.5 720
-109.375 -312.5 789
-140.625 140.625 680
-203.125 -273.438 882
-93.75 164.062 687
-242.188 -273.438 998
-273.438 -421.875 847
117.188 453.125 711
351.562 -85.9375 798
-93.75 179.688 676
210.938 265.625 796
382.812 -437.5 2432
-265.625 -390.625 839
31.25 46.875 734
-7.8125 132.812 667
195.312 296.875 783
140.625 421.875 725
-148.438 304.688 661
-453.125 -242.188 736
-46.875 359.375 620
-382.812 -273.438 730
-117.188 171.875 650
203.125 85.9375 701
-187.5 -453.125 819
-164.062 -203.125 742
492.188 93.75 773
-125 85.9375 691
-164.062 273.438 638
-437.5 -203.125 759
492.188 343.75 731
343.75 -70.3125 787
-257.812 218.75 670
-289.062 -93.75 776
7.8125 -218.75 749
351.562 31.25 920
171.875 367.188 750
109.375 335.938 604
117.188 -320.312 992
-23.4375 148.438 663
218.75 289.062 783
390.625 -39.0625 962
-312.5 367.188 1365
289.062 -390.625 2639
382.812 -148.438 837
-93.75 54.6875 706
-234.375 -62.5 825
320.312 85.9375 891
390.625 -226.562 887
-335.938 -343.75 1365
257.812 93.75 696
281.25 70.3125 811
-203.125 250 649
-85.9375 -343.75 778
-250 -179.688 774
351.562 39.0625 918
359.375 -101.562 809
226.562 273.438 792
-101.562 -273.438 815
-85.9375 101.562 674
-320.312 -234.375 697
242.188 242.188 809
-289.062 -179.688 736
-117.188 187.5 650
-132.812 -265.625 790
-500 367.188 1688
-23.4375 351.562 600
367.188 -93.75 800
-492.188 -453.125 2958
-210.938 -343.75 829
-7.8125 117.188 672
468.75 -414.062 2365
320.312 101.562 882
-453.125 -250 736
-296.875 -210.938 720
-93.75 -343.75 778
-398.438 -109.375 823
-289.062 -125 757
250 234.375 813
-140.625 -421.875 821
-54.6875 -320.312 1013
-390.625 -273.438 731
265.625 93.75 798
414.062 -210.938 885
-93.75 312.5 618
484.375 125 790
367.188 -234.375 896
164.062 343.75 761
265.625 132.812 787
-265.625 -234.375 731
-312.5 -234.375 703
-421.875 -390.625 1458
304.688 132.812 864
328.125 85.9375 891
31.25 54.6875 731
-78.125 -328.125 887
-93.75 -382.812 843
-289.062 -226.562 727
257.812 195.312 833
15.625 -179.688 878
31.25 78.125 701
-328.125 -85.9375 803
-375 -234.375 707
-468.75 -109.375 889
226.562 -289.062 951
414.062 -351.562 2522
-101.562 195.312 672
195.312 312.5 774
-171.875 -406.25 817
281.25 117.188 823
-492.188 -187.5 946
382.812 -23.4375 954
-273.438 -234.375 731
-398.438 -187.5 749
-242.188 -156.25 789
-437.5 -210.938 752
-250 -320.312 858
343.75 -242.188 906
492.188 62.5 754
250 15.625 734
-273.438 218.75 674
101.562 -320.312 998
-70.3125 -265.625 823
210.938 304.688 778
140.625 382.812 742
257.812 218.75 817
-273.438 -39.0625 811
-281.25 -375 856
-70.3125 171.875 682
-382.812 -78.125 851
125 445.312 716
70.3125 390.625 584
250 -281.25 943
320.312 -85.9375 790
-453.125 -171.875 1013
-62.5 -375 862
453.125 -85.9375 992
-62.5 -195.312 727
-140.625 171.875 650
-406.25 -132.812 805
-351.562 -265.625 719
-23.4375 171.875 678
-78.125 -312.5 792
-164.062 -210.938 747
7.8125 367.188 592
492.188 -328.125 2349
7.8125 62.5 696
39.0625 398.438 587
312.5 117.188 873
-484.375 -359.375 1433
257.812 109.375 693
-148.438 -398.438 821
0 78.125 688
351.562 -62.5 843
-62.5 171.875 680
-179.688 -398.438 817
343.75 54.6875 906
210.938 -414.062 2744
-117.188 -398.438 831
359.375 23.4375 925
-54.6875 -328.125 908
-132.812 -320.312 781
54.6875 414.062 609
-148.438 -257.812 803
250 109.375 693
296.875 140.625 862
-265.625 -171.875 764
-140.625 -375 827
281.25 156.25 851
335.938 70.3125 898
218.75 -289.062 954
-39.0625 -343.75 1038
281.25 101.562 800
0 171.875 676
-367.188 -375 1404
-273.438 -414.062 847
-312.5 -78.125 805
-179.688 -390.625 819
-453.125 -382.812 1464
187.5 343.75 761
7.8125 382.812 594
250 -273.438 935
-39.0625 -78.125 813
148.438 406.25 734
367.188 7.8125 935
406.25 -164.062 906
-257.812 -406.25 833
-296.875 -179.688 730
312.5 -257.812 920
-70.3125 -179.688 725
242.188 250 802
-54.6875 -187.5 727
195.312 328.125 767
-445.312 -203.125 762
117.188 -437.5 2883
281.25 179.688 841
-15.625 132.812 666
-164.062 -242.188 794
437.5 140.625 845
-359.375 -148.438 762
93.75 460.938 711
-468.75 -117.188 891
-453.125 -125 898
312.5 101.562 885
-39.0625 -476.562 3010
-78.125 179.688 676
-171.875 -398.438 819
-421.875 -171.875 778
320.312 -257.812 918
125 -312.5 984
296.875 -257.812 920
-132.812 -421.875 825
-70.3125 -257.812 829
-62.5 -250 833
304.688 460.938 698
-468.75 -460.938 3300
101.562 445.312 666
-125 -164.062 727
210.938 273.438 792
-7.8125 179.688 674
-39.0625 421.875 736
-62.5 -335.938 887
-296.875 -171.875 731
289.062 164.062 847
-429.688 -281.25 747
171.875 343.75 761
-93.75 78.125 678
-257.812 -445.312 841
-257.812 -437.5 839
492.188 109.375 780
-226.562 -70.3125 827
406.25 -70.3125 940
-265.625 -234.375 733
218.75 273.438 792
-93.75 -226.562 789
-140.625 -265.625 800
0 125 700
-460.938 -226.562 746
7.8125 125 698
-70.3125 -453.125 854
304.688 78.125 835
-46.875 -179.688 725
398.438 -148.438 862
-226.562 398.438 762
-54.6875 171.875 680
-421.875 -179.688 774
281.25 171.875 843
218.75 -375 2835
-460.938 -132.812 903
-484.375 -101.562 885
343.75 46.875 910
-273.438 -226.562 730
-281.25 -179.688 741
-460.938 -140.625 984
-85.9375 62.5 703
-148.438 -250 798
164.062 382.812 742
343.75 -375 2618
320.312 -250 913
-117.188 179.688 648
39.0625 117.188 688
-7.8125 -210.938 736
-406.25 -265.625 727
0 132.812 666
156.25 359.375 754
375 -7.8125 943
265.625 203.125 829
304.688 132.812 864
117.188 437.5 719
273.438 187.5 837
15.625 453.125 717
250 234.375 813
-54.6875 109.375 675
-54.6875 -62.5 803
-85.9375 109.375 671
484.375 -101.562 2143
-250 -453.125 843
85.9375 375 587
-304.688 -242.188 701
109.375 453.125 714
-23.4375 359.375 599
-484.375 70.3125 767
-62.5 -445.312 864
101.562 453.125 711
-414.062 -210.938 741
414.062 -78.125 948
15.625 -234.375 752
218.75 257.812 800
-265.625 -328.125 873
54.6875 406.25 584
343.75 85.9375 889
-132.812 -273.438 792
-39.0625 351.562 602
-179.688 -328.125 835
-46.875 -429.688 878
320.312 -23.4375 757
-31.25 -359.375 896
-15.625 -195.312 734
-257.812 -210.938 752
0 -117.188 811
-140.625 -281.25 800
23.4375 390.625 586
39.0625 -343.75 1025
-70.3125 -281.25 811
-312.5 296.875 807
-265.625 -429.688 845
-101.562 -320.312 785
85.9375 -445.312 2908
-296.875 -210.938 714
-62.5 -226.562 841
-156.25 140.625 666
234.375 -281.25 946
-203.125 -265.625 894
-273.438 -414.062 858
39.0625 39.0625 739
-39.0625 367.188 614
-437.5 -210.938 755
234.375 265.625 796
-375 -257.812 714
-78.125 -460.938 849
-234.375 -62.5 825
234.375 234.375 813
-296.875 -156.25 734
-148.438 195.312 674
335.938 62.5 903
-93.75 328.125 618
335.938 -31.25 766
-250 -367.188 837
-62.5 62.5 688
414.062 -171.875 887
7.8125 62.5 694
250 195.312 790
-281.25 -164.062 739
250 210.938 781
-476.562 -101.562 882
-171.875 -179.688 752
351.562 -78.125 790
-343.75 -257.812 710
-109.375 78.125 687
-500 -406.25 2984
-85.9375 93.75 674
164.062 -304.688 978
-39.0625 93.75 682
-46.875 -406.25 864
-93.75 -250 796
148.438 -304.688 978
-281.25 -382.812 864
-132.812 -250 809
-210.938 -250 975
-39.0625 -382.812 882
156.25 398.438 736
54.6875 125 694
-62.5 -218.75 802
492.188 -70.3125 970
179.688 359.375 755
-101.562 -335.938 778
179.688 335.938 766
-101.562 -304.688 789
242.188 218.75 819
-140.625 156.25 655
-265.625 -375 847
-429.688 -390.625 1464
-109.375 109.375 676
-359.375 -203.125 719
406.25 -226.562 887
-148.438 -265.625 796
273.438 171.875 802
-62.5 125 674
-414.062 -390.625 1427
-140.625 -257.812 802
-265.625 -203.125 749
-78.125 -351.562 856
453.125 328.125 749
-367.188 -257.812 714
171.875 328.125 769
-500 -367.188 3010
304.688 125 871
406.25 -218.75 882
-187.5 -390.625 817
-23.4375 125 670
312.5 -390.625 2618
171.875 335.938 764
265.625 210.938 825
-492.188 -382.812 3037
-54.6875 -351.562 878
210.938 289.062 783
414.062 93.75 875
15.625 -242.188 755
195.312 203.125 652
328.125 -15.625 762
-390.625 -382.812 1427
281.25 54.6875 717
-234.375 -132.812 803
203.125 320.312 773
242.188 250 803
-296.875 -203.125 716
-54.6875 -171.875 727
-453.125 -250 734
164.062 359.375 754
-484.375 -109.375 885
-132.812 179.688 647
296.875 46.875 730
-218.75 -85.9375 835
125 445.312 716
39.0625 390.625 582
-210.938 -109.375 851
-250 -70.3125 811
-62.5 -304.688 805
-171.875 -164.062 752
-46.875 132.812 678
39.0625 31.25 741
265.625 85.9375 701
382.812 -140.625 827
484.375 109.375 780
-54.6875 -179.688 723
398.438 -46.875 970
-54.6875 -398.438 860
156.25 375 747
312.5 -164.062 845
273.438 -398.438 2680
-78.125 -398.438 843
-101.562 -281.25 790
296.875 148.438 856
203.125 187.5 657
-125 156.25 653
70.3125 398.438 582
187.5 328.125 769
171.875 351.562 757
289.062 46.875 723
398.438 -187.5 858
-109.375 210.938 664
-7.8125 375 596
132.812 -437.5 2835
117.188 460.938 710
-54.6875 343.75 606
390.625 -132.812 827
-15.625 343.75 603
7.8125 375 592
-500 -156.25 906
-226.562 -445.312 823
-421.875 -171.875 780
-273.438 -406.25 851
-132.812 -296.875 783
-460.938 226.562 860
210.938 304.688 778
-70.3125 -289.062 809
359.375 -93.75 800
132.812 414.062 730
273.438 70.3125 711
-78.125 -304.688 787
398.438 -179.688 851
187.5 312.5 776
-460.938 -195.312 962
-164.062 164.062 668
-203.125 -421.875 815
375 -125 815
-109.375 312.5 623
-85.9375 -187.5 723
328.125 -39.0625 764
-234.375 -70.3125 823
289.062 70.3125 713
-93.75 -445.312 835
210.938 281.25 789
281.25 70.3125 713
273.438 195.312 833
367.188 -109.375 807
367.188 -367.188 2579
-359.375 -117.188 796
343.75 -62.5 776
398.438 -171.875 849
-250 -39.0625 809
398.438 -359.375 2522
-93.75 171.875 684
406.25 -187.5 862
-250 -187.5 764
492.188 85.9375 766
15.625 -164.062 790
-195.312 -101.562 843
-250 -421.875 831
390.625 -156.25 839
-265.625 -218.75 742
-31.25 23.4375 674
375 -101.562 805
-406.25 -210.938 734
289.062 62.5 716
-398.438 -117.188 821
-460.938 -117.188 891
304.688 117.188 843
-406.25 -218.75 727
-164.062 -218.75 757
414.062 -203.125 871
-101.562 195.312 672
-46.875 -328.125 898
-23.4375 -70.3125 805
0 -203.125 739
-218.75 -78.125 833
296.875 93.75 817
-359.375 -250 708
-171.875 -351.562 827
-250 -351.562 841
-78.125 -328.125 781
-250 -453.125 843
-414.062 -289.062 750
445.312 -343.75 2503
-257.812 -210.938 752
31.25 62.5 703
-156.25 -257.812 794
39.0625 46.875 734
-375 -140.625 780
-226.562 -109.375 815
-171.875 -414.062 815
-125 -421.875 821
-23.4375 -187.5 731
-312.5 -62.5 823
-140.625 -398.438 819
-265.625 -429.688 845
273.438 85.9375 703
132.812 398.438 736
265.625 187.5 835
-421.875 -398.438 3238
-156.25 -234.375 792
382.812 -117.188 815
0 156.25 661
164.062 351.562 757
-125 164.062 650
-445.312 351.562 1705
31.25 -242.188 755
117.188 421.875 725
-421.875 -164.062 789
-93.75 -210.938 785
46.875 414.062 590
-203.125 -414.062 815
-46.875 156.25 688
-62.5 -179.688 722
-453.125 -164.062 1010
351.562 -54.6875 776
-31.25 109.375 682
-398.438 -265.625 725
-265.625 -367.188 847
328.125 93.75 885
296.875 132.812 864
234.375 265.625 796
398.438 -164.062 849
-7.8125 109.375 676
492.188 117.188 783
289.062 164.062 847
23.4375 -195.312 749
312.5 117.188 873
-101.562 -328.125 783
148.438 382.812 742
312.5 -7.8125 749
-23.4375 54.6875 666
-265.625 -304.688 889
-140.625 148.438 672
367.188 -85.9375 798
-226.562 -70.3125 827
312.5 125 869
-500 226.562 1594
242.188 -406.25 2701
-85.9375 171.875 682
-375 -218.75 714
-382.812 -218.75 717
-343.75 -265.625 716
343.75 62.5 903
-445.312 -234.375 738
-382.812 -281.25 736
-54.6875 62.5 676
250 226.562 817
281.25 78.125 711
0 62.5 672
390.625 -359.375 2541
335.938 78.125 896
-62.5 -382.812 854
414.062 -179.688 867
335.938 -46.875 769
281.25 179.688 839
-265.625 -234.375 733
-78.125 -320.312 792
-148.438 -234.375 802
-343.75 -257.812 710
-125 -289.062 785
-242.188 -46.875 813
296.875 -265.625 925
179.688 320.312 773
39.0625 54.6875 730
125 406.25 734
-70.3125 -335.938 827
156.25 359.375 754
-93.75 164.062 671
-382.812 -328.125 1343
-171.875 148.438 666
-140.625 -382.812 821
-437.5 -179.688 778
-15.625 156.25 662
46.875 398.438 581
-273.438 -265.625 717
265.625 117.188 785
-54.6875 -304.688 805
320.312 109.375 880
-265.625 -187.5 750
367.188 15.625 930
-70.3125 70.3125 686
234.375 250 802
289.062 148.438 854
-250 -406.25 831
414.062 70.3125 891
203.125 304.688 778
-46.875 -179.688 725
-62.5 -257.812 827
226.562 250 803
-85.9375 148.438 678
-210.938 250 654
453.125 70.3125 887
-101.562 -296.875 789
-289.062 -218.75 719
-453.125 265.625 1564
7.8125 -179.688 773
320.312 101.562 882
273.438 132.812 802
-62.5 140.625 675
289.062 93.75 805
7.8125 62.5 694
46.875 140.625 688
-367.188 -210.938 716
257.812 226.562 815
-468.75 -109.375 885
-148.438 -265.625 796
132.812 437.5 719
15.625 -226.562 750
-31.25 -367.188 889
320.312 -382.812 2598
-85.9375 164.062 686
-390.625 -257.812 719
-203.125 -257.812 975
0 109.375 690
-78.125 -203.125 725
164.062 437.5 716
-93.75 -242.188 794
-359.375 -156.25 759
-46.875 164.062 683
-453.125 -187.5 1028
156.25 -429.688 2812
-242.188 -367.188 833
226.562 281.25 789
-257.812 -195.312 759
125 414.062 728
390.625 -31.25 959
-54.6875 359.375 622
54.6875 39.0625 738
-242.188 -164.062 776
-273.438 -382.812 851
-148.438 -242.188 800
-70.3125 -304.688 787
210.938 273.438 790
-117.188 -304.688 781
148.438 375 747
-7.8125 164.062 682
23.4375 140.625 688
-296.875 -203.125 716
-257.812 -218.75 750
-492.188 -359.375 1421
-70.3125 -265.625 817
195.312 335.938 764
-70.3125 -296.875 789
-39.0625 148.438 667
-39.0625 343.75 603
-421.875 117.188 733
-70.3125 -273.438 815
-70.3125 -289.062 809
328.125 -31.25 764
179.688 328.125 769
429.688 -203.125 880
-15.625 -78.125 811
-85.9375 -375 841
-453.125 -437.5 3365
-257.812 -320.312 869
273.438 -265.625 928
-250 -429.688 833
-23.4375 148.438 663
-250 -375 835
-203.125 -398.438 817
468.75 -78.125 984
421.875 -421.875 2381
351.562 -78.125 790
31.25 54.6875 733
-62.5 -234.375 841
-54.6875 46.875 674
-117.188 62.5 704
265.625 210.938 825
-453.125 -445.312 3365
-265.625 -164.062 757
0 -203.125 739
-273.438 -406.25 851
7.8125 -101.562 823
164.062 367.188 749
-351.562 -195.312 722
-46.875 148.438 693
257.812 -398.438 2680
-453.125 93.75 750
-421.875 -148.438 792
7.8125 -210.938 742
-398.438 -257.812 720
-46.875 93.75 680
-109.375 164.062 653
218.75 265.625 796
0 -85.9375 813
-265.625 -226.562 738
-7.8125 -257.812 798
-437.5 -218.75 749
-171.875 -390.625 817
-257.812 -343.75 849
-62.5 -226.562 841
328.125 93.75 885
429.688 -250 2450
304.688 140.625 862
31.25 -203.125 750
-218.75 -85.9375 835
70.3125 117.188 696
335.938 78.125 896
281.25 93.75 798
437.5 -343.75 2503
-414.062 -156.25 792
-406.25 -140.625 802
343.75 -46.875 767
39.0625 -210.938 903
-125 -335.938 780
-226.562 -289.062 885
-273.438 -351.562 864
-164.062 -234.375 790
-343.75 -265.625 716
328.125 78.125 854
15.625 109.375 694
148.438 414.062 730
-70.3125 -453.125 854
15.625 -156.25 790
273.438 125 790
281.25 62.5 716
289.062 78.125 807
-70.3125 -62.5 805
-179.688 -359.375 825
-226.562 -375 825
320.312 109.375 880
-125 -273.438 789
-148.438 296.875 635
320.312 93.75 887
375 0 938
-23.4375 156.25 663
-382.812 -125 802
-468.75 -132.812 984
-265.625 -335.938 864
-250 -453.125 843
-23.4375 109.375 679
-187.5 -351.562 827
312.5 62.5 815
281.25 109.375 796
-250 -359.375 839
-125 -250 794
-265.625 -429.688 845
-93.75 179.688 678
-85.9375 179.688 676
171.875 375 747
-23.4375 -187.5 731
-23.4375 179.688 674
218.75 296.875 781
-93.75 117.188 674
-398.438 -187.5 752
-85.9375 -179.688 723
-85.9375 -195.312 723
7.8125 171.875 676
-312.5 -226.562 697
-445.312 -132.812 903
343.75 -39.0625 766
296.875 156.25 854
-148.438 -375 821
-273.438 -359.375 856
242.188 226.562 817
359.375 31.25 920
31.25 -218.75 755
-101.562 93.75 676
-70.3125 117.188 671
31.25 -226.562 754
-54.6875 -187.5 722
-70.3125 -281.25 811
359.375 23.4375 925
0 62.5 672
351.562 46.875 913
-179.688 -429.688 815
-195.312 -375 819
-54.6875 -445.312 869
-93.75 -429.688 833
-70.3125 -312.5 787
109.375 437.5 717
351.562 23.4375 889
-398.438 -382.812 1427
-257.812 -218.75 750
78.125 382.812 583
382.812 -15.625 951
-62.5 -343.75 873
7.8125 78.125 691
437.5 140.625 845
421.875 -85.9375 995
398.438 -148.438 862
-398.438 -273.438 730
265.625 -398.438 2680
-70.3125 85.9375 675
117.188 460.938 710
-250 -195.312 762
406.25 -156.25 867
-54.6875 335.938 607
-375 343.75 1489
406.25 -85.9375 948
-93.75 -359.375 776
-85.9375 -203.125 780
-234.375 -140.625 798
23.4375 54.6875 701
7.8125 39.0625 674
-101.562 -304.688 789
312.5 125 869
7.8125 -125 837
-453.125 234.375 854
406.25 -46.875 967
414.062 -171.875 887
-476.562 78.125 762
-125 -359.375 780
-39.0625 125 682
-23.4375 31.25 668
-281.25 367.188 794
-453.125 -421.875 3333
-281.25 -210.938 727
-78.125 85.9375 675
203.125 320.312 773
-492.188 62.5 774
390.625 -148.438 831
125 429.688 723
335.938 -23.4375 762
289.062 46.875 723
-250 -54.6875 815
-414.062 -390.625 1427
156.25 398.438 736
-93.75 187.5 674
-62.5 -242.188 837
-343.75 -367.188 1381
-31.25 31.25 670
265.625 101.562 706
-125 -265.625 790
-492.188 -85.9375 873
-31.25 78.125 671
-31.25 148.438 666
398.438 -140.625 867
320.312 -15.625 750
-460.938 -375 1445
-406.25 -210.938 734
-421.875 -250 723
-117.188 148.438 671
414.062 -218.75 882
-375 -62.5 841
406.25 -54.6875 973
164.062 351.562 757
-492.188 70.3125 774
-85.9375 -390.625 841
156.25 351.562 759
-78.125 -335.938 774
-476.562 -109.375 882
-390.625 -125 807
-39.0625 70.3125 672
382.812 -156.25 833
-429.688 -140.625 903
-93.75 132.812 674
-54.6875 -203.125 722
296.875 39.0625 731
-203.125 -406.25 815
7.8125 148.438 687
-62.5 -351.562 869
-289.062 -203.125 722
-132.812 140.625 679
289.062 171.875 843
-7.8125 -187.5 739
273.438 -273.438 933
62.5 39.0625 736
273.438 195.312 833
-70.3125 -187.5 723
148.438 390.625 739
296.875 54.6875 730
-328.125 -78.125 811
-234.375 -70.3125 823
203.125 289.062 783
-289.062 -218.75 719
-257.812 -437.5 841
-289.062 -78.125 792
-62.5 -218.75 802
281.25 164.062 847
101.562 453.125 711
289.062 109.375 803
15.625 78.125 694
273.438 78.125 711
-156.25 -195.312 738
-250 -304.688 875
31.25 46.875 734
453.125 148.438 841
-164.062 -171.875 746
-117.188 203.125 668
-62.5 -195.312 722
-109.375 109.375 676
-351.562 -250 708
250 242.188 807
15.625 -117.188 835
-257.812 -203.125 752
257.812 226.562 815
140.625 398.438 738
-273.438 -218.75 734
351.562 39.0625 918
-351.562 -273.438 720
-54.6875 -179.688 723
0 -195.312 742
304.688 85.9375 811
257.812 203.125 829
320.312 -195.312 869
-273.438 -414.062 858
414.062 -70.3125 981
-39.0625 156.25 687
328.125 -7.8125 750
304.688 140.625 862
367.188 7.8125 935
406.25 -179.688 854
-31.25 -351.562 898
-187.5 -390.625 817
312.5 109.375 880
-218.75 -78.125 833
210.938 312.5 773
195.312 304.688 778
-414.062 -156.25 792
304.688 70.3125 823
-234.375 -296.875 878
375 -117.188 815
140.625 390.625 739
-273.438 390.625 1433
421.875 -351.562 2503
-273.438 -390.625 851
-398.438 -125 813
-54.6875 -210.938 796
-171.875 156.25 667
-125 -218.75 794
273.438 93.75 701
-437.5 -359.375 1410
296.875 85.9375 811
-93.75 304.688 622
-492.188 265.625 1579
164.062 390.625 739
242.188 257.812 798
62.5 406.25 591
-289.062 -257.812 710
-500 -101.562 889
-382.812 -23.4375 811
468.75 85.9375 873
-320.312 -70.3125 817
-23.4375 125 670
429.688 125 856
-343.75 -148.438 759
234.375 125 682
421.875 -210.938 880
-39.0625 -335.938 1028
367.188 -101.562 805
-7.8125 117.188 672
-132.812 -375 823
-195.312 203.125 672
-125 312.5 629
304.688 125 871
210.938 281.25 789
-296.875 -195.312 719
429.688 -203.125 880
421.875 -23.4375 951
-179.688 -117.188 854
-156.25 -226.562 790
-437.5 109.375 744
46.875 54.6875 730
343.75 54.6875 908
-171.875 164.062 688
-70.3125 335.938 611
359.375 -218.75 885
195.312 296.875 781
296.875 -140.625 829
492.188 -117.188 2170
406.25 -164.062 882
421.875 -93.75 951
-382.812 -273.438 727
-273.438 -359.375 856
-101.562 -289.062 789
-78.125 335.938 614
-117.188 -250 790
195.312 335.938 764
296.875 156.25 854
-85.9375 -187.5 723
-39.0625 -179.688 728
375 -93.75 805
-234.375 -54.6875 817
-85.9375 -226.562 789
335.938 70.3125 901
-93.75 320.312 616
-195.312 -265.625 882
-492.188 -179.688 925
-70.3125 -304.688 787
-468.75 -218.75 987
-85.9375 78.125 678
406.25 -218.75 882
-156.25 -203.125 742
-132.812 171.875 648
-132.812 171.875 648
-312.5 -226.562 697
132.812 437.5 719
289.062 70.3125 713
-54.6875 -289.062 807
-382.812 -382.812 1410
414.062 -195.312 867
-148.438 -273.438 796
382.812 -132.812 827
-273.438 -367.188 854
-226.562 -117.188 815
-375 -132.812 792
7.8125 156.25 684
-101.562 -437.5 829
-46.875 -62.5 803
-78.125 171.875 682
382.812 -234.375 896
-62.5 -328.125 889
-101.562 -164.062 728
-234.375 -312.5 858
382.812 -109.375 813
-54.6875 148.438 680
-375 -273.438 728
-250 -195.312 762
-93.75 -273.438 809
429.688 -195.312 875
-398.438 -218.75 725
-242.188 -429.688 827
-132.812 -140.625 736
343.75 226.562 809
234.375 242.188 807
140.625 375 746
398.438 -164.062 849
-54.6875 -414.062 862
-414.062 -289.062 750
-203.125 -343.75 827
273.438 203.125 829
296.875 -390.625 2639
-273.438 -382.812 851
-484.375 210.938 873
210.938 -289.062 956
-242.188 -46.875 813
-78.125 93.75 672
351.562 54.6875 908
-492.188 -85.9375 873
-7.8125 179.688 675
-117.188 -273.438 789
195.312 320.312 773
-468.75 85.9375 759
-414.062 -164.062 783
-164.062 -406.25 817
-453.125 -453.125 3433
203.125 -296.875 962
210.938 296.875 781
-335.938 343.75 1317
-125 -171.875 727
-500 -78.125 864
296.875 140.625 860
-273.438 -390.625 851
289.062 171.875 843
-93.75 -304.688 794
-257.812 -437.5 841
-476.562 -437.5 3178
-250 -39.0625 809
367.188 -78.125 792
429.688 -93.75 1001
15.625 148.438 687
-62.5 -250 831
-445.312 -195.312 766
460.938 -195.312 2333
-93.75 -453.125 835
-70.3125 -289.062 809
117.188 429.688 722
46.875 390.625 581
31.25 460.938 716
-242.188 -382.812 829
-54.6875 -437.5 867
242.188 250 803
343.75 -31.25 766
-54.6875 54.6875 674
289.062 54.6875 717
382.812 -226.562 889
15.625 382.812 588
281.25 187.5 835
-39.0625 -351.562 898
164.062 390.625 739
398.438 -39.0625 962
-273.438 -398.438 849
140.625 429.688 722
-85.9375 -171.875 725
-460.938 85.9375 755
-78.125 -171.875 725
-492.188 -351.562 1410
-125 -296.875 783
-250 -445.312 837
328.125 101.562 882
-492.188 -93.75 875
343.75 -54.6875 774
15.625 -132.812 843
-85.9375 -203.125 780
-265.625 -343.75 856
0 62.5 672
-398.438 -265.625 725
-70.3125 -296.875 789
-406.25 -140.625 802
-234.375 -62.5 825
-70.3125 -320.312 792
-437.5 -132.812 903
-140.625 -257.812 802
7.8125 140.625 691
-148.438 -210.938 807
-382.812 -203.125 727
-195.312 273.438 655
7.8125 -257.812 766
78.125 460.938 664
-265.625 -421.875 843
-109.375 -398.438 827
210.938 312.5 773
-46.875 -320.312 1010
-453.125 -382.812 1458
335.938 -382.812 2598
31.25 -210.938 750
-257.812 -218.75 750
-85.9375 -218.75 785
171.875 343.75 759
320.312 117.188 871
-117.188 -328.125 780
39.0625 140.625 688
-234.375 -320.312 851
406.25 -62.5 978
125 453.125 711
62.5 39.0625 736
312.5 132.812 864
414.062 117.188 862
-242.188 -390.625 829
265.625 218.75 819
-70.3125 -171.875 725
195.312 -289.062 956
273.438 140.625 803
-101.562 -234.375 790
-257.812 -226.562 747
-54.6875 78.125 682
296.875 39.0625 731
359.375 -234.375 896
-62.5 -234.375 841
-445.312 -242.188 733
429.688 -242.188 2450
7.8125 164.062 678
390.625 -125 819
-304.688 -234.375 703
-421.875 -148.438 792
359.375 39.0625 918
-500 78.125 785
-117.188 -257.812 790
265.625 93.75 701
242.188 257.812 798
-23.4375 367.188 599
492.188 125 787
-250 -312.5 869
234.375 273.438 792
-421.875 -179.688 774
-109.375 -312.5 781
-273.438 -179.688 747
187.5 351.562 757
-375 -257.812 714
93.75 281.25 621
-62.5 -242.188 837
406.25 -148.438 901
-70.3125 -328.125 882
-62.5 -281.25 811
7.8125 132.812 694
-117.188 -445.312 827
101.562 -328.125 1004
-343.75 -257.812 710
187.5 320.312 773
-273.438 -382.812 851
54.6875 132.812 691
-453.125 -132.812 903
-31.25 -367.188 889
-148.438 -226.562 805
-164.062 -210.938 747
273.438 171.875 802
-101.562 203.125 668
54.6875 140.625 687
-500 -148.438 901
-62.5 -273.438 815
-117.188 -367.188 831
203.125 328.125 767
-328.125 375 1458
-156.25 -335.938 778
289.062 70.3125 713
-195.312 -335.938 829
-15.625 -453.125 3010
-484.375 70.3125 767
-164.062 -398.438 817
-265.625 -390.625 843
132.812 406.25 734
351.562 54.6875 908
-179.688 -367.188 821
179.688 367.188 750
-484.375 -93.75 875
-109.375 328.125 625
0 148.438 661
-101.562 195.312 672
335.938 -242.188 906
-125 -367.188 780
312.5 367.188 741
429.688 109.375 864
-234.375 -375 827
-148.438 -234.375 802
-273.438 -187.5 744
390.625 -23.4375 954
-429.688 109.375 739
-273.438 -390.625 851
-257.812 -156.25 769
-109.375 218.75 661
-93.75 -406.25 835
-250 -187.5 764
-93.75 -335.938 778
359.375 31.25 920
-226.562 -62.5 823
187.5 312.5 776
-171.875 -234.375 762
31.25 101.562 690
273.438 179.688 839
70.3125 460.938 666
31.25 390.625 584
-273.438 -375 851
-468.75 -125 984
-70.3125 -312.5 787
-289.062 -250 710
398.438 -156.25 854
-117.188 140.625 675
54.6875 421.875 602
242.188 -273.438 938
273.438 203.125 829
-101.562 62.5 707
31.25 54.6875 733
-117.188 -335.938 776
234.375 257.812 800
-429.688 -140.625 903
281.25 179.688 839
421.875 -78.125 987
-148.438 -195.312 736
320.312 101.562 882
156.25 406.25 733
-39.0625 -335.938 1028
-109.375 117.188 678
343.75 70.3125 898
-78.125 -62.5 805
-15.625 148.438 662
234.375 132.812 679
226.562 257.812 800
484.375 62.5 752
140.625 406.25 734
-132.812 -429.688 821
-429.688 -203.125 754
250 218.75 819
-15.625 -187.5 734
304.688 62.5 817
-453.125 -171.875 1010
-31.25 -343.75 1034
406.25 -171.875 854
15.625 -109.375 827
31.25 39.0625 738
7.8125 62.5 694
-70.3125 -218.75 841
-85.9375 -429.688 835
414.062 -164.062 891
-23.4375 140.625 663
187.5 -382.812 2835
-250 -203.125 754
-492.188 -101.562 875
-242.188 -406.25 827
-70.3125 -164.062 728
-460.938 -218.75 984
335.938 -15.625 762
15.625 117.188 700
-453.125 -289.062 1054
-179.688 -406.25 815
-390.625 -101.562 829
-117.188 164.062 650
46.875 46.875 733
-500 195.312 889
320.312 109.375 880
46.875 31.25 742
-187.5 281.25 650
-62.5 -312.5 805
-492.188 195.312 878
-265.625 -421.875 843
-421.875 289.062 1536
-273.438 -343.75 869
335.938 85.9375 889
484.375 -328.125 2349
382.812 -125 819
7.8125 -265.625 776
-414.062 296.875 1523
-54.6875 -234.375 839
-93.75 195.312 671
-62.5 -257.812 827
-117.188 62.5 704
-234.375 -54.6875 817
320.312 117.188 871
296.875 54.6875 730
226.562 289.062 785
-54.6875 -320.312 898
265.625 156.25 802
-125 -257.812 792
39.0625 62.5 730
-156.25 -250 794
289.062 -257.812 920
62.5 398.438 582
-54.6875 164.062 683
0 132.812 666
328.125 101.562 882
335.938 -39.0625 767
-382.812 -54.6875 835
367.188 23.4375 925
-484.375 -117.188 975
210.938 296.875 781
-320.312 -93.75 796
367.188 -117.188 811
-85.9375 179.688 676
382.812 -7.8125 943
-492.188 203.125 878
351.562 -46.875 767
-226.562 375 766
140.625 429.688 722
312.5 132.812 864
-242.188 -453.125 835
-93.75 -289.062 803
148.438 414.062 730
375 7.8125 935
-109.375 -367.188 833
-296.875 -242.188 706
-234.375 -148.438 798
-171.875 171.875 687
187.5 -289.062 959
-421.875 -281.25 742
62.5 46.875 731
-453.125 -156.25 1013
-453.125 -148.438 995
-437.5 -132.812 903
289.062 117.188 813
-351.562 -203.125 714
-54.6875 343.75 606
171.875 359.375 754
156.25 382.812 742
-46.875 -179.688 725
312.5 62.5 815
281.25 70.3125 713
-281.25 -93.75 776
156.25 367.188 749
7.8125 -195.312 746
296.875 101.562 823
-54.6875 -343.75 882
281.25 117.188 796
-78.125 -203.125 725
429.688 -343.75 2503
-85.9375 -445.312 841
-242.188 -343.75 841
-414.062 -164.062 783
-54.6875 -453.125 875
164.062 234.375 636
289.062 54.6875 717
367.188 -93.75 805
-46.875 109.375 678
390.625 -140.625 831
304.688 46.875 730
7.8125 171.875 676
-265.625 -195.312 750
-62.5 125 674
-398.438 281.25 1543
-382.812 -78.125 849
-398.438 -257.812 720
-171.875 -218.75 755
281.25 85.9375 703
-289.062 -171.875 730
-257.812 -226.562 747
210.938 281.25 789
-375 -54.6875 835
39.0625 382.812 583
-257.812 -390.625 837
-70.3125 -343.75 869
-406.25 -390.625 1410
296.875 164.062 849
421.875 398.438 719
-484.375 -148.438 906
-109.375 187.5 649
312.5 70.3125 854
-101.562 148.438 671
-484.375 -421.875 3149
-109.375 179.688 650
375 -93.75 805
203.125 179.688 661
304.688 148.438 856
-500 54.6875 776
296.875 46.875 730
257.812 218.75 819
-93.75 -156.25 730
-93.75 -437.5 835
-140.625 -351.562 780
-70.3125 -460.938 862
85.9375 375 587
-109.375 304.688 623
375 -109.375 813
-421.875 -296.875 750
351.562 46.875 913
23.4375 -234.375 754
-125 117.188 686
-343.75 -328.125 1343
-257.812 -437.5 841
-476.562 -398.438 3208
-406.25 -148.438 796
390.625 -210.938 873
281.25 78.125 711
-289.062 -210.938 720
-70.3125 -171.875 725
-195.312 -414.062 815
-195.312 -406.25 815
445.312 125 854
375 -367.188 2560
289.062 156.25 851
257.812 234.375 811
-414.062 -156.25 792
218.75 265.625 796
148.438 382.812 742
62.5 414.062 603
7.8125 62.5 694
242.188 234.375 813
-484.375 281.25 1757
289.062 179.688 839
46.875 101.562 686
265.625 195.312 833
-70.3125 -304.688 787
250 250 803
-46.875 -203.125 722
-226.562 -125 805
-109.375 -304.688 783
-500 -78.125 864
-70.3125 328.125 612
15.625 132.812 694
296.875 93.75 817
-453.125 -125 896
-109.375 -281.25 787
484.375 -351.562 2317
-62.5 -265.625 819
304.688 125 871
328.125 85.9375 891
-437.5 -226.562 739
-117.188 -281.25 787
-445.312 -414.062 3300
343.75 -62.5 776
296.875 62.5 817
265.625 85.9375 701
484.375 -70.3125 975
-445.312 -125 896
0 93.75 688
367.188 -375 2579
468.75 -335.938 2450
218.75 304.688 778
351.562 -39.0625 766
-140.625 -273.438 800
-164.062 -218.75 757
-109.375 -414.062 827
195.312 125 683
250 242.188 807
85.9375 351.562 593
-203.125 242.188 655
351.562 -156.25 837
-78.125 62.5 690
-273.438 -335.938 880
-226.562 -62.5 823
-382.812 -101.562 825
-54.6875 101.562 675
-390.625 -109.375 823
-242.188 -367.188 833
281.25 62.5 716
257.812 210.938 823
218.75 273.438 792
-117.188 -273.438 789
226.562 7.8125 741
226.562 273.438 792
234.375 273.438 792
-117.188 -281.25 787
-351.562 -273.438 720
-101.562 -398.438 831
-140.625 -250 803
-312.5 -70.3125 813
203.125 328.125 767
-476.562 -117.188 981
-85.9375 -234.375 790
273.438 101.562 706
-265.625 -210.938 747
429.688 -195.312 875
-140.625 -234.375 811
-39.0625 -375 887
-132.812 132.812 679
-140.625 -242.188 805
328.125 -23.4375 762
-218.75 -70.3125 827
-54.6875 -250 829
187.5 320.312 773
320.312 101.562 882
-15.625 -70.3125 805
-62.5 -171.875 725
-351.562 359.375 1470
-101.562 187.5 675
-164.062 -390.625 817
125 421.875 727
-117.188 85.9375 686
-132.812 171.875 648
-109.375 203.125 670
-171.875 -398.438 817
312.5 117.188 873
31.25 140.625 688
-179.688 -351.562 827
-23.4375 -359.375 1054
23.4375 367.188 591
-390.625 140.625 723
-273.438 -195.312 741
-93.75 -148.438 755
-46.875 132.812 678
-289.062 -250 710
31.25 382.812 585
343.75 62.5 903
-242.188 -375 831
-54.6875 -195.312 722
-31.25 70.3125 670
375 273.438 781
23.4375 -171.875 871
265.625 218.75 819
-15.625 -187.5 734
-156.25 -242.188 796
-281.25 -351.562 869
-257.812 -234.375 733
414.062 -117.188 938
-31.25 -343.75 1034
-31.25 367.188 611
-187.5 -312.5 845
-265.625 -414.062 843
-148.438 -257.812 796
-31.25 -179.688 731
218.75 -414.062 2744
304.688 78.125 835
-437.5 -132.812 903
93.75 429.688 623
-375 -70.3125 845
132.812 445.312 714
351.562 -62.5 776
-117.188 125 682
-156.25 164.062 668
-492.188 -351.562 1410
273.438 85.9375 703
-140.625 -265.625 800
-85.9375 -359.375 847
70.3125 125 691
-429.688 -125 894
-23.4375 23.4375 670
-85.9375 -164.062 728
-93.75 101.562 674
-101.562 -296.875 789
-39.0625 164.062 683
-15.625 125 668
-414.062 -171.875 774
-39.0625 -406.25 882
453.125 -156.25 2256
359.375 -54.6875 776
-39.0625 156.25 687
54.6875 31.25 742
375 250 794
-390.625 -382.812 1427
406.25 -171.875 854
304.688 93.75 835
93.75 437.5 714
23.4375 101.562 693
398.438 -132.812 889
203.125 312.5 774
281.25 195.312 831
382.812 -359.375 2560
-54.6875 -382.812 864
195.312 343.75 761
164.062 -304.688 978
39.0625 -234.375 920
-453.125 -460.938 3468
226.562 289.062 785
-453.125 -117.188 891
-500 257.812 1616
-437.5 -390.625 1464
-296.875 -117.188 761
359.375 -234.375 896
-62.5 -164.062 730
414.062 -62.5 978
156.25 406.25 733
-195.312 -398.438 817
-109.375 -445.312 829
-367.188 -62.5 839
-468.75 -445.312 3208
-304.688 -234.375 703
148.438 421.875 725
-54.6875 -257.812 825
-117.188 -312.5 781
-460.938 -445.312 3208
296.875 140.625 860
289.062 179.688 839
-140.625 -312.5 785
-109.375 156.25 668
445.312 398.438 716
-39.0625 359.375 607
-468.75 250 1586
398.438 -156.25 854
-85.9375 -171.875 725
335.938 85.9375 889
-31.25 -171.875 734
-257.812 -375 839
-132.812 -375 823
46.875 39.0625 739
-31.25 148.438 666
-39.0625 -328.125 1019
429.688 132.812 851
-93.75 -171.875 727
296.875 164.062 849
-250 -203.125 752
-70.3125 -328.125 776
23.4375 -242.188 755
320.312 117.188 875
-78.125 -171.875 722
437.5 140.625 849
281.25 171.875 811
-101.562 70.3125 704
-62.5 171.875 682
-484.375 -101.562 875
-281.25 -125 752
23.4375 -226.562 749
-445.312 -125 896
78.125 117.188 698
218.75 -281.25 951
-195.312 -343.75 825
62.5 445.312 627
-250 -445.312 845
234.375 250 803
-242.188 -453.125 841
-70.3125 -171.875 722
-265.625 -265.625 716
343.75 70.3125 901
429.688 -187.5 880
-335.938 -140.625 761
187.5 335.938 764
-62.5 335.938 610
7.8125 -203.125 738
15.625 -257.812 769
414.062 -351.562 2522
335.938 -242.188 908
-343.75 -265.625 716
-359.375 -210.938 714
406.25 -148.438 839
-390.625 -257.812 719
273.438 210.938 827
7.8125 125 700
-125 187.5 646
351.562 62.5 906
179.688 335.938 766
15.625 -210.938 741
-195.312 -273.438 880
-31.25 125 680
171.875 382.812 742
460.938 -335.938 2485
-132.812 -164.062 736
-250 -210.938 747
-164.062 -226.562 764
0 375 592
242.188 140.625 679
-140.625 -187.5 733
-398.438 -265.625 727
-382.812 -273.438 728
-54.6875 -226.562 839
140.625 398.438 736
250 250 803
15.625 70.3125 691
-101.562 320.312 620
-132.812 -382.812 819
-140.625 195.312 675
-179.688 -296.875 858
-242.188 -179.688 767
-468.75 -85.9375 871
375 -85.9375 802
-468.75 -367.188 1433
-15.625 140.625 662
-460.938 226.562 858
-62.5 -281.25 809
-7.8125 140.625 662
0 187.5 671
-265.625 -179.688 747
-500 70.3125 776
-78.125 101.562 671
-187.5 273.438 644
312.5 78.125 815
-320.312 359.375 1328
-265.625 -304.688 885
-70.3125 171.875 682
117.188 445.312 717
-93.75 156.25 670
-132.812 226.562 659
265.625 210.938 827
218.75 304.688 780
-382.812 -382.812 1427
-85.9375 70.3125 700
7.8125 62.5 670
304.688 132.812 867
-85.9375 -453.125 835
-257.812 -234.375 730
289.062 109.375 796
382.812 -125 819
164.062 375 749
-468.75 -203.125 964
273.438 148.438 780
-375 -257.812 716
-54.6875 -218.75 802
-54.6875 -218.75 802
-54.6875 148.438 674
390.625 -15.625 948
406.25 -46.875 970
-226.562 -453.125 827
-117.188 -54.6875 805
-453.125 -140.625 987
-335.938 -257.812 708
-429.688 -140.625 906
296.875 109.375 802
-257.812 -328.125 867
195.312 -289.062 959
171.875 343.75 762
-132.812 -398.438 817
-117.188 210.938 667
-39.0625 -296.875 803
445.312 148.438 845
70.3125 453.125 638
-265.625 -406.25 849
-265.625 -343.75 858
15.625 -140.625 798
289.062 78.125 711
-195.312 -390.625 817
375 -109.375 809
-148.438 -257.812 794
335.938 -31.25 762
304.688 31.25 731
62.5 125 696
-93.75 195.312 671
-218.75 -101.562 819
-445.312 -390.625 1464
-500 62.5 776
-382.812 -93.75 833
-281.25 -117.188 757
-15.625 -226.562 829
242.188 265.625 796
-70.3125 85.9375 675
250 132.812 682
257.812 132.812 682
-117.188 -421.875 819
-46.875 171.875 682
-54.6875 -179.688 722
-226.562 -414.062 821
46.875 390.625 581
265.625 101.562 694
-218.75 -414.062 817
421.875 -70.3125 984
-15.625 101.562 682
-460.938 -140.625 987
-62.5 -273.438 813
-39.0625 -140.625 759
359.375 46.875 913
