ply
format ascii 1.0
comment Created by Open3D
element vertex 2405
property double x
property double y
property double z
end_header
484.375 62.5 1477
203.125 125 923
-93.75 296.875 975
476.562 -39.0625 858
187.5 39.0625 829
453.125 -242.188 813
-437.5 -210.938 2859
-132.812 375 1047
93.75 -156.25 928
62.5 304.688 1169
93.75 -148.438 928
335.938 234.375 1181
257.812 179.688 995
148.438 242.188 1001
210.938 -78.125 835
85.9375 296.875 1173
484.375 -242.188 807
250 -101.562 831
39.0625 -117.188 951
125 226.562 987
-296.875 171.875 792
-492.188 -445.312 2040
132.812 -382.812 3120
0 -203.125 967
296.875 -164.062 829
-226.562 -304.688 2984
273.438 -242.188 817
-304.688 164.062 796
15.625 -359.375 3037
250 359.375 1333
-62.5 296.875 978
-171.875 320.312 975
335.938 -125 827
85.9375 -289.062 1004
-46.875 -296.875 938
-132.812 179.688 809
250 -54.6875 831
257.812 -54.6875 833
312.5 -343.75 948
203.125 140.625 935
382.812 -125 910
93.75 289.062 1173
-117.188 234.375 913
31.25 -195.312 959
343.75 218.75 1153
101.562 -132.812 930
375 109.375 975
406.25 -7.8125 845
7.8125 -171.875 970
101.562 171.875 925
-312.5 -281.25 2933
132.812 218.75 984
-281.25 179.688 790
85.9375 257.812 1001
343.75 -132.812 829
335.938 -320.312 915
328.125 -328.125 930
421.875 -210.938 800
179.688 -148.438 887
-46.875 406.25 1123
218.75 117.188 920
289.062 -257.812 829
-164.062 -328.125 3010
-46.875 328.125 1177
70.3125 265.625 989
281.25 -31.25 878
195.312 257.812 1181
140.625 398.438 1312
351.562 265.625 1185
78.125 -281.25 1004
-62.5 351.562 1041
62.5 265.625 989
-93.75 -335.938 3037
-203.125 226.562 882
421.875 7.8125 854
351.562 -304.688 894
304.688 -351.562 962
351.562 179.688 1019
367.188 -289.062 875
406.25 -93.75 885
-460.938 -351.562 2659
164.062 164.062 940
453.125 -406.25 854
23.4375 304.688 1185
187.5 -351.562 1214
-382.812 -265.625 2883
375 -15.625 847
203.125 117.188 918
343.75 -7.8125 847
273.438 -265.625 827
-62.5 382.812 1087
195.312 -46.875 862
382.812 171.875 1031
101.562 445.312 1283
-54.6875 390.625 1087
-7.8125 -257.812 903
140.625 218.75 984
140.625 250 998
429.688 -15.625 847
78.125 -117.188 928
484.375 70.3125 1458
210.938 -250 823
-85.9375 132.812 803
164.062 273.438 1181
351.562 -140.625 837
-382.812 -226.562 2958
78.125 234.375 978
-54.6875 304.688 981
-54.6875 335.938 1149
132.812 250 998
117.188 78.125 817
265.625 -171.875 807
171.875 -101.562 896
273.438 -273.438 835
62.5 273.438 989
218.75 -7.8125 862
203.125 -242.188 819
179.688 265.625 1185
460.938 -398.438 862
54.6875 78.125 817
375 -226.562 869
-78.125 296.875 975
250 -242.188 807
257.812 359.375 1328
-78.125 328.125 1010
-257.812 304.688 1757
179.688 -195.312 851
31.25 312.5 1169
-234.375 148.438 802
15.625 -226.562 925
0 109.375 811
-406.25 320.312 1748
304.688 0 849
-148.438 343.75 1001
15.625 -179.688 967
226.562 -250 827
195.312 -78.125 845
-15.625 265.625 975
218.75 46.875 827
210.938 140.625 938
320.312 328.125 1302
218.75 132.812 933
289.062 226.562 1197
148.438 273.438 1202
125 250 998
437.5 296.875 1349
320.312 -187.5 845
-15.625 289.062 995
117.188 54.6875 827
-93.75 281.25 964
-390.625 179.688 1993
-85.9375 304.688 978
-164.062 132.812 805
359.375 304.688 1236
484.375 -46.875 864
-54.6875 125 805
-171.875 296.875 951
-70.3125 320.312 1004
453.125 -359.375 880
273.438 179.688 1004
312.5 218.75 1189
187.5 -234.375 805
-23.4375 -312.5 956
0 -250 901
-78.125 281.25 967
164.062 234.375 1007
70.3125 179.688 918
414.062 62.5 946
218.75 -335.938 1134
15.625 312.5 1165
-117.188 140.625 803
-328.125 312.5 1748
39.0625 250 978
156.25 -234.375 803
375 101.562 967
-62.5 -203.125 1105
-460.938 -335.938 2680
468.75 70.3125 1543
359.375 -132.812 843
-117.188 242.188 920
171.875 -234.375 803
320.312 -164.062 825
406.25 -375 913
406.25 187.5 1206
70.3125 242.188 981
203.125 -218.75 796
148.438 218.75 987
-31.25 289.062 989
265.625 234.375 1223
289.062 218.75 1223
187.5 226.562 1004
7.8125 312.5 1193
85.9375 -257.812 998
320.312 312.5 1302
31.25 -148.438 940
187.5 -265.625 959
203.125 39.0625 831
-101.562 289.062 964
226.562 195.312 998
359.375 -140.625 843
117.188 281.25 1206
39.0625 117.188 815
101.562 234.375 987
265.625 -62.5 837
62.5 -250 864
210.938 375 1328
-335.938 -281.25 2908
390.625 -351.562 943
390.625 -265.625 845
-62.5 328.125 1022
437.5 -242.188 813
-109.375 117.188 811
351.562 -117.188 835
304.688 164.062 1001
289.062 -15.625 862
-54.6875 117.188 807
265.625 15.625 843
390.625 117.188 989
-46.875 296.875 978
-54.6875 375 1080
93.75 265.625 998
-132.812 187.5 871
23.4375 -132.812 948
46.875 78.125 819
-78.125 109.375 813
93.75 414.062 1307
-54.6875 367.188 1057
-273.438 187.5 792
-414.062 -257.812 2883
265.625 -257.812 821
-140.625 164.062 805
265.625 -125 819
-54.6875 382.812 1090
54.6875 156.25 898
31.25 273.438 989
335.938 257.812 1206
171.875 -85.9375 862
31.25 281.25 989
-62.5 343.75 1038
218.75 -242.188 821
-15.625 -335.938 1307
359.375 -296.875 885
-453.125 -171.875 2170
210.938 250 1202
320.312 335.938 1317
-117.188 234.375 913
93.75 -132.812 928
289.062 -367.188 989
93.75 429.688 1288
382.812 -101.562 920
421.875 -218.75 800
-125 203.125 887
-406.25 218.75 1915
-7.8125 312.5 1193
234.375 -250 825
-179.688 328.125 1705
-187.5 -62.5 970
-164.062 -320.312 3010
-328.125 -281.25 2908
-39.0625 289.062 987
-148.438 148.438 802
234.375 -218.75 800
320.312 250 1189
-250 171.875 794
0 312.5 1193
-203.125 296.875 1757
390.625 125 998
-382.812 179.688 1993
359.375 -125 843
312.5 203.125 1227
210.938 -226.562 796
320.312 164.062 1007
375 148.438 1016
148.438 -15.625 878
242.188 242.188 1197
39.0625 273.438 970
335.938 -132.812 825
-203.125 351.562 1680
109.375 281.25 1202
234.375 -296.875 908
250 351.562 1338
195.312 -195.312 796
312.5 351.562 1328
-437.5 -273.438 2789
93.75 171.875 920
328.125 289.062 1245
62.5 296.875 1193
226.562 46.875 831
328.125 -218.75 862
375 -132.812 854
304.688 -62.5 835
242.188 46.875 831
445.312 117.188 1464
156.25 -429.688 1232
171.875 -78.125 860
125 -382.812 3120
398.438 70.3125 951
-265.625 304.688 1757
343.75 -187.5 849
187.5 382.812 1317
382.812 179.688 1080
46.875 -195.312 913
-414.062 296.875 1785
-195.312 343.75 1688
54.6875 296.875 1189
492.188 -382.812 882
320.312 -179.688 837
7.8125 -156.25 978
210.938 203.125 1001
375 -281.25 864
125 164.062 928
0 320.312 1161
179.688 257.812 1206
-39.0625 265.625 967
7.8125 -171.875 970
195.312 257.812 1181
109.375 250 1001
-70.3125 273.438 962
-46.875 -304.688 1264
-281.25 414.062 1601
156.25 265.625 1202
-62.5 125 805
7.8125 289.062 995
265.625 -156.25 813
-257.812 398.438 1624
-210.938 359.375 1671
171.875 62.5 823
148.438 70.3125 821
117.188 171.875 930
-132.812 195.312 878
156.25 218.75 989
195.312 203.125 989
148.438 62.5 821
85.9375 265.625 1001
304.688 226.562 1197
62.5 164.062 908
328.125 15.625 839
242.188 414.062 1292
85.9375 -171.875 935
234.375 210.938 1016
15.625 320.312 1165
218.75 -421.875 1094
359.375 156.25 1013
210.938 31.25 835
-148.438 156.25 802
304.688 437.5 1452
375 164.062 1025
-140.625 179.688 809
70.3125 437.5 1288
-78.125 343.75 1031
359.375 -164.062 845
-101.562 445.312 1145
382.812 171.875 1031
273.438 210.938 1223
359.375 -171.875 847
351.562 -203.125 856
-414.062 304.688 1776
281.25 171.875 998
218.75 -85.9375 833
156.25 46.875 827
-46.875 398.438 1119
226.562 125 930
250 -328.125 891
289.062 -117.188 815
250 -78.125 829
-406.25 210.938 1936
39.0625 -156.25 925
93.75 234.375 981
421.875 -429.688 862
-46.875 406.25 1123
-414.062 312.5 1766
343.75 -132.812 829
-281.25 179.688 790
187.5 -226.562 796
54.6875 265.625 984
273.438 -54.6875 837
460.938 -62.5 882
15.625 -140.625 948
54.6875 437.5 1288
-406.25 234.375 1894
492.188 -85.9375 882
-62.5 367.188 1057
-109.375 257.812 935
-414.062 320.312 1757
171.875 -93.75 896
-445.312 -281.25 2767
218.75 226.562 1214
0 281.25 989
-7.8125 257.812 970
101.562 281.25 1197
78.125 70.3125 823
265.625 210.938 1019
-273.438 179.688 790
-171.875 320.312 975
210.938 -140.625 841
296.875 -132.812 815
-117.188 226.562 906
250 -93.75 831
-429.688 -23.4375 2432
-46.875 343.75 1149
421.875 -31.25 856
-39.0625 140.625 811
85.9375 437.5 1288
320.312 -234.375 831
85.9375 257.812 1001
140.625 242.188 1004
-187.5 335.938 1696
-156.25 -320.312 3010
250 39.0625 833
-492.188 -429.688 2053
-257.812 -296.875 2984
234.375 -226.562 800
-218.75 367.188 1663
148.438 437.5 1292
140.625 -281.25 987
195.312 -78.125 845
492.188 -250 805
78.125 289.062 1197
31.25 -125 951
-78.125 312.5 987
226.562 -62.5 833
-54.6875 382.812 1090
101.562 437.5 1278
-23.4375 289.062 992
132.812 273.438 1202
179.688 242.188 1210
351.562 367.188 1317
39.0625 312.5 1169
31.25 -195.312 959
312.5 -7.8125 854
125 296.875 1173
242.188 54.6875 831
46.875 296.875 1197
289.062 -39.0625 882
39.0625 429.688 1297
-117.188 414.062 1105
390.625 -117.188 898
15.625 281.25 995
-187.5 265.625 915
265.625 -23.4375 871
273.438 -250 817
140.625 250 998
281.25 -31.25 878
-406.25 296.875 1785
257.812 -62.5 831
304.688 -70.3125 829
281.25 414.062 1483
312.5 31.25 839
164.062 414.062 1292
-85.9375 31.25 869
171.875 156.25 938
-85.9375 281.25 964
-54.6875 296.875 981
257.812 -85.9375 831
171.875 210.938 987
390.625 -23.4375 856
312.5 -101.562 821
195.312 54.6875 823
312.5 187.5 1025
257.812 -46.875 835
218.75 -93.75 835
-132.812 203.125 885
171.875 -226.562 798
-132.812 -320.312 1288
335.938 -109.375 829
421.875 -195.312 805
359.375 -132.812 843
187.5 -187.5 860
117.188 257.812 1004
390.625 15.625 847
335.938 250 1197
218.75 250 1214
203.125 250 1202
234.375 -109.375 835
367.188 -289.062 875
437.5 156.25 1483
101.562 226.562 978
335.938 -320.312 915
-62.5 351.562 1041
-125 210.938 894
171.875 -367.188 1241
-109.375 429.688 1126
460.938 -414.062 851
-93.75 289.062 967
343.75 210.938 1153
-460.938 -320.312 2680
234.375 23.4375 839
7.8125 -148.438 948
187.5 226.562 1004
328.125 281.25 1241
-171.875 132.812 807
-117.188 234.375 913
-164.062 312.5 970
179.688 -437.5 1153
328.125 234.375 1197
351.562 -304.688 894
257.812 203.125 1019
-54.6875 414.062 1126
164.062 242.188 1007
132.812 242.188 998
453.125 -414.062 849
171.875 234.375 1004
226.562 140.625 928
-242.188 148.438 802
85.9375 85.9375 815
-210.938 140.625 805
-46.875 273.438 970
54.6875 164.062 906
23.4375 304.688 1185
-54.6875 398.438 1105
46.875 242.188 970
304.688 -210.938 813
179.688 203.125 987
-39.0625 320.312 1177
492.188 -54.6875 864
-132.812 187.5 871
296.875 -296.875 856
320.312 -203.125 807
-15.625 93.75 819
-7.8125 312.5 1193
179.688 -242.188 805
-273.438 156.25 800
-125 218.75 896
-23.4375 320.312 1161
-195.312 250 898
70.3125 421.875 1302
156.25 210.938 984
359.375 -148.438 843
351.562 171.875 1022
-460.938 -187.5 2129
257.812 -390.625 1031
375 93.75 959
-242.188 171.875 796
-23.4375 328.125 1161
-62.5 328.125 1022
-62.5 390.625 1087
437.5 -210.938 792
328.125 210.938 1197
351.562 179.688 1019
320.312 -335.938 938
-437.5 -257.812 2767
-289.062 179.688 789
179.688 148.438 933
-62.5 359.375 1047
148.438 242.188 1001
-226.562 -312.5 2984
39.0625 421.875 1302
398.438 31.25 915
203.125 -390.625 1130
359.375 -140.625 843
156.25 156.25 935
164.062 -367.188 1264
421.875 -156.25 823
468.75 -101.562 860
210.938 -429.688 1108
-492.188 -203.125 2103
203.125 -273.438 943
-132.812 117.188 813
-140.625 179.688 809
382.812 -273.438 856
429.688 140.625 1489
234.375 -39.0625 843
414.062 109.375 987
-406.25 218.75 1915
250 242.188 1193
273.438 -7.8125 860
39.0625 -93.75 962
398.438 -101.562 891
281.25 -203.125 807
492.188 312.5 1338
-78.125 312.5 987
445.312 -93.75 856
187.5 203.125 989
-125 226.562 906
-46.875 140.625 811
164.062 -125 898
-7.8125 -257.812 903
-414.062 289.062 1804
242.188 -320.312 891
273.438 -257.812 821
187.5 265.625 1181
375 265.625 1245
257.812 242.188 1189
93.75 -156.25 928
-54.6875 328.125 1181
359.375 -132.812 843
-46.875 421.875 1145
-164.062 -320.312 3010
-179.688 328.125 1705
179.688 226.562 1004
242.188 -46.875 835
140.625 273.438 1202
406.25 -93.75 885
-148.438 156.25 802
187.5 148.438 935
250 -93.75 831
414.062 187.5 1477
156.25 265.625 1202
484.375 -101.562 867
-289.062 -289.062 2933
-70.3125 343.75 1038
-484.375 -421.875 2522
328.125 226.562 1202
476.562 -250 819
273.438 226.562 1219
343.75 351.562 1317
250 203.125 1013
-484.375 -429.688 2503
-242.188 -328.125 2933
-117.188 179.688 871
-273.438 -289.062 2958
257.812 203.125 1019
250 -117.188 829
-39.0625 437.5 1173
273.438 31.25 835
398.438 78.125 956
390.625 335.938 1317
70.3125 -117.188 928
0 -242.188 925
23.4375 281.25 989
171.875 -70.3125 860
242.188 -312.5 894
289.062 320.312 1359
-218.75 195.312 802
390.625 7.8125 845
421.875 -117.188 845
226.562 -242.188 823
242.188 -250 809
156.25 -437.5 1219
-70.3125 375 1067
335.938 320.312 1259
-7.8125 281.25 989
390.625 -375 975
-453.125 -320.312 2680
179.688 -117.188 891
109.375 250 1001
242.188 -15.625 867
296.875 -320.312 964
109.375 445.312 1283
234.375 210.938 1016
-62.5 296.875 978
-406.25 203.125 1947
-351.562 312.5 1748
-23.4375 281.25 987
195.312 203.125 989
-15.625 312.5 1181
351.562 -195.312 858
476.562 140.625 1433
265.625 -171.875 807
296.875 7.8125 843
62.5 421.875 1307
257.812 312.5 1381
359.375 -125 843
359.375 148.438 1004
-179.688 359.375 1663
164.062 -359.375 1288
257.812 234.375 1223
281.25 -281.25 843
296.875 -203.125 813
250 -265.625 839
-203.125 234.375 887
-132.812 195.312 878
-203.125 132.812 811
-156.25 335.938 992
-101.562 109.375 815
-85.9375 320.312 1001
-484.375 -187.5 2116
-117.188 242.188 920
367.188 -140.625 851
335.938 -140.625 827
242.188 242.188 1197
-148.438 148.438 802
218.75 -132.812 841
-140.625 367.188 1034
-265.625 414.062 1601
-101.562 -335.938 3010
203.125 -226.562 796
109.375 93.75 819
234.375 250 1197
265.625 -218.75 815
54.6875 265.625 984
54.6875 -273.438 992
-343.75 -218.75 1157
242.188 187.5 1001
320.312 -226.562 829
93.75 -125 930
273.438 -23.4375 871
257.812 -226.562 823
-343.75 -265.625 2908
421.875 -132.812 837
132.812 -179.688 864
234.375 -117.188 835
195.312 398.438 1302
390.625 31.25 851
-46.875 296.875 978
390.625 -406.25 896
382.812 -54.6875 880
-320.312 -281.25 2933
226.562 242.188 1219
398.438 -125 882
54.6875 429.688 1292
-250 390.625 1632
289.062 281.25 1398
375 -109.375 843
320.312 320.312 1307
492.188 -390.625 880
328.125 328.125 1283
-132.812 203.125 885
-195.312 -312.5 2984
-414.062 281.25 1823
-500 -390.625 1947
328.125 296.875 1255
-125 218.75 896
226.562 -226.562 800
-226.562 179.688 798
-484.375 -179.688 2143
195.312 -187.5 864
0 289.062 989
179.688 257.812 1206
70.3125 289.062 1197
-78.125 351.562 1038
-437.5 -273.438 2789
-281.25 -187.5 1149
203.125 226.562 1001
0 281.25 989
390.625 -390.625 915
398.438 -93.75 896
312.5 -93.75 823
390.625 -367.188 967
-429.688 -234.375 2812
359.375 -148.438 843
-414.062 296.875 1785
-460.938 -335.938 2680
218.75 195.312 992
343.75 265.625 1189
382.812 -101.562 920
117.188 281.25 1206
-117.188 250 925
367.188 203.125 1108
-7.8125 289.062 989
-85.9375 304.688 978
171.875 406.25 1297
-31.25 289.062 989
70.3125 -187.5 906
-62.5 -343.75 3037
-148.438 351.562 1010
468.75 -250 819
265.625 -70.3125 831
-468.75 -148.438 2198
-78.125 304.688 975
382.812 78.125 951
187.5 406.25 1292
0 -187.5 967
31.25 281.25 989
429.688 93.75 1496
85.9375 289.062 1173
15.625 -140.625 948
-445.312 -296.875 2767
-125 226.562 906
367.188 156.25 1019
39.0625 -203.125 923
382.812 132.812 1004
335.938 242.188 1185
-140.625 171.875 809
-148.438 164.062 803
-164.062 320.312 975
62.5 242.188 978
-23.4375 93.75 821
367.188 281.25 1264
46.875 304.688 1169
289.062 7.8125 843
7.8125 -359.375 3037
203.125 -437.5 1130
-195.312 -226.562 1181
-39.0625 320.312 1177
-406.25 195.312 1959
-23.4375 -320.312 956
31.25 -117.188 975
-62.5 375 1080
343.75 195.312 1138
117.188 70.3125 819
265.625 234.375 1223
351.562 -187.5 851
335.938 -46.875 880
-39.0625 -320.312 1292
-54.6875 390.625 1087
-273.438 304.688 1757
-460.938 -343.75 2659
-39.0625 -148.438 1034
7.8125 281.25 995
382.812 335.938 1322
-15.625 -179.688 1070
54.6875 304.688 1173
7.8125 -226.562 930
62.5 70.3125 821
39.0625 250 978
0 320.312 1161
132.812 242.188 998
-500 -382.812 1936
210.938 125 925
187.5 -195.312 854
476.562 -31.25 856
382.812 -179.688 878
281.25 -195.312 805
171.875 -101.562 896
-281.25 156.25 802
7.8125 320.312 1165
-414.062 304.688 1776
148.438 -132.812 908
-78.125 320.312 1004
320.312 -125 821
226.562 -39.0625 847
-132.812 195.312 878
-195.312 296.875 1757
164.062 265.625 1202
46.875 296.875 1197
187.5 -203.125 796
289.062 -125 815
195.312 226.562 1001
140.625 46.875 831
164.062 234.375 1007
218.75 414.062 1297
335.938 234.375 1181
7.8125 312.5 1193
187.5 -132.812 875
273.438 -375 1004
-7.8125 312.5 1193
281.25 351.562 1328
-23.4375 265.625 973
437.5 171.875 1483
-406.25 210.938 1936
195.312 -85.9375 843
375 109.375 975
-335.938 -257.812 1268
375 -234.375 864
85.9375 -132.812 923
320.312 -46.875 882
218.75 -125 843
-39.0625 445.312 1193
398.438 -257.812 837
429.688 148.438 1496
335.938 210.938 1169
-320.312 54.6875 885
328.125 273.438 1236
289.062 226.562 1197
-179.688 132.812 809
78.125 257.812 992
351.562 7.8125 841
-54.6875 328.125 1181
343.75 203.125 1141
156.25 -429.688 1232
234.375 210.938 1016
7.8125 -164.062 973
296.875 179.688 1013
-406.25 273.438 1833
-31.25 328.125 1157
140.625 273.438 1202
390.625 39.0625 918
93.75 -164.062 933
210.938 -281.25 930
7.8125 -179.688 967
70.3125 -281.25 1001
-70.3125 343.75 1038
117.188 406.25 1312
-132.812 210.938 891
78.125 289.062 1197
-54.6875 421.875 1141
-242.188 406.25 1609
-484.375 -414.062 2522
-46.875 421.875 1145
7.8125 -156.25 978
62.5 296.875 1193
-343.75 -226.562 1232
304.688 -179.688 845
46.875 242.188 970
109.375 -304.688 998
-132.812 382.812 1054
382.812 -85.9375 908
187.5 -125 873
390.625 -414.062 1038
-117.188 242.188 920
429.688 171.875 1483
85.9375 265.625 1001
296.875 164.062 998
312.5 -218.75 821
273.438 226.562 1219
375 85.9375 954
125 273.438 1202
23.4375 -125 948
273.438 -226.562 821
203.125 250 1202
31.25 304.688 1189
281.25 234.375 1202
296.875 218.75 1223
148.438 156.25 933
101.562 -257.812 998
-39.0625 265.625 967
187.5 -210.938 796
-476.562 -398.438 2579
429.688 -93.75 854
101.562 62.5 825
242.188 -234.375 805
-257.812 171.875 794
359.375 -156.25 845
23.4375 273.438 989
-304.688 429.688 1586
289.062 -226.562 821
-500 -398.438 1981
351.562 273.438 1193
7.8125 -234.375 923
-343.75 -210.938 1157
203.125 140.625 935
78.125 85.9375 815
-453.125 -328.125 2701
78.125 -179.688 896
-218.75 140.625 807
-437.5 -265.625 2789
312.5 -187.5 849
312.5 -195.312 807
382.812 125 995
7.8125 -148.438 948
132.812 242.188 998
367.188 148.438 1010
-148.438 148.438 802
390.625 109.375 981
39.0625 78.125 821
7.8125 -195.312 964
-23.4375 320.312 1161
-31.25 -328.125 1302
164.062 -414.062 1214
-62.5 367.188 1057
117.188 250 1004
-62.5 335.938 1031
-125 218.75 896
390.625 93.75 967
226.562 132.812 935
-281.25 414.062 1601
-46.875 -257.812 1185
-453.125 -312.5 2701
343.75 -273.438 901
70.3125 148.438 898
265.625 -101.562 827
54.6875 273.438 970
414.062 335.938 1322
-54.6875 406.25 1115
-23.4375 289.062 992
-85.9375 328.125 1010
171.875 -109.375 896
-46.875 414.062 1130
-39.0625 -312.5 1273
15.625 250 970
-93.75 296.875 975
367.188 -117.188 843
398.438 -109.375 889
15.625 304.688 1185
-39.0625 296.875 987
39.0625 -148.438 928
171.875 -70.3125 860
62.5 265.625 989
-117.188 117.188 811
437.5 164.062 1483
-468.75 -203.125 2103
-406.25 187.5 1981
-70.3125 273.438 962
-382.812 187.5 1981
390.625 -429.688 885
-62.5 296.875 978
-468.75 -367.188 2598
-78.125 320.312 1004
367.188 -125 847
-140.625 187.5 869
218.75 218.75 1004
23.4375 101.562 811
484.375 -382.812 880
273.438 351.562 1333
132.812 -273.438 1001
-445.312 -148.438 2198
-468.75 -218.75 2103
265.625 -226.562 821
250 -250 807
289.062 -203.125 811
23.4375 -148.438 943
265.625 -382.812 1019
140.625 164.062 935
171.875 210.938 987
39.0625 -101.562 967
367.188 -15.625 849
-437.5 -203.125 2859
46.875 164.062 906
62.5 171.875 915
210.938 218.75 1004
242.188 -109.375 833
179.688 156.25 940
109.375 289.062 1181
320.312 312.5 1302
-414.062 289.062 1804
101.562 -93.75 948
382.812 210.938 1112
234.375 -265.625 839
-343.75 -273.438 2883
304.688 -187.5 854
351.562 164.062 1019
242.188 -101.562 833
132.812 429.688 1288
445.312 -23.4375 849
187.5 234.375 1004
-281.25 -296.875 2933
54.6875 265.625 984
187.5 -46.875 896
-390.625 -265.625 2883
-46.875 429.688 1157
-78.125 312.5 987
179.688 -125 887
250 -171.875 811
-15.625 -265.625 903
-320.312 -171.875 1126
93.75 234.375 981
-62.5 359.375 1047
234.375 234.375 1214
406.25 7.8125 847
179.688 -179.688 864
484.375 78.125 1445
156.25 265.625 1202
164.062 -367.188 1264
0 312.5 1193
-23.4375 -281.25 925
257.812 15.625 843
93.75 257.812 998
7.8125 257.812 973
-343.75 -218.75 1157
218.75 -78.125 833
179.688 257.812 1206
210.938 -250 823
390.625 23.4375 851
-335.938 312.5 1748
-78.125 281.25 967
164.062 -398.438 1232
492.188 85.9375 1427
468.75 -78.125 880
-414.062 265.625 1833
-281.25 187.5 790
-210.938 218.75 882
-242.188 148.438 802
171.875 -78.125 860
-15.625 257.812 967
148.438 85.9375 825
179.688 203.125 987
203.125 195.312 989
210.938 195.312 989
132.812 -242.188 815
250 179.688 992
390.625 -437.5 885
-46.875 -289.062 925
328.125 265.625 1232
390.625 -109.375 901
234.375 -398.438 1054
343.75 148.438 998
210.938 257.812 1181
109.375 250 1001
-101.562 296.875 970
429.688 179.688 1489
-7.8125 -312.5 959
265.625 203.125 1019
406.25 23.4375 854
101.562 250 998
265.625 -78.125 831
148.438 46.875 829
171.875 234.375 1004
-343.75 171.875 1981
453.125 23.4375 1688
265.625 -234.375 811
468.75 -31.25 854
164.062 62.5 821
-179.688 289.062 940
406.25 -242.188 821
164.062 242.188 1007
351.562 156.25 1013
226.562 242.188 1219
117.188 226.562 984
312.5 0 849
210.938 -78.125 835
-500 -414.062 2016
-460.938 -328.125 2659
85.9375 -164.062 928
0 289.062 989
140.625 242.188 1004
46.875 -164.062 923
93.75 -140.625 928
375 78.125 948
203.125 125 923
-62.5 367.188 1057
93.75 62.5 825
-93.75 -335.938 3037
304.688 -109.375 819
-15.625 -328.125 970
62.5 -195.312 906
203.125 31.25 835
-85.9375 281.25 964
351.562 31.25 843
-304.688 312.5 1748
-70.3125 125 805
242.188 -54.6875 831
125 -164.062 878
203.125 218.75 1001
-54.6875 273.438 964
210.938 -70.3125 839
132.812 218.75 984
218.75 132.812 933
70.3125 -351.562 992
-31.25 289.062 989
367.188 117.188 981
109.375 257.812 1001
179.688 -234.375 805
101.562 281.25 1197
46.875 296.875 1197
171.875 257.812 1206
359.375 -171.875 847
39.0625 70.3125 829
414.062 -351.562 915
109.375 78.125 817
335.938 -109.375 829
-132.812 171.875 809
203.125 78.125 831
421.875 132.812 1523
-109.375 437.5 1134
164.062 273.438 1181
-195.312 -320.312 2984
140.625 -234.375 811
-54.6875 390.625 1087
-273.438 406.25 1616
343.75 187.5 1019
179.688 -429.688 1153
171.875 -179.688 862
46.875 -148.438 923
-414.062 281.25 1823
320.312 -117.188 821
-132.812 195.312 878
-93.75 312.5 989
-132.812 -328.125 3037
-31.25 -351.562 3037
85.9375 -85.9375 946
-125 125 807
210.938 226.562 1004
203.125 -93.75 841
492.188 -359.375 901
351.562 -140.625 837
-187.5 273.438 928
195.312 -70.3125 851
468.75 85.9375 1536
23.4375 273.438 989
476.562 273.438 1370
-101.562 289.062 964
156.25 234.375 1001
296.875 -109.375 817
171.875 -414.062 1189
-460.938 -320.312 2680
-343.75 -210.938 1157
265.625 -31.25 835
-62.5 382.812 1087
257.812 -328.125 887
257.812 -70.3125 829
-234.375 375 1655
-445.312 -289.062 2723
257.812 242.188 1189
-437.5 -250 2789
375 273.438 1255
218.75 195.312 992
195.312 -85.9375 843
-85.9375 109.375 813
375 140.625 1007
-54.6875 296.875 981
320.312 296.875 1288
296.875 218.75 1223
367.188 156.25 1019
367.188 289.062 1273
289.062 -70.3125 833
-85.9375 312.5 987
-54.6875 140.625 809
-414.062 257.812 1863
156.25 -179.688 860
156.25 -421.875 1232
-70.3125 351.562 1041
-132.812 210.938 891
-210.938 156.25 796
-78.125 359.375 1047
164.062 265.625 1202
234.375 -101.562 835
93.75 281.25 1197
148.438 265.625 1202
335.938 226.562 1185
148.438 273.438 1202
421.875 -101.562 856
-406.25 281.25 1813
70.3125 234.375 973
0 437.5 1297
242.188 -101.562 833
367.188 -234.375 882
15.625 -132.812 948
375 -117.188 843
-125 226.562 906
-7.8125 109.375 811
148.438 218.75 987
304.688 367.188 1312
15.625 312.5 1165
257.812 210.938 1019
125 218.75 981
250 234.375 1223
382.812 39.0625 915
70.3125 273.438 1193
-484.375 117.188 2143
-70.3125 343.75 1038
132.812 242.188 998
85.9375 -101.562 959
343.75 195.312 1138
-148.438 164.062 803
234.375 367.188 1328
-78.125 312.5 987
203.125 -203.125 796
-23.4375 265.625 973
7.8125 -179.688 967
62.5 242.188 978
-70.3125 328.125 1022
273.438 171.875 992
101.562 187.5 938
15.625 -171.875 970
320.312 429.688 1458
78.125 257.812 992
101.562 226.562 978
242.188 210.938 1016
125 250 998
335.938 -7.8125 849
-343.75 -226.562 1232
359.375 -156.25 845
23.4375 312.5 1165
-375 -179.688 2859
367.188 148.438 1010
367.188 -117.188 843
351.562 -148.438 837
382.812 -109.375 843
70.3125 445.312 1283
398.438 -101.562 891
351.562 -125 837
62.5 250 989
429.688 109.375 1470
148.438 -101.562 954
179.688 -351.562 1245
-62.5 406.25 1112
187.5 257.812 1206
-312.5 -281.25 2933
195.312 -78.125 845
203.125 250 1202
-15.625 -351.562 1317
257.812 -78.125 829
257.812 -234.375 807
-54.6875 398.438 1105
234.375 250 1197
-468.75 -343.75 2618
-78.125 367.188 1057
265.625 406.25 1307
70.3125 -187.5 906
-445.312 -140.625 2198
273.438 -242.188 817
-31.25 125 809
-414.062 320.312 1757
375 164.062 1025
-23.4375 289.062 992
-7.8125 -335.938 973
-453.125 -296.875 2701
296.875 23.4375 837
-39.0625 320.312 1177
195.312 -335.938 1202
39.0625 -195.312 913
-500 -421.875 2028
-429.688 -226.562 2859
-140.625 187.5 869
-156.25 148.438 802
226.562 23.4375 841
-93.75 304.688 984
468.75 54.6875 1536
242.188 39.0625 831
195.312 -445.312 1145
203.125 -70.3125 847
195.312 -203.125 796
257.812 -257.812 823
218.75 140.625 938
171.875 390.625 1312
257.812 250 1189
179.688 -62.5 860
187.5 -218.75 796
-101.562 132.812 803
140.625 218.75 984
210.938 -70.3125 839
226.562 -218.75 800
-31.25 320.312 1185
-70.3125 -203.125 1105
-250 148.438 803
367.188 -85.9375 910
-78.125 273.438 959
-265.625 171.875 794
-414.062 273.438 1833
398.438 -250 831
382.812 125 995
460.938 132.812 1452
-460.938 -335.938 2680
31.25 421.875 1307
390.625 -375 975
54.6875 273.438 970
54.6875 -164.062 920
296.875 -304.688 867
234.375 -46.875 837
-492.188 -203.125 2103
179.688 -109.375 896
390.625 -257.812 837
-195.312 132.812 811
335.938 23.4375 839
23.4375 -179.688 967
70.3125 187.5 920
171.875 -117.188 898
281.25 195.312 1025
476.562 132.812 1433
-476.562 -390.625 2598
-218.75 -265.625 1250
132.812 250 998
-125 234.375 910
-7.8125 281.25 989
382.812 -265.625 847
148.438 -226.562 805
171.875 -359.375 1259
281.25 -257.812 823
-468.75 -359.375 2598
343.75 -117.188 831
226.562 -406.25 1070
234.375 148.438 925
85.9375 289.062 1173
156.25 -62.5 915
-226.562 187.5 800
164.062 -351.562 1288
265.625 320.312 1376
-117.188 257.812 933
140.625 250 998
85.9375 296.875 1173
-54.6875 304.688 981
375 93.75 959
-46.875 265.625 962
15.625 -187.5 964
281.25 -367.188 992
-62.5 304.688 978
132.812 445.312 1292
-117.188 250 925
328.125 257.812 1223
179.688 -203.125 796
0 85.9375 821
15.625 304.688 1185
39.0625 296.875 1197
375 -226.562 869
304.688 -117.188 817
78.125 -179.688 896
125 289.062 1181
0 312.5 1193
-39.0625 289.062 987
-468.75 -210.938 2103
265.625 343.75 1343
195.312 -70.3125 851
-125 406.25 1090
23.4375 -125 948
210.938 109.375 913
62.5 265.625 989
-406.25 203.125 1947
257.812 -250 809
250 -85.9375 831
382.812 31.25 849
-414.062 -257.812 2883
265.625 -265.625 831
-414.062 250 1863
-421.875 312.5 1766
39.0625 -148.438 928
328.125 273.438 1236
0 -203.125 967
-414.062 242.188 1873
46.875 265.625 970
445.312 -148.438 817
23.4375 281.25 989
218.75 -375 1105
375 281.25 1264
109.375 -117.188 973
54.6875 296.875 1189
-140.625 179.688 809
328.125 -226.562 829
-343.75 -273.438 2883
328.125 265.625 1232
343.75 -203.125 856
-46.875 421.875 1145
187.5 -203.125 796
62.5 -281.25 998
-54.6875 101.562 817
234.375 218.75 1016
-54.6875 93.75 821
-296.875 179.688 789
-101.562 281.25 959
312.5 -203.125 807
484.375 78.125 1445
265.625 351.562 1338
-109.375 109.375 815
0 -195.312 967
-320.312 312.5 1748
218.75 -289.062 920
-195.312 257.812 908
109.375 281.25 1202
-15.625 -273.438 903
226.562 242.188 1219
375 187.5 1090
406.25 -203.125 827
-15.625 312.5 1181
296.875 164.062 998
125 273.438 1202
-62.5 375 1080
109.375 -148.438 928
195.312 226.562 1001
62.5 -117.188 930
-351.562 171.875 1993
382.812 117.188 984
210.938 -242.188 821
320.312 156.25 1001
0 -210.938 938
445.312 -195.312 792
-70.3125 343.75 1038
-7.8125 -250 908
273.438 -273.438 835
304.688 39.0625 839
328.125 -156.25 823
85.9375 171.875 918
78.125 296.875 1177
382.812 -117.188 913
164.062 210.938 984
-39.0625 117.188 809
273.438 226.562 1219
187.5 -226.562 796
23.4375 -195.312 962
31.25 250 978
-343.75 -218.75 1157
250 179.688 992
156.25 234.375 1001
-62.5 296.875 978
226.562 -117.188 837
273.438 39.0625 835
234.375 -234.375 802
-406.25 195.312 1959
320.312 304.688 1292
335.938 234.375 1181
7.8125 -218.75 935
-148.438 171.875 807
179.688 39.0625 833
-218.75 359.375 1671
304.688 210.938 1227
-476.562 -382.812 2541
-234.375 382.812 1639
-312.5 203.125 787
-132.812 390.625 1060
273.438 -218.75 815
-390.625 -226.562 2958
-492.188 -195.312 2103
-203.125 242.188 891
-125 226.562 906
-398.438 210.938 1936
218.75 -93.75 835
226.562 -39.0625 847
62.5 -109.375 938
93.75 -156.25 928
445.312 171.875 1477
-468.75 -140.625 2212
367.188 203.125 1108
468.75 -242.188 811
31.25 78.125 821
367.188 164.062 1022
-320.312 46.875 894
-46.875 429.688 1157
351.562 -140.625 837
242.188 -54.6875 831
226.562 -296.875 913
132.812 70.3125 819
109.375 -93.75 948
-23.4375 445.312 1206
164.062 -85.9375 935
304.688 343.75 1338
304.688 -85.9375 823
179.688 -187.5 860
226.562 218.75 1013
164.062 7.8125 858
85.9375 414.062 1307
382.812 -46.875 873
156.25 390.625 1317
187.5 54.6875 823
257.812 203.125 1019
85.9375 -140.625 923
-101.562 -335.938 3010
460.938 -390.625 869
-148.438 156.25 802
23.4375 273.438 989
289.062 -312.5 869
78.125 -125 923
-484.375 -406.25 2541
-421.875 -226.562 2859
148.438 265.625 1202
164.062 156.25 935
140.625 421.875 1288
382.812 46.875 920
-31.25 93.75 823
-289.062 -289.062 2933
335.938 218.75 1181
164.062 -101.562 896
140.625 -226.562 811
-437.5 -265.625 2789
148.438 78.125 821
179.688 226.562 1004
-500 -226.562 2040
-210.938 351.562 1688
343.75 -171.875 835
85.9375 -164.062 928
-148.438 148.438 802
-367.188 -70.3125 2541
367.188 125 987
453.125 -406.25 854
39.0625 242.188 970
187.5 -343.75 1219
382.812 -78.125 901
-187.5 296.875 1757
375 -273.438 858
-70.3125 359.375 1047
320.312 -210.938 821
250 -164.062 831
31.25 273.438 989
109.375 406.25 1312
234.375 -109.375 835
328.125 242.188 1197
296.875 -351.562 964
273.438 375 1312
-234.375 -304.688 2984
85.9375 -148.438 925
195.312 125 918
101.562 250 998
234.375 -304.688 901
289.062 -242.188 833
-39.0625 -203.125 1097
164.062 -375 1259
195.312 -218.75 794
39.0625 -375 3092
281.25 -46.875 839
-70.3125 390.625 1090
-460.938 -125 2212
-31.25 140.625 811
390.625 -78.125 898
-140.625 375 1047
140.625 242.188 1004
250 -117.188 829
-85.9375 335.938 1019
-7.8125 312.5 1193
187.5 -195.312 854
-257.812 -304.688 2958
210.938 226.562 1004
265.625 -15.625 864
109.375 -359.375 987
281.25 226.562 1219
-125 179.688 869
328.125 -125 823
234.375 -257.812 833
148.438 210.938 978
234.375 242.188 1197
445.312 -140.625 823
265.625 203.125 1019
210.938 250 1202
171.875 -445.312 1169
-460.938 -328.125 2659
-54.6875 406.25 1115
289.062 -359.375 975
-156.25 148.438 802
398.438 -7.8125 845
109.375 -101.562 959
0 -164.062 975
414.062 7.8125 849
367.188 -281.25 864
242.188 -242.188 807
414.062 -101.562 862
257.812 390.625 1307
226.562 -125 839
296.875 -195.312 813
-382.812 -195.312 2958
250 -101.562 831
195.312 250 1202
70.3125 -125 923
367.188 -226.562 885
257.812 -335.938 1044
-445.312 -273.438 2744
429.688 -335.938 903
164.062 -351.562 1288
-179.688 320.312 1722
70.3125 289.062 1197
-304.688 429.688 1586
210.938 -234.375 798
117.188 250 1004
46.875 296.875 1197
-132.812 140.625 803
-140.625 195.312 873
-500 -375 1926
375 -125 847
70.3125 429.688 1297
-70.3125 296.875 975
429.688 101.562 1477
312.5 179.688 1016
-148.438 171.875 807
-164.062 328.125 975
351.562 -296.875 885
312.5 328.125 1302
257.812 -265.625 839
-234.375 140.625 809
85.9375 -156.25 925
289.062 -265.625 829
320.312 15.625 839
375 62.5 935
-54.6875 296.875 981
-460.938 -265.625 2767
7.8125 140.625 819
390.625 -257.812 837
250 -85.9375 831
375 179.688 1080
-39.0625 289.062 987
390.625 -367.188 967
78.125 -289.062 1004
46.875 242.188 970
359.375 -289.062 880
-125 117.188 811
179.688 -265.625 967
-187.5 328.125 1713
15.625 273.438 984
421.875 164.062 1523
-78.125 132.812 803
164.062 437.5 1292
187.5 234.375 1004
46.875 437.5 1288
382.812 -265.625 847
351.562 304.688 1236
-7.8125 320.312 1161
-39.0625 265.625 967
-445.312 -85.9375 2286
-234.375 171.875 796
382.812 23.4375 849
437.5 171.875 1483
-31.25 132.812 811
343.75 -140.625 831
281.25 -250 823
406.25 -242.188 821
-203.125 343.75 1688
218.75 -250 825
-117.188 242.188 920
-132.812 218.75 894
484.375 -414.062 858
265.625 78.125 903
335.938 226.562 1185
375 70.3125 940
320.312 -445.312 1067
359.375 -15.625 851
148.438 234.375 1001
78.125 257.812 992
164.062 -367.188 1264
-179.688 320.312 1722
-226.562 367.188 1663
117.188 -289.062 998
39.0625 -203.125 923
328.125 -320.312 918
-296.875 -289.062 2933
-31.25 -320.312 1292
335.938 -132.812 825
179.688 -54.6875 860
250 234.375 1223
93.75 226.562 975
375 171.875 1025
328.125 156.25 1004
-125 242.188 918
382.812 218.75 1134
-7.8125 257.812 970
476.562 -375 882
203.125 250 1202
218.75 218.75 1004
-85.9375 296.875 978
-31.25 320.312 1185
-109.375 281.25 956
-156.25 125 811
289.062 -164.062 839
320.312 -328.125 930
203.125 -39.0625 862
140.625 218.75 984
-226.562 140.625 809
171.875 -62.5 860
-414.062 242.188 1873
109.375 -351.562 987
296.875 -62.5 835
-70.3125 -343.75 3037
414.062 -125 854
226.562 -406.25 1070
-93.75 109.375 815
203.125 218.75 1001
-195.312 335.938 1696
-23.4375 -273.438 913
312.5 -335.938 940
-70.3125 328.125 1022
-148.438 359.375 1010
54.6875 296.875 1189
15.625 304.688 1185
-54.6875 320.312 1181
429.688 46.875 930
-7.8125 -250 908
273.438 -234.375 829
-414.062 265.625 1833
164.062 234.375 1007
-78.125 320.312 1004
-421.875 312.5 1766
-125 234.375 910
250 -257.812 831
23.4375 281.25 989
-46.875 -289.062 925
-54.6875 406.25 1115
85.9375 257.812 1001
343.75 187.5 1019
335.938 -312.5 908
320.312 187.5 1019
304.688 171.875 1007
445.312 -78.125 867
343.75 -304.688 898
187.5 257.812 1206
398.438 -250 831
351.562 -171.875 843
-210.938 226.562 885
7.8125 85.9375 821
-492.188 -414.062 2016
46.875 265.625 970
117.188 273.438 1202
-500 -429.688 2053
421.875 -15.625 847
85.9375 234.375 978
351.562 -125 837
210.938 -218.75 796
70.3125 164.062 910
289.062 171.875 1004
304.688 -101.562 821
375 0 845
-7.8125 -203.125 967
-85.9375 101.562 813
164.062 -437.5 1210
-414.062 226.562 1894
23.4375 -156.25 956
-85.9375 281.25 978
156.25 -359.375 1297
312.5 320.312 1343
250 -78.125 831
250 -54.6875 839
54.6875 164.062 920
257.812 234.375 1197
-15.625 312.5 1185
78.125 164.062 920
109.375 54.6875 821
320.312 289.062 1283
85.9375 62.5 821
-351.562 312.5 1739
-429.688 -242.188 2859
-187.5 382.812 1624
23.4375 -171.875 930
0 281.25 1185
-492.188 -265.625 1947
0 312.5 1169
312.5 -242.188 827
328.125 250 1232
125 242.188 1001
101.562 281.25 1185
-164.062 125 805
-70.3125 382.812 1097
226.562 210.938 1016
-101.562 281.25 973
242.188 210.938 1223
-62.5 328.125 1038
195.312 117.188 925
242.188 -101.562 835
0 -171.875 978
367.188 101.562 975
203.125 -78.125 858
31.25 -140.625 956
218.75 -78.125 839
187.5 -78.125 864
343.75 7.8125 841
-328.125 -281.25 2908
-23.4375 -179.688 1057
109.375 257.812 1210
78.125 265.625 1202
351.562 -140.625 839
125 46.875 823
-132.812 210.938 903
203.125 117.188 930
367.188 140.625 1019
234.375 -250 805
-15.625 -265.625 915
289.062 -132.812 817
304.688 218.75 1202
125 273.438 1181
-304.688 156.25 796
187.5 -242.188 800
187.5 382.812 1312
343.75 296.875 1241
-132.812 203.125 896
-7.8125 289.062 1193
-257.812 148.438 798
-296.875 156.25 794
273.438 171.875 1010
468.75 156.25 1427
218.75 125 938
179.688 132.812 935
140.625 -281.25 998
234.375 218.75 1219
-46.875 320.312 1157
0 257.812 987
23.4375 -195.312 967
-250 140.625 803
140.625 273.438 1185
-414.062 234.375 1873
296.875 218.75 1197
62.5 156.25 918
351.562 -179.688 841
304.688 -343.75 948
-148.438 156.25 813
0 -156.25 1022
-140.625 187.5 885
164.062 -445.312 1206
7.8125 273.438 995
132.812 273.438 1181
148.438 265.625 1189
171.875 -242.188 803
328.125 257.812 1236
492.188 -39.0625 858
257.812 -171.875 819
281.25 -117.188 823
-62.5 382.812 1101
70.3125 257.812 987
-140.625 195.312 889
171.875 257.812 1185
132.812 242.188 1001
171.875 -351.562 946
265.625 -382.812 1007
101.562 250 998
367.188 195.312 1119
-125 242.188 933
164.062 -93.75 933
-304.688 179.688 794
351.562 -148.438 835
-187.5 132.812 803
31.25 273.438 1206
46.875 304.688 1173
-218.75 140.625 802
-421.875 304.688 1766
187.5 -250 817
234.375 -109.375 837
234.375 -242.188 805
-148.438 171.875 869
109.375 281.25 1185
-54.6875 -296.875 1232
-70.3125 296.875 989
320.312 195.312 1214
390.625 78.125 964
148.438 242.188 1214
-93.75 312.5 1010
351.562 -132.812 837
-242.188 140.625 802
23.4375 -148.438 956
39.0625 -140.625 954
-7.8125 281.25 1193
296.875 -351.562 962
39.0625 296.875 1181
101.562 -289.062 1013
218.75 -101.562 837
375 85.9375 964
-179.688 320.312 1713
140.625 62.5 821
421.875 171.875 1477
-453.125 -289.062 2723
125 445.312 1297
-437.5 -257.812 2812
265.625 234.375 1197
-375 -148.438 2767
273.438 -62.5 845
-54.6875 429.688 1169
273.438 -164.062 817
273.438 -375 998
-445.312 -210.938 2883
437.5 -39.0625 854
-39.0625 328.125 1157
-171.875 -320.312 1288
390.625 70.3125 959
7.8125 250 981
367.188 -281.25 864
289.062 -250 831
-468.75 -195.312 2143
23.4375 429.688 1292
-429.688 -218.75 2859
351.562 359.375 1312
-39.0625 289.062 1197
-62.5 414.062 1145
328.125 -320.312 918
234.375 70.3125 903
23.4375 31.25 851
-54.6875 -304.688 1250
0 140.625 885
31.25 250 992
234.375 242.188 1202
-85.9375 343.75 1047
156.25 234.375 1007
468.75 148.438 1445
203.125 -250 817
437.5 117.188 1458
375 54.6875 935
179.688 226.562 1004
101.562 289.062 1177
218.75 -62.5 858
109.375 85.9375 823
-312.5 -289.062 2933
-492.188 -445.312 2040
-93.75 445.312 1181
250 242.188 1197
179.688 265.625 1181
257.812 210.938 1223
187.5 -453.125 1153
156.25 -218.75 841
234.375 -218.75 815
375 -273.438 858
-117.188 250 943
132.812 250 1202
-140.625 179.688 878
-54.6875 109.375 809
-453.125 -156.25 2212
-70.3125 335.938 1038
320.312 281.25 1283
156.25 62.5 825
-367.188 -273.438 2908
-85.9375 328.125 1022
54.6875 -156.25 923
-484.375 -171.875 2184
273.438 -210.938 807
0 -234.375 935
54.6875 109.375 823
304.688 335.938 1338
-445.312 -289.062 2744
164.062 -78.125 920
-304.688 164.062 792
-70.3125 351.562 1050
335.938 -312.5 908
492.188 62.5 1477
-39.0625 296.875 1189
406.25 -54.6875 871
-476.562 -367.188 2598
-445.312 -218.75 2883
203.125 109.375 920
23.4375 -156.25 956
320.312 -218.75 819
164.062 148.438 940
-85.9375 312.5 1004
-156.25 148.438 807
492.188 93.75 1415
-78.125 335.938 1038
281.25 226.562 1197
265.625 31.25 837
343.75 -304.688 896
242.188 -257.812 807
281.25 203.125 1227
-148.438 179.688 875
460.938 54.6875 1529
-93.75 320.312 1016
-31.25 265.625 984
304.688 203.125 1219
-156.25 156.25 811
187.5 -46.875 889
179.688 273.438 1177
187.5 203.125 1004
250 15.625 837
101.562 226.562 992
164.062 -406.25 1250
335.938 273.438 1223
445.312 289.062 1354
468.75 -414.062 858
343.75 179.688 1138
-453.125 -304.688 2701
359.375 -164.062 843
328.125 226.562 1206
250 54.6875 841
281.25 -78.125 837
39.0625 -117.188 970
375 -101.562 915
265.625 226.562 1197
156.25 156.25 946
195.312 148.438 954
-414.062 218.75 1915
351.562 -125 837
-421.875 296.875 1785
164.062 -179.688 871
23.4375 304.688 1169
492.188 -398.438 878
-484.375 -312.5 2680
-78.125 328.125 1022
-289.062 156.25 794
476.562 -101.562 873
437.5 -23.4375 849
265.625 -7.8125 851
-476.562 -375 2541
179.688 -54.6875 896
304.688 -203.125 811
312.5 -203.125 851
-31.25 320.312 1165
54.6875 421.875 1292
-85.9375 351.562 1054
101.562 250 998
226.562 -117.188 839
117.188 226.562 998
-15.625 -257.812 915
-273.438 171.875 796
414.062 70.3125 956
351.562 -132.812 837
375 132.812 1013
-406.25 242.188 1873
-132.812 218.75 910
312.5 320.312 1343
343.75 -195.312 845
-46.875 320.312 1157
-62.5 398.438 1123
-140.625 140.625 805
78.125 -171.875 923
367.188 93.75 970
203.125 375 1317
437.5 179.688 1477
0 78.125 819
-101.562 -343.75 3010
-140.625 203.125 894
187.5 226.562 1010
273.438 226.562 1202
-148.438 164.062 813
-39.0625 93.75 817
-492.188 -437.5 2028
476.562 70.3125 1470
109.375 304.688 1177
320.312 226.562 1202
210.938 250 1193
46.875 265.625 998
460.938 -46.875 858
-7.8125 -195.312 967
414.062 -31.25 851
-445.312 -281.25 2744
320.312 -328.125 928
-375 -195.312 2908
171.875 203.125 995
85.9375 -125 930
-78.125 148.438 817
187.5 265.625 1181
312.5 335.938 1338
-484.375 -414.062 2381
148.438 210.938 995
-312.5 429.688 1586
156.25 -367.188 1312
78.125 289.062 1181
-390.625 -203.125 2984
390.625 7.8125 854
304.688 -31.25 867
210.938 226.562 1214
328.125 -31.25 864
140.625 -250 813
-70.3125 359.375 1070
250 203.125 1016
226.562 242.188 1206
-234.375 203.125 1904
210.938 -421.875 1101
453.125 289.062 1354
171.875 -117.188 906
171.875 257.812 1185
242.188 234.375 1197
414.062 125 1543
335.938 -132.812 829
23.4375 281.25 1197
-132.812 210.938 903
242.188 359.375 1328
-23.4375 -273.438 915
398.438 31.25 928
296.875 328.125 1349
-468.75 -132.812 2212
406.25 -31.25 851
-7.8125 312.5 1169
-78.125 367.188 1073
-15.625 312.5 1185
289.062 -359.375 975
171.875 -148.438 891
-101.562 289.062 981
-289.062 414.062 1594
359.375 -289.062 875
226.562 367.188 1328
195.312 -273.438 956
0 -171.875 978
-140.625 -328.125 1292
242.188 -359.375 1073
453.125 -414.062 856
7.8125 -140.625 1007
62.5 296.875 1169
-421.875 281.25 1813
171.875 -429.688 1202
54.6875 242.188 989
117.188 281.25 1181
164.062 234.375 1016
390.625 -109.375 915
335.938 210.938 1181
-78.125 343.75 1044
156.25 242.188 1214
7.8125 -226.562 938
7.8125 304.688 1169
93.75 281.25 1177
-429.688 -54.6875 2415
-109.375 132.812 807
-31.25 289.062 1193
-78.125 375 1084
484.375 23.4375 1550
359.375 265.625 1197
-78.125 273.438 975
23.4375 -148.438 956
148.438 265.625 1189
265.625 335.938 1354
351.562 382.812 1503
7.8125 109.375 817
218.75 -85.9375 839
171.875 -359.375 1273
226.562 382.812 1312
101.562 78.125 819
179.688 226.562 1004
218.75 242.188 1197
218.75 62.5 839
242.188 242.188 1197
-132.812 226.562 915
-382.812 -70.3125 2522
23.4375 -187.5 970
273.438 335.938 1349
226.562 46.875 833
351.562 -148.438 835
164.062 -70.3125 910
-414.062 210.938 1926
164.062 -273.438 981
257.812 -390.625 1022
-234.375 -304.688 1278
93.75 257.812 1214
62.5 148.438 908
390.625 -101.562 913
289.062 -156.25 819
492.188 -351.562 903
85.9375 -156.25 925
-445.312 -265.625 2767
-54.6875 359.375 1073
7.8125 15.625 862
265.625 390.625 1307
-468.75 -335.938 2618
312.5 -234.375 823
218.75 421.875 1496
195.312 203.125 1004
140.625 156.25 940
187.5 -54.6875 894
-273.438 406.25 1609
7.8125 -171.875 981
-460.938 -171.875 2184
343.75 171.875 1028
367.188 117.188 989
15.625 273.438 1197
15.625 -132.812 995
109.375 171.875 943
320.312 -54.6875 885
0 -156.25 1022
242.188 -93.75 833
-62.5 273.438 984
195.312 250 1185
468.75 -351.562 901
289.062 -312.5 862
343.75 273.438 1206
195.312 -70.3125 864
156.25 -343.75 959
289.062 179.688 1022
-54.6875 414.062 1149
148.438 -218.75 841
382.812 7.8125 851
445.312 -234.375 798
304.688 -171.875 823
-500 -437.5 2028
218.75 -226.562 796
351.562 -132.812 837
-257.812 390.625 1624
171.875 218.75 1004
39.0625 93.75 817
-437.5 -242.188 2835
15.625 312.5 1169
226.562 -234.375 800
382.812 -187.5 887
171.875 234.375 1016
390.625 62.5 951
242.188 -242.188 807
179.688 -117.188 901
-140.625 382.812 1077
398.438 39.0625 933
382.812 148.438 1028
78.125 62.5 821
148.438 421.875 1292
367.188 -70.3125 889
195.312 140.625 946
101.562 54.6875 821
-7.8125 289.062 1193
265.625 -179.688 811
125 242.188 1001
70.3125 -187.5 930
195.312 429.688 1489
-85.9375 273.438 975
132.812 46.875 825
375 46.875 930
250 -117.188 833
312.5 289.062 1312
-296.875 -289.062 2958
218.75 195.312 1004
171.875 -234.375 800
359.375 156.25 1028
453.125 140.625 1477
296.875 -109.375 823
273.438 312.5 1376
-46.875 445.312 1197
351.562 195.312 1126
320.312 328.125 1312
-39.0625 312.5 1181
-421.875 304.688 1766
312.5 -335.938 938
312.5 312.5 1343
351.562 -296.875 882
-187.5 328.125 1696
-46.875 437.5 1189
7.8125 -187.5 970
382.812 39.0625 928
406.25 109.375 998
179.688 -101.562 856
-312.5 -460.938 2618
-226.562 -312.5 2984
335.938 203.125 1177
140.625 218.75 1001
-62.5 375 1090
210.938 46.875 829
31.25 -156.25 946
-273.438 304.688 1757
242.188 -117.188 837
46.875 -210.938 920
203.125 -93.75 843
-23.4375 257.812 981
421.875 -234.375 802
-54.6875 437.5 1185
39.0625 296.875 1181
93.75 187.5 908
-343.75 187.5 1947
-195.312 265.625 938
-148.438 367.188 1632
398.438 140.625 1025
-31.25 296.875 1193
109.375 250 1004
203.125 195.312 1004
-484.375 -406.25 2522
367.188 0 845
46.875 -273.438 878
390.625 -117.188 913
429.688 109.375 1477
-39.0625 296.875 1189
210.938 140.625 948
-148.438 179.688 875
335.938 -62.5 887
226.562 210.938 1016
382.812 31.25 923
-132.812 218.75 910
46.875 273.438 1202
-132.812 398.438 1105
281.25 -203.125 807
62.5 289.062 1169
31.25 -117.188 975
62.5 242.188 992
218.75 -39.0625 867
-70.3125 359.375 1070
-70.3125 398.438 1119
375 125 1001
-218.75 359.375 1663
-148.438 382.812 1616
406.25 -351.562 930
328.125 242.188 1223
296.875 187.5 1019
-492.188 -429.688 2016
-218.75 296.875 1757
-492.188 -187.5 2129
179.688 -351.562 946
7.8125 101.562 813
0 -226.562 938
-500 -429.688 2016
140.625 -101.562 948
375 -226.562 882
39.0625 -179.688 928
54.6875 265.625 989
-484.375 -179.688 2170
367.188 -109.375 837
203.125 -429.688 1119
273.438 -203.125 805
437.5 -242.188 805
179.688 -132.812 896
335.938 -117.188 829
39.0625 273.438 1202
-62.5 328.125 1038
7.8125 -140.625 1007
171.875 -414.062 1214
-62.5 296.875 1181
257.812 234.375 1197
62.5 62.5 821
289.062 265.625 1354
-429.688 -218.75 2859
156.25 -140.625 910
468.75 -23.4375 858
-140.625 195.312 889
398.438 7.8125 854
101.562 171.875 938
257.812 351.562 1338
85.9375 273.438 1202
-15.625 281.25 992
-78.125 125 809
281.25 320.312 1359
328.125 234.375 1206
-23.4375 312.5 1165
-15.625 -343.75 1312
-476.562 -148.438 2184
-125 242.188 933
304.688 320.312 1354
273.438 -320.312 880
179.688 -125 898
375 -257.812 858
132.812 273.438 1181
-7.8125 85.9375 815
289.062 23.4375 837
-171.875 312.5 1731
453.125 -23.4375 854
-70.3125 375 1087
289.062 218.75 1197
304.688 -218.75 815
62.5 179.688 933
-125 218.75 910
468.75 54.6875 1536
85.9375 257.812 1214
312.5 -125 821
-414.062 195.312 1947
203.125 -234.375 796
382.812 93.75 978
-31.25 -281.25 920
0 -148.438 1016
117.188 273.438 1181
335.938 -210.938 856
-414.062 218.75 1915
-304.688 421.875 1586
70.3125 257.812 987
234.375 -250 805
234.375 -398.438 1054
0 437.5 1292
-382.812 -187.5 2859
54.6875 70.3125 819
-148.438 164.062 813
-15.625 -257.812 915
179.688 62.5 829
367.188 109.375 984
187.5 -78.125 864
85.9375 109.375 827
156.25 265.625 1185
78.125 -132.812 925
195.312 226.562 1214
-460.938 -218.75 2103
203.125 -78.125 858
414.062 -148.438 847
257.812 -101.562 831
203.125 218.75 1010
335.938 265.625 1214
320.312 234.375 1206
101.562 406.25 1307
15.625 250 987
218.75 187.5 998
-453.125 -101.562 2301
0 -234.375 935
398.438 -140.625 887
-70.3125 367.188 1077
-54.6875 429.688 1169
312.5 -226.562 819
-476.562 -218.75 2090
320.312 -156.25 821
85.9375 234.375 992
-460.938 -179.688 2156
125 -359.375 975
179.688 -195.312 862
242.188 -226.562 817
171.875 382.812 1317
15.625 -156.25 956
210.938 -125 851
226.562 -210.938 819
164.062 -78.125 920
0 281.25 1185
62.5 234.375 984
367.188 140.625 1019
156.25 -125 915
-85.9375 320.312 1016
289.062 -70.3125 845
