ply
format ascii 1.0
comment Created by Open3D
element vertex 2324
property double x
property double y
property double z
end_header
-382.812 -132.812 1001
-328.125 281.25 1073
-328.125 281.25 1073
-93.75 406.25 1427
-445.312 -367.188 2958
125 -195.312 933
179.688 -195.312 920
-390.625 23.4375 1028
-171.875 390.625 1227
-468.75 0 973
320.312 343.75 1094
-382.812 -101.562 1047
-265.625 429.688 1410
-62.5 -132.812 906
-281.25 304.688 1112
132.812 320.312 1452
-382.812 -125 992
-390.625 304.688 1333
-312.5 335.938 1259
-492.188 312.5 1189
-101.562 -203.125 1041
140.625 -203.125 967
-132.812 -171.875 1010
195.312 -187.5 984
-234.375 -218.75 1185
0 39.0625 978
132.812 382.812 1312
125 382.812 1328
-398.438 304.688 1302
-289.062 -93.75 923
382.812 -179.688 1278
-429.688 320.312 1292
101.562 234.375 1739
-453.125 -187.5 1197
-445.312 -23.4375 962
-171.875 351.562 1223
-109.375 -382.812 989
-468.75 265.625 1090
-476.562 -101.562 973
-406.25 -62.5 973
125 234.375 1748
-101.562 -265.625 1019
-296.875 39.0625 984
-429.688 343.75 1259
125 -210.938 935
-31.25 -210.938 1087
-328.125 351.562 1259
148.438 31.25 970
265.625 -140.625 885
234.375 -148.438 887
-437.5 -445.312 2835
-171.875 -195.312 1047
-453.125 -398.438 2883
-320.312 312.5 1322
-375 265.625 1084
-414.062 46.875 995
320.312 54.6875 925
-453.125 328.125 1264
-312.5 281.25 1080
-421.875 -328.125 3010
140.625 234.375 1739
-296.875 273.438 1073
-500 -148.438 995
-85.9375 -398.438 1181
-406.25 -148.438 995
54.6875 -210.938 1077
-62.5 -351.562 1193
-500 320.312 1189
31.25 62.5 940
-343.75 132.812 1007
-437.5 -437.5 2835
-70.3125 -367.188 978
296.875 382.812 1138
-414.062 -148.438 992
-382.812 23.4375 1028
-343.75 281.25 1080
-398.438 312.5 1297
203.125 -132.812 887
-93.75 -335.938 992
-85.9375 320.312 1616
-375 328.125 1264
-359.375 273.438 1084
140.625 -218.75 970
-109.375 -304.688 1001
-250 31.25 973
-289.062 39.0625 981
-70.3125 -304.688 1010
-101.562 -257.812 1022
148.438 382.812 1322
-257.812 31.25 973
-476.562 320.312 1307
-359.375 289.062 1338
-242.188 39.0625 981
-195.312 -218.75 1028
-390.625 31.25 1016
-343.75 289.062 1080
-414.062 343.75 1268
-203.125 -335.938 984
-414.062 -273.438 3064
-46.875 -367.188 1141
-281.25 359.375 1219
7.8125 31.25 954
85.9375 31.25 948
367.188 31.25 956
-328.125 359.375 1223
-328.125 312.5 1322
-156.25 -375 987
-117.188 -289.062 1010
-304.688 281.25 1080
-445.312 289.062 1333
-234.375 54.6875 975
-500 101.562 959
-382.812 359.375 1227
-296.875 335.938 1255
-304.688 320.312 1292
-406.25 46.875 992
148.438 39.0625 962
-156.25 -359.375 984
-351.562 46.875 989
-453.125 31.25 998
-78.125 -382.812 1181
-125 39.0625 970
-460.938 31.25 989
-101.562 -195.312 1047
-78.125 -375 975
296.875 -132.812 882
-164.062 -382.812 1161
-257.812 -125 933
-273.438 31.25 973
234.375 273.438 1624
-468.75 -125 975
-484.375 101.562 964
140.625 15.625 943
-437.5 -85.9375 1019
-164.062 39.0625 981
281.25 -132.812 882
-203.125 -125 920
-398.438 359.375 1223
-421.875 343.75 1232
-187.5 437.5 1245
-468.75 335.938 1268
-343.75 117.188 951
-367.188 117.188 1004
-429.688 -15.625 962
-414.062 -257.812 3092
-93.75 -390.625 1177
171.875 375 1349
-398.438 -101.562 981
-453.125 -117.188 973
-382.812 -39.0625 978
140.625 382.812 1343
-304.688 312.5 1297
-476.562 -39.0625 984
-171.875 -312.5 995
-359.375 23.4375 1025
-156.25 -312.5 998
-414.062 320.312 1283
-335.938 109.375 951
390.625 -171.875 1283
-335.938 0 956
-484.375 109.375 964
210.938 -109.375 898
-78.125 -195.312 1047
-265.625 31.25 973
-460.938 0 970
-429.688 -390.625 2933
179.688 -257.812 989
-453.125 -109.375 967
-421.875 320.312 1278
62.5 265.625 2040
-445.312 70.3125 959
-484.375 343.75 1232
-390.625 -171.875 1010
-164.062 78.125 938
-359.375 312.5 1292
-429.688 -406.25 2883
-468.75 -23.4375 970
109.375 -140.625 889
-250 -125 933
-296.875 312.5 1283
-437.5 320.312 1292
-351.562 351.562 1259
-117.188 -453.125 1197
-359.375 351.562 1259
-140.625 125 1001
-125 -414.062 1173
-375 -7.8125 978
-351.562 109.375 951
-375 -39.0625 981
-460.938 -148.438 970
-70.3125 54.6875 959
171.875 -257.812 989
-460.938 296.875 1333
-328.125 109.375 951
-171.875 -335.938 987
-289.062 296.875 1084
-343.75 -7.8125 956
226.562 31.25 970
-468.75 -78.125 984
-453.125 296.875 1328
-437.5 296.875 1328
-453.125 -23.4375 962
-328.125 296.875 1328
-195.312 -125 918
-54.6875 39.0625 967
-500 117.188 1016
-148.438 -375 987
-437.5 351.562 1227
-304.688 335.938 1255
-335.938 39.0625 998
-437.5 -328.125 2984
-429.688 289.062 1333
62.5 257.812 1766
-414.062 0 970
-31.25 -351.562 1138
210.938 -148.438 891
-31.25 -132.812 906
-351.562 296.875 1302
-453.125 -289.062 3064
-429.688 70.3125 959
-31.25 273.438 1688
-453.125 -109.375 967
328.125 296.875 1070
-367.188 265.625 1080
-421.875 -320.312 3037
-406.25 304.688 1302
-203.125 -414.062 1219
-390.625 -132.812 995
-109.375 -320.312 998
78.125 -140.625 896
476.562 70.3125 901
-445.312 -156.25 981
226.562 -148.438 891
-390.625 -93.75 989
-453.125 -156.25 978
179.688 -210.938 925
117.188 15.625 943
-484.375 -156.25 1177
-132.812 -132.812 920
-23.4375 125 984
-273.438 -125 938
-171.875 367.188 1219
-414.062 -289.062 3064
-375 -109.375 1004
-15.625 335.938 1579
-304.688 367.188 1219
-414.062 -125 984
0 31.25 959
-406.25 -46.875 967
-312.5 343.75 1255
109.375 15.625 943
-187.5 78.125 940
-85.9375 -132.812 906
117.188 -117.188 894
-500 -265.625 2301
-328.125 320.312 1283
15.625 -132.812 898
109.375 125 984
-421.875 -312.5 3037
-390.625 351.562 1223
156.25 125 987
-281.25 31.25 975
-398.438 343.75 1264
-210.938 125 1001
-382.812 273.438 1087
343.75 242.188 1016
-421.875 70.3125 954
250 -132.812 882
132.812 273.438 1671
351.562 218.75 1007
-234.375 31.25 975
-117.188 125 987
-46.875 23.4375 956
-375 273.438 1087
-437.5 -320.312 2984
-437.5 70.3125 956
-390.625 273.438 1087
-500 -109.375 1031
-101.562 -273.438 1013
-382.812 304.688 1322
195.312 382.812 1370
125 -203.125 935
-335.938 335.938 1259
304.688 414.062 1141
-390.625 304.688 1333
70.3125 125 975
-148.438 125 992
445.312 -156.25 1245
-289.062 335.938 1250
-500 -156.25 995
-398.438 -203.125 1206
-335.938 312.5 1292
-375 -62.5 984
-125 -125 910
-296.875 335.938 1255
-187.5 -125 918
-445.312 328.125 1264
-156.25 -406.25 1173
-382.812 265.625 1084
-453.125 -148.438 978
390.625 -148.438 1278
-23.4375 375 1509
-492.188 -85.9375 1050
148.438 15.625 943
210.938 -226.562 970
101.562 328.125 1439
226.562 39.0625 959
125 273.438 1671
-406.25 -218.75 1206
-476.562 -132.812 975
117.188 273.438 1671
-210.938 -125 920
31.25 -140.625 901
-85.9375 101.562 935
-125 335.938 1586
-281.25 -117.188 925
-109.375 39.0625 975
-429.688 304.688 1297
62.5 -132.812 896
46.875 -140.625 903
-296.875 -85.9375 923
-195.312 78.125 943
-46.875 -132.812 903
-351.562 117.188 998
-429.688 -296.875 3037
-335.938 -70.3125 930
-148.438 -296.875 1001
-460.938 -117.188 975
-437.5 -31.25 959
-437.5 -31.25 959
-171.875 -187.5 1047
-375 -46.875 981
-414.062 -226.562 3149
-195.312 -375 1173
-132.812 -343.75 984
-70.3125 250 1757
-187.5 -101.562 913
125 15.625 943
-179.688 -257.812 1016
-390.625 312.5 1297
-296.875 195.312 1031
-179.688 -343.75 984
-210.938 -117.188 915
-296.875 101.562 951
-406.25 328.125 1264
-117.188 -132.812 913
-460.938 -46.875 962
-289.062 359.375 1219
117.188 -226.562 998
-343.75 -93.75 923
-414.062 85.9375 951
-382.812 -179.688 1013
-414.062 109.375 956
132.812 78.125 918
-406.25 -70.3125 973
-359.375 -15.625 989
15.625 31.25 954
-93.75 117.188 938
46.875 273.438 1663
-320.312 359.375 1223
-460.938 335.938 1268
-343.75 93.75 951
31.25 -117.188 898
-304.688 -117.188 933
-109.375 -390.625 1165
-398.438 -39.0625 970
-382.812 335.938 1264
-46.875 273.438 1696
-226.562 328.125 1193
-312.5 312.5 1302
-437.5 -460.938 2835
-453.125 335.938 1259
-429.688 -156.25 987
-375 335.938 1264
-226.562 31.25 975
7.8125 125 981
-31.25 101.562 930
-500 -273.438 2301
-406.25 0 973
171.875 -195.312 920
-304.688 343.75 1245
-312.5 367.188 1219
-140.625 -343.75 984
-382.812 351.562 1227
-210.938 -367.188 987
-421.875 -148.438 989
-421.875 -335.938 3010
-460.938 70.3125 962
-460.938 -109.375 970
-476.562 0 975
-187.5 390.625 1219
-429.688 351.562 1232
-148.438 -335.938 987
109.375 -117.188 894
-289.062 -117.188 928
-453.125 -453.125 2812
-367.188 328.125 1292
-484.375 -398.438 2984
-445.312 -31.25 962
-85.9375 125 989
-437.5 -335.938 2958
-500 -257.812 2301
-429.688 281.25 1077
-320.312 343.75 1259
-335.938 328.125 1288
-429.688 320.312 1292
-15.625 101.562 930
-335.938 320.312 1283
-484.375 -15.625 975
-414.062 -265.625 3092
-359.375 -132.812 1004
-195.312 125 998
-390.625 -156.25 1007
-343.75 39.0625 998
-453.125 -31.25 962
226.562 -132.812 887
-109.375 -242.188 1025
-296.875 281.25 1077
-453.125 265.625 1090
-500 -195.312 1157
-421.875 304.688 1297
-39.0625 -320.312 1080
-359.375 46.875 989
-195.312 101.562 943
85.9375 242.188 1748
-351.562 265.625 1080
-445.312 -140.625 981
-437.5 -54.6875 962
-398.438 281.25 1087
23.4375 125 981
85.9375 -140.625 896
-398.438 312.5 1297
-421.875 -273.438 3064
-101.562 -304.688 1001
-398.438 -132.812 992
-414.062 -273.438 3064
-210.938 -375 1193
-46.875 101.562 930
-460.938 -23.4375 964
-265.625 -117.188 923
-500 250 1094
0 23.4375 954
-421.875 -281.25 3064
-304.688 31.25 975
-226.562 125 1007
-164.062 -359.375 981
-140.625 -359.375 984
218.75 -148.438 882
-367.188 359.375 1227
-46.875 93.75 930
-273.438 312.5 1119
-382.812 -85.9375 989
-148.438 -359.375 984
109.375 -203.125 935
-210.938 359.375 1245
-117.188 -390.625 1161
-328.125 289.062 1073
-312.5 -117.188 930
-54.6875 -343.75 1145
-421.875 289.062 1333
-281.25 -125 940
-320.312 312.5 1322
-398.438 -70.3125 975
-335.938 93.75 948
-359.375 328.125 1283
-437.5 -85.9375 1019
-31.25 23.4375 956
-460.938 -398.438 2908
-187.5 -343.75 984
-46.875 406.25 1452
-429.688 -414.062 2883
-156.25 -320.312 992
179.688 31.25 973
-460.938 265.625 1090
-406.25 343.75 1264
-125 125 987
-7.8125 39.0625 962
-320.312 320.312 1283
-140.625 -382.812 1157
-460.938 343.75 1232
-492.188 273.438 1090
-453.125 -375 2859
-23.4375 46.875 964
85.9375 328.125 1421
-445.312 257.812 1084
-390.625 93.75 956
-296.875 31.25 975
-429.688 -7.8125 962
-343.75 109.375 951
343.75 234.375 1013
-109.375 -195.312 1047
-85.9375 -296.875 1010
-421.875 -125 984
453.125 382.812 1259
-367.188 -31.25 981
-15.625 -390.625 1145
-164.062 -312.5 998
-281.25 359.375 1219
132.812 -179.688 938
-187.5 39.0625 978
-492.188 -156.25 1084
-382.812 -7.8125 970
-437.5 -312.5 3037
-476.562 31.25 984
-218.75 -125 923
-398.438 109.375 956
-468.75 343.75 1236
-453.125 -429.688 2859
187.5 125 989
-250 31.25 973
-304.688 39.0625 984
-390.625 335.938 1264
-453.125 23.4375 984
-500 406.25 1219
-164.062 -312.5 998
-257.812 31.25 973
-437.5 -406.25 2883
351.562 195.312 992
-375 359.375 1227
-398.438 -171.875 1010
-460.938 304.688 1307
-437.5 140.625 1016
-281.25 335.938 1245
-125 -406.25 1169
195.312 31.25 973
125 -171.875 943
156.25 -218.75 964
-351.562 351.562 1259
-39.0625 23.4375 956
-62.5 257.812 1722
-304.688 281.25 1080
-445.312 23.4375 984
-343.75 351.562 1259
-101.562 -320.312 998
-7.8125 -210.938 1087
46.875 -343.75 1169
85.9375 250 1757
-109.375 -273.438 1013
-476.562 164.062 1034
-476.562 164.062 1034
-93.75 -195.312 1047
-367.188 -164.062 1022
-421.875 351.562 1232
-148.438 39.0625 978
-54.6875 23.4375 954
-367.188 296.875 1328
-437.5 -140.625 984
-453.125 -140.625 978
-484.375 312.5 1297
-453.125 -460.938 2835
-445.312 296.875 1322
-429.688 -398.438 2908
-273.438 31.25 973
-101.562 296.875 1663
-156.25 39.0625 978
375 7.8125 998
70.3125 54.6875 948
-109.375 -304.688 1001
-476.562 46.875 998
-281.25 54.6875 973
132.812 195.312 1705
-218.75 54.6875 975
-218.75 -304.688 998
203.125 31.25 973
-359.375 320.312 1283
-437.5 359.375 1227
125 242.188 1757
-429.688 31.25 1025
-421.875 -328.125 3010
125 445.312 1343
-453.125 -117.188 973
-398.438 328.125 1278
-421.875 -343.75 2984
15.625 -117.188 898
-171.875 39.0625 981
-367.188 15.625 1050
-148.438 -132.812 925
-70.3125 -398.438 1202
-85.9375 62.5 954
164.062 335.938 1421
-421.875 0 964
-398.438 -179.688 1165
-156.25 78.125 938
-359.375 242.188 1067
-296.875 359.375 1223
-476.562 -93.75 975
-468.75 46.875 995
-398.438 -156.25 1001
-171.875 -273.438 1010
-265.625 31.25 973
-414.062 -148.438 992
-179.688 -320.312 989
156.25 -265.625 989
-23.4375 273.438 1688
-156.25 -250 1022
-46.875 -203.125 1073
109.375 226.562 1731
289.062 -132.812 882
484.375 375 1259
132.812 -304.688 1381
-445.312 -359.375 2958
-257.812 39.0625 978
-320.312 -117.188 935
-179.688 -335.938 987
-460.938 335.938 1268
-414.062 23.4375 973
-265.625 39.0625 978
-359.375 296.875 1328
304.688 7.8125 935
-304.688 234.375 1054
-85.9375 39.0625 964
-296.875 367.188 1219
-281.25 39.0625 981
-312.5 320.312 1292
54.6875 31.25 954
-421.875 320.312 1278
-132.812 -382.812 1157
-437.5 289.062 1338
-476.562 -359.375 3064
-484.375 281.25 1343
-406.25 -226.562 3149
-468.75 70.3125 962
-312.5 359.375 1223
70.3125 -140.625 896
-23.4375 -335.938 1073
-390.625 289.062 1333
-179.688 -406.25 1181
-421.875 312.5 1297
156.25 -234.375 992
-46.875 -351.562 1141
-273.438 359.375 1223
-39.0625 -367.188 1138
273.438 7.8125 935
-429.688 -390.625 2933
-382.812 351.562 1227
-109.375 -218.75 1038
-289.062 281.25 1080
-445.312 -101.562 967
-265.625 -125 940
-351.562 289.062 1084
39.0625 46.875 962
-39.0625 -289.062 1115
-476.562 -335.938 3064
-414.062 -281.25 3064
-179.688 -414.062 1193
-328.125 23.4375 970
-421.875 -351.562 2984
-156.25 -335.938 987
-429.688 -148.438 987
-273.438 46.875 984
-93.75 46.875 975
-23.4375 23.4375 956
-335.938 351.562 1259
-437.5 -343.75 2958
-429.688 46.875 992
-437.5 23.4375 970
343.75 23.4375 964
-382.812 -39.0625 978
-171.875 390.625 1227
312.5 375 1115
-476.562 312.5 1297
-39.0625 -351.562 1141
109.375 234.375 1739
-320.312 351.562 1259
54.6875 101.562 925
-265.625 359.375 1153
398.438 -140.625 1312
476.562 343.75 1292
-195.312 437.5 1250
-359.375 351.562 1259
-31.25 -382.812 1145
-406.25 -234.375 3149
-445.312 -195.312 1202
335.938 -125 880
-101.562 -312.5 1001
-85.9375 -343.75 989
-281.25 312.5 1119
-460.938 -140.625 970
70.3125 257.812 1757
-406.25 281.25 1090
-125 -187.5 1047
-437.5 257.812 1084
0 -140.625 913
-187.5 -312.5 992
-390.625 -101.562 981
-390.625 -101.562 981
-445.312 343.75 1259
-500 296.875 1193
-171.875 -429.688 1193
125 -218.75 989
-359.375 -54.6875 989
-85.9375 -210.938 1041
-421.875 281.25 1077
-367.188 -179.688 1047
382.812 -156.25 1365
250 31.25 967
-93.75 -398.438 1181
-39.0625 46.875 970
-250 359.375 1153
-414.062 -93.75 1038
-500 273.438 1094
7.8125 -140.625 910
-343.75 15.625 1041
125 -304.688 1381
-359.375 359.375 1227
-390.625 -23.4375 967
-421.875 -335.938 3010
-500 -125 970
-437.5 -156.25 984
-351.562 -93.75 925
-414.062 281.25 1084
-437.5 -15.625 959
-156.25 -375 987
-179.688 -187.5 1047
-437.5 -93.75 967
-453.125 -398.438 2883
-421.875 -296.875 3037
-453.125 -437.5 2859
-351.562 304.688 1322
-281.25 289.062 1080
132.812 -218.75 970
-171.875 -359.375 981
-78.125 -132.812 906
-445.312 335.938 1259
-125 -132.812 915
-414.062 289.062 1333
476.562 398.438 1359
-406.25 70.3125 954
-101.562 78.125 933
-109.375 -132.812 910
-70.3125 -132.812 906
-289.062 -125 940
-101.562 -132.812 910
-296.875 343.75 1245
-335.938 335.938 1259
-367.188 335.938 1264
-39.0625 125 984
-429.688 328.125 1259
-390.625 312.5 1297
-492.188 312.5 1189
-460.938 -117.188 975
-179.688 382.812 1219
-375 -93.75 998
-367.188 265.625 1080
-320.312 320.312 1283
-132.812 -414.062 1173
-273.438 39.0625 978
-312.5 31.25 975
-367.188 273.438 1084
-179.688 -101.562 913
-406.25 -23.4375 964
-273.438 406.25 1452
117.188 -234.375 995
-437.5 -328.125 2984
-320.312 359.375 1223
-468.75 101.562 959
-390.625 351.562 1223
-125 78.125 935
-382.812 312.5 1297
210.938 -445.312 2859
-382.812 273.438 1087
-492.188 -140.625 973
265.625 -156.25 898
-421.875 -125 984
-492.188 320.312 1189
-421.875 -117.188 975
-335.938 312.5 1292
-218.75 187.5 1219
-78.125 210.938 1739
187.5 375 1349
-304.688 343.75 1245
-117.188 320.312 1609
-7.8125 -140.625 913
-375 304.688 1317
-343.75 328.125 1283
-39.0625 -335.938 1080
-304.688 312.5 1297
-78.125 125 989
93.75 328.125 1433
-234.375 -101.562 915
-359.375 -125 1004
156.25 78.125 915
-281.25 31.25 975
-406.25 320.312 1292
-414.062 70.3125 954
-421.875 -359.375 2958
-476.562 -242.188 2744
-437.5 -351.562 2958
320.312 335.938 1090
-304.688 367.188 1219
-414.062 351.562 1236
-421.875 23.4375 973
-414.062 -234.375 3092
-218.75 -367.188 992
-140.625 -132.812 920
78.125 78.125 920
-46.875 23.4375 956
125 78.125 918
-359.375 265.625 1080
-335.938 109.375 951
-93.75 -132.812 913
-398.438 -62.5 975
-289.062 31.25 975
-492.188 335.938 1193
-421.875 -343.75 2984
-289.062 296.875 1084
-148.438 -250 1022
-359.375 328.125 1283
-453.125 296.875 1328
-296.875 335.938 1255
-460.938 -289.062 3149
-320.312 85.9375 946
187.5 -148.438 894
-445.312 265.625 1087
-70.3125 -382.812 1193
-460.938 -125 984
-445.312 -85.9375 970
-460.938 23.4375 984
-445.312 -62.5 962
-351.562 296.875 1302
-429.688 -421.875 2883
-476.562 -187.5 1185
-398.438 -218.75 1214
-460.938 -187.5 1193
-351.562 70.3125 954
-500 289.062 1193
-500 -203.125 1189
-429.688 289.062 1333
171.875 78.125 918
492.188 375 1259
-406.25 343.75 1264
-203.125 -125 920
-390.625 304.688 1333
-15.625 -140.625 908
195.312 -140.625 889
-375 -85.9375 989
85.9375 78.125 920
-250 -101.562 920
-7.8125 -320.312 1063
54.6875 -140.625 901
-46.875 -367.188 1141
-437.5 304.688 1297
-453.125 -85.9375 970
54.6875 78.125 923
-421.875 -85.9375 970
-375 273.438 1087
-54.6875 125 987
-359.375 -78.125 995
-296.875 31.25 975
-335.938 296.875 1322
-468.75 0 973
-23.4375 101.562 930
-31.25 -109.375 906
-500 -156.25 995
-421.875 93.75 956
-500 335.938 1193
-132.812 -210.938 1038
-429.688 -414.062 2883
-140.625 -359.375 984
351.562 -140.625 878
-406.25 -31.25 967
-351.562 351.562 1259
-390.625 -70.3125 975
-328.125 296.875 1328
54.6875 -335.938 1067
-210.938 -125 920
132.812 250 1757
125 195.312 1705
-328.125 320.312 1283
-460.938 140.625 1022
-429.688 296.875 1322
-351.562 328.125 1283
-117.188 -421.875 1189
-414.062 -289.062 3064
-437.5 -453.125 2835
31.25 125 978
-429.688 -296.875 3037
-312.5 320.312 1292
-164.062 -171.875 1019
-445.312 -421.875 2883
-429.688 -398.438 2908
-382.812 335.938 1264
-39.0625 -343.75 1145
-468.75 117.188 1007
-117.188 -226.562 1034
-70.3125 23.4375 956
-406.25 -250 3120
62.5 -140.625 901
-281.25 359.375 1219
-289.062 335.938 1250
-484.375 320.312 1273
109.375 78.125 918
-281.25 335.938 1245
-414.062 -273.438 3064
140.625 343.75 1421
296.875 -148.438 882
-210.938 -101.562 918
-148.438 -257.812 1019
-312.5 312.5 1302
-101.562 39.0625 970
-109.375 -320.312 998
-445.312 304.688 1302
-476.562 281.25 1094
-375 328.125 1264
-367.188 304.688 1322
148.438 -62.5 910
-468.75 304.688 1307
-453.125 335.938 1259
-414.062 320.312 1283
492.188 -328.125 1141
-359.375 335.938 1264
-296.875 343.75 1245
-414.062 -164.062 992
-351.562 359.375 1223
-320.312 93.75 948
132.812 15.625 943
-390.625 328.125 1278
265.625 7.8125 938
-421.875 320.312 1278
-328.125 -46.875 940
-343.75 351.562 1259
-234.375 39.0625 984
-421.875 -367.188 2958
-93.75 125 989
-179.688 -351.562 984
-7.8125 125 981
-85.9375 -242.188 1031
-62.5 23.4375 956
-140.625 -382.812 1157
-421.875 296.875 1322
-148.438 -46.875 935
-140.625 -203.125 1041
-335.938 -117.188 940
-148.438 -343.75 987
187.5 -132.812 889
-85.9375 -296.875 1010
-132.812 125 989
-140.625 -343.75 984
-117.188 -210.938 1041
-406.25 -242.188 3120
-453.125 46.875 992
39.0625 -343.75 1173
-375 -179.688 1019
-195.312 39.0625 978
-351.562 23.4375 1028
-414.062 -242.188 3120
-171.875 -187.5 1047
203.125 -187.5 984
-382.812 54.6875 978
-304.688 31.25 975
85.9375 125 975
-414.062 -31.25 964
-382.812 46.875 989
-476.562 31.25 984
234.375 -140.625 885
-312.5 359.375 1223
-93.75 -312.5 1001
-375 46.875 987
-250 39.0625 978
-304.688 320.312 1292
54.6875 -70.3125 913
-281.25 320.312 1138
-500 -31.25 984
-492.188 23.4375 978
-234.375 -210.938 1169
-273.438 359.375 1223
-343.75 242.188 1060
-437.5 296.875 1328
-62.5 -359.375 1141
-289.062 367.188 1219
468.75 296.875 1255
-289.062 359.375 1219
109.375 -218.75 998
-445.312 296.875 1322
109.375 -210.938 998
-500 250 1094
351.562 -171.875 882
-484.375 375 1464
85.9375 -218.75 1001
-31.25 23.4375 956
-484.375 31.25 981
-375 335.938 1264
-117.188 -195.312 1047
203.125 -148.438 889
-179.688 -171.875 1022
-429.688 -429.688 2835
-500 328.125 1189
195.312 -203.125 981
-476.562 312.5 1297
-367.188 -179.688 1047
-85.9375 320.312 1616
-289.062 343.75 1245
93.75 46.875 956
-296.875 54.6875 967
-367.188 -117.188 1007
-148.438 -320.312 992
-46.875 -343.75 1145
125 -234.375 995
-406.25 -234.375 3149
-468.75 312.5 1302
328.125 7.8125 930
-429.688 343.75 1236
-398.438 -101.562 1041
-179.688 -265.625 1013
281.25 7.8125 928
-164.062 -187.5 1044
-398.438 -132.812 987
-343.75 296.875 1328
-429.688 -148.438 987
-460.938 -117.188 970
-289.062 281.25 1084
-343.75 -101.562 923
406.25 -296.875 1210
-429.688 -406.25 2908
359.375 132.812 962
-375 351.562 1227
-390.625 343.75 1227
-406.25 304.688 1297
125 15.625 940
78.125 31.25 970
-468.75 273.438 1090
-101.562 429.688 1398
-421.875 -351.562 2984
-437.5 -109.375 962
429.688 382.812 1223
140.625 15.625 938
-375 304.688 1297
-429.688 -117.188 967
-421.875 -125 975
-203.125 -390.625 1185
-382.812 -179.688 1010
0 31.25 959
-359.375 15.625 1038
-414.062 -296.875 3064
-437.5 -335.938 2984
0 -117.188 901
-242.188 -101.562 918
-367.188 7.8125 992
-132.812 54.6875 954
-7.8125 46.875 959
-468.75 -343.75 3064
-210.938 -312.5 992
-156.25 -273.438 1010
328.125 226.562 1016
-312.5 39.0625 987
-140.625 -289.062 1004
15.625 62.5 935
-359.375 -117.188 930
-187.5 -343.75 984
-62.5 62.5 938
-101.562 117.188 984
-453.125 -445.312 1616
-218.75 39.0625 984
453.125 265.625 1022
-382.812 343.75 1227
-343.75 289.062 1328
-367.188 335.938 1264
-492.188 -187.5 1177
-429.688 320.312 1264
-101.562 414.062 1439
-468.75 -140.625 975
-468.75 171.875 1031
-414.062 -140.625 995
-226.562 -125 918
-335.938 289.062 1333
-148.438 -382.812 1149
-164.062 54.6875 959
-445.312 -429.688 2859
-85.9375 -281.25 1013
-148.438 46.875 970
-273.438 335.938 1141
-421.875 -93.75 1031
-437.5 -148.438 984
-492.188 -15.625 975
-445.312 398.438 1445
-85.9375 -398.438 1173
-367.188 359.375 1227
-140.625 -437.5 1181
-218.75 -125 915
132.812 421.875 1312
-265.625 359.375 1157
-179.688 -187.5 1047
-93.75 -390.625 1169
-140.625 -445.312 1173
-375 343.75 1227
-304.688 359.375 1223
-164.062 -343.75 984
445.312 390.625 1219
-453.125 343.75 1236
-437.5 -351.562 2958
-453.125 -140.625 981
-171.875 -421.875 1181
-382.812 304.688 1302
351.562 382.812 1232
23.4375 -140.625 894
-359.375 -125 940
-101.562 31.25 964
-132.812 -250 1022
-320.312 289.062 1328
15.625 -140.625 896
-421.875 -359.375 2984
-343.75 0 1007
-70.3125 78.125 928
-421.875 335.938 1264
-101.562 -109.375 908
203.125 -109.375 891
-359.375 359.375 1227
-320.312 335.938 1259
-492.188 289.062 1197
-437.5 -132.812 987
-382.812 351.562 1227
-492.188 250 1094
-414.062 -281.25 3064
-140.625 -398.438 1161
-203.125 -320.312 989
-390.625 -156.25 1004
-445.312 -203.125 1197
-437.5 -359.375 2958
-351.562 265.625 1084
-351.562 265.625 1084
-460.938 -132.812 981
-23.4375 273.438 1671
-359.375 328.125 1259
-335.938 351.562 1227
-351.562 -7.8125 1001
429.688 406.25 1223
-171.875 -234.375 1025
-195.312 343.75 1232
-445.312 -414.062 2908
257.812 -125 882
-312.5 335.938 1259
-453.125 335.938 1273
-429.688 -125 973
-93.75 414.062 1433
-265.625 -85.9375 923
-445.312 -375 2958
-39.0625 39.0625 973
-445.312 -437.5 2859
-296.875 312.5 1283
-429.688 23.4375 973
-460.938 312.5 1297
-242.188 414.062 1193
-382.812 109.375 1001
-304.688 -125 933
46.875 31.25 975
93.75 23.4375 943
-335.938 312.5 1288
-367.188 39.0625 989
-109.375 -195.312 1047
-15.625 31.25 959
179.688 406.25 1328
-54.6875 -367.188 1145
-421.875 0 970
-460.938 -85.9375 973
-414.062 320.312 1292
-406.25 -164.062 1001
359.375 414.062 1202
-54.6875 -335.938 1115
-62.5 -367.188 1145
-351.562 328.125 1259
195.312 -125 887
-328.125 -117.188 930
148.438 -265.625 984
93.75 234.375 1739
-312.5 289.062 1077
-429.688 -437.5 2859
-484.375 -148.438 981
140.625 31.25 967
-171.875 -132.812 915
-445.312 335.938 1259
-429.688 257.812 1087
445.312 414.062 1202
-46.875 -382.812 1138
-281.25 414.062 1427
-359.375 -132.812 1001
-85.9375 23.4375 956
-281.25 335.938 1255
414.062 -390.625 1153
-234.375 -125 923
-484.375 335.938 1236
-203.125 -375 987
-398.438 343.75 1232
-359.375 273.438 1084
-156.25 -132.812 913
-484.375 85.9375 962
-437.5 343.75 1232
-445.312 23.4375 970
437.5 382.812 1223
7.8125 -117.188 898
-195.312 -375 987
179.688 382.812 1322
-148.438 351.562 1550
-476.562 -132.812 978
-382.812 312.5 1297
-70.3125 234.375 1766
-453.125 101.562 959
-429.688 -445.312 2835
-367.188 -15.625 987
-359.375 -39.0625 987
-492.188 132.812 1028
-484.375 -125 975
46.875 -109.375 898
39.0625 78.125 920
-414.062 -62.5 964
-421.875 -375 2958
-78.125 23.4375 959
195.312 -148.438 885
-367.188 273.438 1084
-453.125 -31.25 962
-421.875 -250 3064
-289.062 312.5 1283
-429.688 328.125 1264
-320.312 -117.188 928
-437.5 265.625 1080
-335.938 -117.188 933
171.875 -148.438 885
-421.875 -343.75 3010
-445.312 101.562 959
-343.75 265.625 1080
-500 101.562 956
-210.938 39.0625 984
-453.125 -382.812 2908
-429.688 -343.75 2984
-359.375 70.3125 951
-398.438 -171.875 1007
-171.875 -343.75 981
367.188 390.625 1197
-429.688 -414.062 2883
-429.688 265.625 1090
-39.0625 -343.75 1087
101.562 375 1328
265.625 -140.625 880
-93.75 101.562 935
-296.875 359.375 1223
132.812 -132.812 887
304.688 -125 880
-343.75 -117.188 930
-437.5 101.562 956
-179.688 -343.75 981
-359.375 265.625 1084
-296.875 351.562 1250
-476.562 273.438 1094
-382.812 328.125 1264
-179.688 -132.812 918
-429.688 -421.875 2883
-437.5 -343.75 2984
-367.188 70.3125 951
-367.188 -54.6875 984
328.125 289.062 1063
-484.375 250 1094
-406.25 289.062 1333
-476.562 -31.25 975
-414.062 -304.688 3037
-132.812 -343.75 984
-500 -281.25 2301
-304.688 242.188 1057
-445.312 -132.812 984
-39.0625 234.375 1757
-117.188 218.75 1757
-406.25 351.562 1232
-468.75 -148.438 975
-289.062 273.438 1077
140.625 -171.875 938
367.188 390.625 1197
-304.688 296.875 1322
-343.75 351.562 1227
-414.062 296.875 1297
273.438 -156.25 887
257.812 -140.625 880
453.125 390.625 1223
-85.9375 -132.812 901
-187.5 -187.5 1047
-304.688 312.5 1292
-421.875 328.125 1264
-468.75 320.312 1278
-195.312 -125 913
-39.0625 335.938 1572
218.75 -226.562 948
-125 -335.938 987
-500 296.875 1193
109.375 15.625 940
-328.125 296.875 1322
-437.5 335.938 1259
-304.688 93.75 946
-289.062 343.75 1245
-93.75 -234.375 1031
-468.75 343.75 1236
-414.062 -296.875 3064
-101.562 46.875 964
-421.875 351.562 1227
-367.188 -70.3125 987
-476.562 320.312 1278
-492.188 -54.6875 1105
-289.062 93.75 946
-93.75 23.4375 962
-437.5 -156.25 987
-156.25 -257.812 1019
-304.688 148.438 1010
-429.688 343.75 1236
-414.062 351.562 1227
-148.438 -250 1022
-445.312 -125 973
-46.875 265.625 1696
-328.125 328.125 1264
-179.688 -382.812 1165
-320.312 296.875 1322
-195.312 -320.312 989
-117.188 78.125 933
-62.5 234.375 1766
-429.688 -125 973
-476.562 85.9375 959
-421.875 -367.188 2984
-429.688 -46.875 962
-453.125 398.438 1445
453.125 359.375 1189
-62.5 125 998
-328.125 351.562 1227
-367.188 304.688 1297
109.375 234.375 1739
-367.188 109.375 954
-414.062 -289.062 3064
-453.125 304.688 1307
-312.5 320.312 1292
-78.125 320.312 1601
-429.688 -429.688 2883
-312.5 156.25 1013
-39.0625 406.25 606
-429.688 -453.125 2835
46.875 -226.562 1101
-437.5 304.688 1297
-445.312 -398.438 2908
-54.6875 234.375 1766
125 242.188 1757
343.75 406.25 1227
15.625 117.188 928
85.9375 242.188 1739
-179.688 273.438 1370
-414.062 -242.188 3092
304.688 414.062 1141
367.188 390.625 1197
359.375 7.8125 928
-390.625 343.75 1227
-476.562 -148.438 975
132.812 -234.375 970
-335.938 343.75 1259
-429.688 -304.688 3064
-476.562 39.0625 1001
-179.688 375 1219
-46.875 23.4375 956
-445.312 -453.125 2859
-140.625 39.0625 978
-101.562 -382.812 978
-414.062 -93.75 1038
-328.125 312.5 1288
-429.688 0 967
-468.75 281.25 1333
-421.875 289.062 1333
375 273.438 1028
-390.625 -7.8125 975
-421.875 257.812 1090
-281.25 289.062 1105
-289.062 367.188 1219
-460.938 343.75 1232
-257.812 54.6875 964
-328.125 289.062 1333
-132.812 -351.562 981
-125 -414.062 1165
-312.5 46.875 981
-62.5 31.25 964
-351.562 359.375 1223
-39.0625 23.4375 956
-351.562 335.938 1255
-406.25 -250 3120
-445.312 304.688 1297
-468.75 164.062 1041
-23.4375 31.25 959
-421.875 -359.375 2984
-359.375 -125 940
-429.688 -359.375 2984
-156.25 -312.5 995
-296.875 320.312 1283
-335.938 351.562 1227
-398.438 289.062 1297
-406.25 320.312 1292
-265.625 359.375 1157
-421.875 -320.312 3037
-406.25 -242.188 3092
-289.062 335.938 1255
-7.8125 54.6875 946
-335.938 296.875 1328
-500 -39.0625 989
-54.6875 23.4375 956
-429.688 296.875 1302
-289.062 296.875 1317
-445.312 -140.625 981
312.5 390.625 1123
-453.125 23.4375 995
-500 218.75 1077
-429.688 -437.5 2859
-148.438 359.375 1193
-273.438 335.938 1141
-273.438 312.5 1126
-460.938 39.0625 998
-156.25 -304.688 998
-468.75 -39.0625 970
-500 328.125 1193
-250 265.625 1123
-390.625 -125 984
-46.875 234.375 1757
-328.125 117.188 998
-398.438 -125 984
-500 -304.688 2301
-289.062 375 1219
-468.75 312.5 1302
445.312 359.375 1219
39.0625 54.6875 946
-460.938 273.438 1087
421.875 406.25 1223
-453.125 210.938 1060
-351.562 273.438 1087
-382.812 312.5 1297
-312.5 343.75 1259
-148.438 -257.812 1019
-320.312 179.688 1031
-85.9375 54.6875 951
-70.3125 328.125 1601
-85.9375 -195.312 1038
-406.25 -101.562 1041
-437.5 -359.375 2958
-492.188 265.625 1094
-460.938 -140.625 978
-398.438 281.25 1084
70.3125 31.25 970
-281.25 367.188 1219
46.875 -140.625 896
-15.625 54.6875 948
-31.25 -343.75 1070
-320.312 -125 935
-210.938 -375 1193
-375 328.125 1259
-328.125 265.625 1077
-187.5 375 1219
-117.188 -406.25 1161
-429.688 -156.25 987
156.25 234.375 1739
-445.312 -421.875 2883
468.75 367.188 1433
-171.875 359.375 1219
-453.125 0 970
-296.875 343.75 1250
117.188 15.625 940
-421.875 359.375 1223
148.438 -234.375 967
-414.062 -250 3064
-242.188 39.0625 987
-101.562 -390.625 1165
-460.938 312.5 1297
-273.438 359.375 1219
406.25 -250 1223
-375 304.688 1297
-296.875 39.0625 987
-437.5 -367.188 2958
164.062 304.688 1445
-23.4375 -382.812 1134
-132.812 39.0625 978
-101.562 -234.375 1031
54.6875 -226.562 1101
-390.625 289.062 1333
0 -296.875 1073
-335.938 7.8125 967
70.3125 23.4375 948
187.5 -70.3125 908
-390.625 54.6875 973
-453.125 -351.562 3010
-117.188 54.6875 956
-140.625 -242.188 1025
-421.875 343.75 1241
-125 -328.125 992
320.312 273.438 1041
31.25 31.25 978
-406.25 31.25 1007
382.812 273.438 1028
-359.375 335.938 1259
-85.9375 31.25 962
-93.75 31.25 964
-468.75 23.4375 984
-359.375 242.188 1070
351.562 242.188 1016
414.062 -375 1153
-429.688 335.938 1264
70.3125 257.812 1757
-351.562 328.125 1259
-460.938 320.312 1278
-156.25 -382.812 1149
-242.188 -125 920
-265.625 -101.562 920
-164.062 -390.625 1161
-359.375 304.688 1297
-31.25 234.375 1757
-429.688 -312.5 3064
-468.75 -156.25 975
-187.5 -132.812 920
-78.125 101.562 933
-109.375 -390.625 1161
-398.438 -140.625 998
-429.688 -429.688 2883
-445.312 -148.438 981
-304.688 335.938 1255
-125 -195.312 1047
-375 70.3125 951
-421.875 -382.812 2958
-343.75 328.125 1259
-484.375 -398.438 3010
-304.688 359.375 1223
468.75 398.438 1214
-367.188 351.562 1227
-437.5 -148.438 984
-421.875 -375 2958
-492.188 296.875 1193
-375 312.5 1297
-156.25 -320.312 992
-164.062 -281.25 1007
-23.4375 -351.562 1134
257.812 -156.25 885
-382.812 -31.25 973
-312.5 -125 935
-351.562 7.8125 1044
-171.875 -375 981
-492.188 328.125 1193
-70.3125 -359.375 978
367.188 273.438 1028
390.625 -164.062 1273
-390.625 -39.0625 973
-406.25 -257.812 3120
-414.062 257.812 1087
-304.688 226.562 1050
-281.25 312.5 1126
-289.062 375 1219
7.8125 234.375 1757
-406.25 -234.375 3092
-414.062 -320.312 3064
-15.625 -320.312 1067
-15.625 -351.562 1138
-453.125 -78.125 970
-460.938 -132.812 981
-398.438 -132.812 987
-460.938 -31.25 964
-85.9375 -296.875 1010
-390.625 -203.125 1181
-390.625 343.75 1227
-437.5 0 964
-406.25 -132.812 987
-414.062 -312.5 3037
-296.875 359.375 1223
-359.375 343.75 1259
-484.375 -70.3125 1038
140.625 125 989
-406.25 -265.625 3120
-289.062 312.5 1283
-445.312 -445.312 2835
-117.188 -132.812 908
-7.8125 31.25 959
-312.5 335.938 1259
-398.438 23.4375 1019
-101.562 -132.812 906
-250 398.438 1181
-46.875 31.25 956
-437.5 -125 970
-429.688 -460.938 2835
250 -117.188 887
164.062 -265.625 984
-359.375 -117.188 930
-445.312 335.938 1259
328.125 421.875 1197
-445.312 -78.125 967
-195.312 -195.312 1044
-54.6875 -132.812 898
-406.25 281.25 1084
-250 -62.5 930
-296.875 312.5 1283
-437.5 320.312 1273
-210.938 398.438 1202
-429.688 -125 973
-398.438 351.562 1232
-15.625 273.438 1671
429.688 406.25 1223
-429.688 304.688 1297
-476.562 101.562 959
-468.75 -132.812 978
-476.562 250 1094
-414.062 -257.812 3037
-7.8125 234.375 1766
-492.188 85.9375 962
187.5 359.375 1354
-500 -101.562 1044
31.25 -140.625 894
421.875 -140.625 1259
-453.125 312.5 1307
-500 -312.5 2286
-421.875 -406.25 2933
-281.25 343.75 1245
-156.25 -109.375 913
-15.625 234.375 1766
-70.3125 31.25 964
-468.75 -85.9375 981
-460.938 85.9375 959
-390.625 304.688 1297
-171.875 -359.375 978
-429.688 93.75 959
-179.688 -375 981
-414.062 -304.688 3037
-390.625 -23.4375 967
-445.312 85.9375 956
-101.562 23.4375 962
-195.312 437.5 1250
343.75 343.75 1214
-453.125 -125 975
-359.375 85.9375 951
-15.625 -343.75 1060
-70.3125 -398.438 1193
-335.938 15.625 1031
-39.0625 -343.75 1087
-242.188 421.875 1202
101.562 15.625 943
-500 -23.4375 989
-328.125 351.562 1227
-273.438 367.188 1219
-406.25 -46.875 970
-335.938 78.125 946
-367.188 312.5 1297
-460.938 -78.125 970
-421.875 -390.625 2958
-460.938 -85.9375 973
-453.125 296.875 1312
-289.062 320.312 1283
-335.938 -125 943
-406.25 320.312 1292
-453.125 281.25 1338
-437.5 296.875 1312
-328.125 273.438 1080
429.688 414.062 1206
-398.438 320.312 1297
-179.688 -250 1019
-23.4375 234.375 1766
-351.562 109.375 954
-421.875 265.625 1094
117.188 -195.312 928
-78.125 -343.75 995
-437.5 335.938 1259
-421.875 -93.75 1031
39.0625 125 989
-429.688 -148.438 987
117.188 273.438 1663
-15.625 125 1001
-210.938 375 1241
-54.6875 265.625 1696
-31.25 -343.75 1070
-281.25 335.938 1255
-460.938 23.4375 987
-109.375 -382.812 978
-343.75 70.3125 948
234.375 -156.25 887
-406.25 -125 984
-429.688 -445.312 2835
-429.688 265.625 1090
-476.562 335.938 1236
-203.125 -187.5 1050
-179.688 -335.938 987
-164.062 -343.75 984
-70.3125 218.75 1757
54.6875 234.375 1748
-421.875 296.875 1302
-359.375 351.562 1227
-335.938 265.625 1080
-382.812 70.3125 951
-140.625 -265.625 1016
-375 -15.625 975
-273.438 93.75 946
-484.375 328.125 1268
-335.938 70.3125 946
-70.3125 23.4375 956
-179.688 -265.625 1013
-335.938 328.125 1259
-78.125 23.4375 959
312.5 281.25 1073
-125 -312.5 998
-171.875 -343.75 981
343.75 250 1016
-484.375 289.062 1338
-414.062 343.75 1245
-390.625 -171.875 1007
-132.812 -312.5 998
-46.875 234.375 1757
-296.875 335.938 1259
-476.562 289.062 1338
-414.062 -70.3125 973
-62.5 23.4375 956
-406.25 328.125 1264
-132.812 -445.312 1173
-179.688 -195.312 1047
-500 -148.438 978
-445.312 -203.125 1197
-453.125 -203.125 1177
-296.875 320.312 1283
-320.312 312.5 1288
-453.125 -406.25 2908
-62.5 -382.812 1141
109.375 273.438 1663
390.625 273.438 1025
335.938 -132.812 873
-171.875 -335.938 987
-367.188 304.688 1297
-320.312 296.875 1322
85.9375 234.375 1739
-414.062 -148.438 995
-289.062 359.375 1223
-93.75 -296.875 1007
-320.312 351.562 1227
-125 46.875 967
-382.812 -179.688 1010
257.812 -312.5 3037
359.375 -156.25 878
-39.0625 234.375 1757
-203.125 257.812 1322
46.875 234.375 1748
-421.875 101.562 959
-351.562 -117.188 930
-476.562 -390.625 2984
-85.9375 23.4375 956
-382.812 343.75 1227
-460.938 281.25 1338
-148.438 -437.5 1177
-343.75 359.375 1223
-406.25 -257.812 3120
-445.312 -375 2958
-15.625 -218.75 1094
-375 -109.375 989
-468.75 250 1094
-312.5 296.875 1322
-500 -304.688 2301
70.3125 234.375 1748
-390.625 312.5 1297
-85.9375 -203.125 1044
-359.375 304.688 1297
-62.5 234.375 1766
15.625 234.375 1757
-335.938 351.562 1227
-125 -289.062 1007
406.25 296.875 1227
-289.062 273.438 1077
70.3125 23.4375 948
-273.438 343.75 1145
-132.812 -195.312 1047
-203.125 -320.312 989
-31.25 398.438 1458
-351.562 -23.4375 995
117.188 234.375 1739
-414.062 -164.062 1001
250 398.438 1359
-429.688 296.875 1302
-429.688 320.312 1264
-421.875 343.75 1241
-398.438 -23.4375 964
-70.3125 234.375 1766
-93.75 -210.938 1038
-140.625 421.875 1255
-429.688 -437.5 2859
-31.25 125 1001
-390.625 -140.625 998
-445.312 351.562 1232
-148.438 -398.438 1157
-289.062 39.0625 984
-421.875 -31.25 964
78.125 234.375 1739
-140.625 -343.75 984
-421.875 -367.188 2984
-31.25 -234.375 1145
-406.25 -250 3120
437.5 406.25 1223
-460.938 -39.0625 962
234.375 -218.75 1054
109.375 343.75 1415
-367.188 335.938 1264
312.5 296.875 1077
-437.5 335.938 1259
-343.75 273.438 1084
-78.125 39.0625 970
-164.062 62.5 948
-468.75 335.938 1236
468.75 265.625 1019
-484.375 -93.75 1041
-460.938 -62.5 967
-46.875 -390.625 1141
492.188 406.25 1173
-328.125 70.3125 946
-54.6875 406.25 606
-406.25 351.562 1232
-390.625 289.062 1333
-421.875 -382.812 2958
-156.25 -390.625 1157
-335.938 273.438 1080
-7.8125 429.688 1404
-78.125 62.5 940
-453.125 -156.25 981
-367.188 -15.625 987
-320.312 273.438 1084
-125 -218.75 1034
46.875 -218.75 1077
-250 54.6875 964
-234.375 -125 923
-148.438 140.625 1680
-343.75 335.938 1259
-148.438 -296.875 1001
70.3125 23.4375 948
62.5 234.375 1748
0 234.375 1757
-421.875 -148.438 992
-484.375 296.875 1307
-445.312 0 967
-156.25 -343.75 984
-414.062 101.562 956
-367.188 46.875 975
-46.875 -375 1138
132.812 -171.875 940
-437.5 -375 2933
-148.438 164.062 1639
-187.5 -382.812 1165
-187.5 -320.312 987
-406.25 -281.25 3064
-156.25 -218.75 1034
-414.062 328.125 1268
-93.75 -218.75 1038
-304.688 70.3125 946
-351.562 335.938 1255
-148.438 78.125 935
460.938 335.938 1197
-406.25 101.562 954
-429.688 -460.938 2835
-445.312 343.75 1236
-203.125 39.0625 984
-109.375 23.4375 962
-39.0625 -375 1134
-7.8125 -343.75 1060
-328.125 -125 943
-406.25 257.812 1087
218.75 -187.5 964
-445.312 -453.125 2859
-468.75 -140.625 975
-453.125 312.5 1307
-109.375 -312.5 998
-195.312 -312.5 992
-281.25 312.5 1126
-429.688 -328.125 3010
-445.312 -460.938 2835
-250 -125 920
289.062 -125 880
-390.625 343.75 1227
-23.4375 -343.75 1063
-414.062 -125 981
-429.688 -312.5 3064
-414.062 304.688 1297
-484.375 -390.625 2984
-390.625 109.375 1004
-320.312 328.125 1288
187.5 31.25 964
-335.938 304.688 1288
-453.125 343.75 1236
-406.25 -156.25 995
-421.875 -351.562 2984
328.125 398.438 1094
-445.312 -156.25 987
39.0625 234.375 1748
-437.5 -125 970
-367.188 -132.812 1001
-414.062 -320.312 3064
492.188 101.562 896
-46.875 265.625 1696
156.25 31.25 964
-164.062 -382.812 1153
-437.5 -296.875 3064
460.938 359.375 1427
70.3125 23.4375 948
-304.688 335.938 1255
-140.625 -359.375 981
-140.625 187.5 1647
-289.062 312.5 1283
-414.062 -312.5 3037
-156.25 -382.812 1149
-320.312 289.062 1328
-429.688 304.688 1297
367.188 414.062 1206
-335.938 31.25 1004
-156.25 -367.188 981
-23.4375 -367.188 1134
-460.938 312.5 1297
-382.812 343.75 1227
-78.125 -398.438 1181
-125 -132.812 908
-476.562 -367.188 3064
-429.688 -93.75 1019
351.562 414.062 1227
-359.375 109.375 956
-203.125 -132.812 925
-398.438 320.312 1297
-367.188 343.75 1264
-39.0625 -398.438 1141
-312.5 70.3125 946
-132.812 -132.812 908
-414.062 296.875 1297
-453.125 273.438 1090
-390.625 -148.438 1001
-328.125 265.625 1077
-460.938 164.062 1041
-7.8125 273.438 1671
414.062 -335.938 1177
-273.438 281.25 1084
-93.75 23.4375 962
-437.5 0 964
-453.125 -195.312 1197
-343.75 328.125 1259
-23.4375 -406.25 2933
-304.688 296.875 1322
0 273.438 1671
-359.375 7.8125 1047
-445.312 312.5 1297
-312.5 312.5 1292
-242.188 -218.75 1189
-382.812 281.25 1090
-257.812 375 1169
-281.25 117.188 1001
-296.875 335.938 1259
-195.312 281.25 1307
-257.812 -125 923
-343.75 -125 938
-500 304.688 1193
-414.062 -328.125 3037
132.812 140.625 992
-54.6875 31.25 959
-476.562 -132.812 978
132.812 132.812 992
-281.25 320.312 1130
-304.688 289.062 1073
15.625 273.438 1663
-421.875 296.875 1302
-375 -179.688 1016
-484.375 171.875 1044
-406.25 -273.438 3092
-429.688 335.938 1264
-429.688 -453.125 2835
-195.312 421.875 1245
-484.375 62.5 964
-421.875 -398.438 2933
-476.562 296.875 1307
39.0625 31.25 975
-296.875 359.375 1223
-445.312 -148.438 981
-429.688 -164.062 987
187.5 -234.375 984
-406.25 -23.4375 964
-335.938 359.375 1223
-414.062 -156.25 995
46.875 273.438 1671
-320.312 351.562 1227
-437.5 -164.062 987
-62.5 46.875 962
-460.938 320.312 1278
-117.188 -421.875 1177
-375 343.75 1227
-187.5 382.812 1219
31.25 273.438 1663
-351.562 273.438 1087
-328.125 351.562 1227
-281.25 351.562 1245
-289.062 359.375 1223
-335.938 328.125 1259
203.125 -210.938 970
-398.438 -179.688 1007
-414.062 -265.625 3037
-406.25 -265.625 3120
101.562 273.438 1663
-351.562 70.3125 951
-484.375 328.125 1268
-304.688 289.062 1073
-289.062 320.312 1283
70.3125 273.438 2028
398.438 273.438 1016
-468.75 -359.375 3064
-312.5 289.062 1077
-15.625 -343.75 1060
-320.312 70.3125 946
398.438 -171.875 1273
171.875 -234.375 984
-296.875 265.625 1073
-460.938 187.5 1025
359.375 414.062 1202
-54.6875 -343.75 1115
-421.875 -390.625 2958
-406.25 -132.812 987
-179.688 382.812 1219
101.562 328.125 1439
-375 328.125 1259
-429.688 -304.688 3064
-101.562 -296.875 1004
-367.188 328.125 1259
-296.875 -93.75 923
-445.312 -164.062 987
-273.438 -93.75 923
-351.562 -54.6875 943
-460.938 -203.125 1185
-343.75 304.688 1292
460.938 390.625 1214
367.188 -140.625 873
-31.25 -359.375 1134
-179.688 -250 1019
117.188 328.125 1445
156.25 -250 984
-359.375 312.5 1297
-226.562 -125 918
15.625 -328.125 1057
23.4375 -140.625 894
-476.562 23.4375 981
-367.188 -54.6875 984
-382.812 289.062 1333
23.4375 234.375 1757
-328.125 328.125 1264
-468.75 23.4375 984
-406.25 328.125 1264
164.062 -148.438 885
31.25 234.375 1757
179.688 -148.438 889
-398.438 257.812 1087
-406.25 -93.75 975
-148.438 -210.938 1038
-343.75 -117.188 930
-375 15.625 1034
-148.438 -382.812 1149
-140.625 351.562 1550
320.312 328.125 1084
-351.562 359.375 1223
-179.688 -257.812 1016
62.5 -117.188 896
-289.062 335.938 1255
125 15.625 940
-85.9375 -351.562 987
-351.562 351.562 1227
-468.75 39.0625 998
-382.812 304.688 1302
140.625 -218.75 962
-421.875 -164.062 995
164.062 -218.75 959
-140.625 -257.812 1019
-367.188 312.5 1297
62.5 257.812 1766
-171.875 78.125 935
-46.875 132.812 995
-179.688 367.188 1219
-62.5 78.125 928
-195.312 93.75 943
-304.688 273.438 1073
-7.8125 234.375 1766
-328.125 273.438 1080
-437.5 23.4375 970
46.875 281.25 1671
-406.25 296.875 1297
132.812 -195.312 928
-359.375 281.25 1084
-164.062 -226.562 1028
-148.438 132.812 1010
46.875 125 989
-7.8125 -343.75 1060
-117.188 23.4375 962
-140.625 -304.688 998
-171.875 -390.625 1165
-281.25 367.188 1219
-406.25 23.4375 1022
-468.75 -31.25 970
-414.062 265.625 1087
437.5 78.125 898
-492.188 62.5 964
-445.312 273.438 1084
-414.062 343.75 1245
-398.438 -7.8125 973
-359.375 351.562 1227
-468.75 -406.25 2984
-304.688 -101.562 920
-320.312 265.625 1077
-296.875 70.3125 946
-148.438 -460.938 1181
93.75 273.438 1671
-265.625 367.188 1157
-453.125 -179.688 1193
-390.625 320.312 1302
132.812 320.312 1445
265.625 -296.875 1333
-445.312 320.312 1273
351.562 109.375 951
-304.688 351.562 1227
-15.625 -242.188 1126
-140.625 -460.938 1173
-15.625 273.438 1671
-429.688 312.5 1292
-453.125 -140.625 981
70.3125 250 1757
-335.938 273.438 1080
-492.188 -85.9375 1034
-437.5 -85.9375 962
-85.9375 46.875 967
-445.312 -125 973
-500 -320.312 2286
-289.062 343.75 1245
-39.0625 281.25 1671
-460.938 250 1090
-31.25 -343.75 1070
-335.938 109.375 954
-351.562 312.5 1292
375 390.625 1189
85.9375 46.875 948
-500 -312.5 2286
-109.375 23.4375 962
-492.188 -390.625 3010
-414.062 -328.125 3037
15.625 -140.625 896
-437.5 304.688 1297
7.8125 31.25 959
-351.562 -125 940
-304.688 312.5 1292
93.75 15.625 943
-375 312.5 1297
-125 -382.812 981
-281.25 320.312 1130
-437.5 335.938 1259
-31.25 234.375 1757
7.8125 234.375 1757
-132.812 351.562 1550
-500 273.438 1094
-359.375 304.688 1297
-15.625 234.375 1766
-429.688 335.938 1264
-414.062 -335.938 3037
-187.5 335.938 1232
-398.438 328.125 1264
-406.25 -257.812 3120
-171.875 148.438 1470
-46.875 234.375 1757
-281.25 359.375 1219
-179.688 -390.625 1165
-343.75 335.938 1259
70.3125 257.812 1757
-85.9375 78.125 930
-406.25 -171.875 1001
-375 -101.562 989
-445.312 281.25 1338
-39.0625 78.125 928
-398.438 351.562 1232
148.438 257.812 1680
117.188 15.625 940
-171.875 -382.812 1161
31.25 78.125 923
-406.25 -281.25 3064
-406.25 265.625 1084
-453.125 0 970
312.5 15.625 933
226.562 359.375 1464
-484.375 257.812 1094
-273.438 343.75 1145
-375 -15.625 975
-414.062 -273.438 3010
-85.9375 -289.062 1010
-375 320.312 1292
-85.9375 -296.875 1010
109.375 234.375 1739
-414.062 -132.812 987
-132.812 23.4375 964
46.875 234.375 1748
-421.875 85.9375 954
-390.625 351.562 1227
312.5 406.25 1080
-250 320.312 1130
-23.4375 -343.75 1063
-132.812 -250 1022
-453.125 -296.875 3149
-414.062 -320.312 3064
-187.5 -320.312 987
359.375 -85.9375 889
-468.75 289.062 1338
-156.25 -437.5 1181
-421.875 -398.438 2933
-484.375 -85.9375 1044
-164.062 -382.812 1153
-445.312 -382.812 2933
-312.5 351.562 1223
125 -179.688 938
-492.188 -156.25 975
-203.125 -187.5 1050
414.062 -148.438 1259
93.75 234.375 1739
-101.562 -210.938 1038
-148.438 -250 1022
-242.188 -234.375 1223
187.5 -148.438 887
492.188 351.562 1273
62.5 -226.562 1094
-39.0625 54.6875 948
-242.188 54.6875 967
-500 335.938 1197
-320.312 351.562 1227
-421.875 335.938 1264
-140.625 23.4375 964
-414.062 23.4375 1025
-492.188 -46.875 989
-468.75 31.25 989
132.812 15.625 938
-445.312 -117.188 967
-445.312 -171.875 1197
-445.312 312.5 1297
171.875 375 1338
-304.688 296.875 1322
179.688 -195.312 918
-500 93.75 956
-453.125 7.8125 981
-320.312 46.875 984
390.625 421.875 1202
-390.625 -109.375 987
437.5 414.062 1206
-359.375 328.125 1259
-398.438 -39.0625 970
-476.562 312.5 1278
-476.562 257.812 1094
-398.438 289.062 1297
-429.688 -93.75 1019
-140.625 -195.312 1047
-226.562 -117.188 915
-265.625 -125 923
-187.5 -109.375 913
-195.312 -328.125 987
-281.25 312.5 1126
-343.75 242.188 1067
-429.688 -343.75 2984
-164.062 -445.312 1185
-195.312 351.562 1227
-437.5 312.5 1297
-429.688 -125 973
-492.188 304.688 1193
-492.188 304.688 1193
476.562 312.5 1307
-195.312 382.812 1227
-398.438 320.312 1297
-281.25 296.875 1105
164.062 -265.625 984
7.8125 273.438 1671
-375 7.8125 987
-460.938 320.312 1278
-390.625 -117.188 987
-140.625 296.875 1586
476.562 398.438 1214
-375 -93.75 989
257.812 7.8125 935
-500 -156.25 978
-367.188 320.312 1297
-492.188 312.5 1193
148.438 335.938 1421
-70.3125 -140.625 903
-382.812 343.75 1227
-367.188 281.25 1084
-460.938 62.5 962
-476.562 156.25 1038
164.062 78.125 913
-23.4375 234.375 1766
23.4375 273.438 1663
-414.062 304.688 1297
-492.188 -265.625 2301
-140.625 -132.812 910
-156.25 -367.188 981
-7.8125 273.438 1671
-31.25 31.25 959
-453.125 343.75 1236
-367.188 31.25 1001
-359.375 -125 940
-328.125 359.375 1223
-195.312 367.188 1223
0 273.438 1671
-343.75 273.438 1084
-46.875 -390.625 1141
-210.938 -132.812 925
-304.688 289.062 1073
-15.625 -343.75 1060
-453.125 -148.438 981
-460.938 0 975
-281.25 343.75 1245
-468.75 257.812 1097
-140.625 31.25 967
-429.688 -328.125 3010
85.9375 273.438 2028
-476.562 31.25 989
-156.25 -171.875 1007
-109.375 -210.938 1038
109.375 15.625 940
-148.438 -164.062 984
125 31.25 967
-117.188 31.25 964
148.438 -171.875 933
-382.812 39.0625 995
-445.312 0 967
-421.875 320.312 1302
-187.5 -343.75 984
-23.4375 -281.25 1108
-171.875 -351.562 981
-492.188 335.938 1236
-109.375 46.875 967
-414.062 39.0625 998
-375 304.688 1297
-109.375 54.6875 956
414.062 -359.375 1169
54.6875 54.6875 943
-398.438 15.625 978
304.688 437.5 1149
-132.812 31.25 964
-132.812 31.25 964
-429.688 335.938 1264
-421.875 39.0625 998
-296.875 296.875 1322
-429.688 -320.312 3010
0 -343.75 1060
101.562 15.625 943
