ply
format ascii 1.0
comment Created by Open3D
element vertex 2430
property double x
property double y
property double z
end_header
78.125 -171.875 717
414.062 -117.188 690
101.562 -109.375 781
359.375 -23.4375 771
281.25 -195.312 744
312.5 -140.625 761
117.188 15.625 776
445.312 -398.438 727
125 -140.625 704
375 226.562 1398
-132.812 -460.938 2812
0 296.875 1421
351.562 203.125 935
304.688 -179.688 898
-39.0625 -195.312 847
406.25 -125 694
62.5 289.062 1392
218.75 367.188 1312
476.562 -281.25 759
375 -203.125 742
-242.188 312.5 1001
46.875 -140.625 785
78.125 -31.25 858
0 304.688 1392
-343.75 -414.062 2744
-265.625 406.25 1572
-7.8125 -109.375 843
257.812 -140.625 720
-132.812 -382.812 1193
-23.4375 304.688 1398
148.438 54.6875 769
367.188 -218.75 752
-132.812 328.125 1149
39.0625 296.875 1398
-367.188 -382.812 2812
54.6875 289.062 1392
-54.6875 304.688 1404
-421.875 140.625 811
164.062 -234.375 854
117.188 -140.625 704
351.562 -70.3125 811
265.625 -93.75 744
203.125 -70.3125 722
476.562 78.125 764
164.062 -93.75 744
210.938 242.188 959
320.312 304.688 1223
351.562 -78.125 800
-289.062 375 1601
-7.8125 -343.75 875
226.562 -140.625 719
421.875 117.188 774
328.125 -304.688 813
62.5 -140.625 767
156.25 203.125 875
281.25 117.188 767
437.5 -421.875 720
140.625 -250 871
125 -93.75 761
289.062 -93.75 742
429.688 46.875 783
359.375 -234.375 762
343.75 -70.3125 769
476.562 -125 690
203.125 23.4375 749
359.375 210.938 1161
320.312 367.188 1292
226.562 -281.25 780
-39.0625 -164.062 887
-7.8125 -351.562 875
85.9375 289.062 1415
15.625 273.438 967
78.125 -117.188 783
242.188 7.8125 738
-31.25 -195.312 790
296.875 -101.562 744
367.188 164.062 871
257.812 0 738
328.125 -7.8125 823
-359.375 -460.938 2618
273.438 -265.625 757
62.5 -93.75 845
242.188 -343.75 1019
93.75 -78.125 817
179.688 0 747
101.562 -156.25 708
226.562 -250 766
375 -62.5 739
218.75 -390.625 1080
23.4375 242.188 867
179.688 -15.625 744
187.5 -304.688 813
304.688 312.5 1169
93.75 54.6875 807
398.438 -148.438 707
226.562 -445.312 962
250 -117.188 716
460.938 -398.438 708
-62.5 -250 809
304.688 -171.875 739
296.875 -187.5 928
-39.0625 23.4375 841
-179.688 390.625 1157
31.25 -148.438 803
-250 -414.062 2883
234.375 -304.688 1054
125 -117.188 787
140.625 -140.625 704
125 23.4375 783
148.438 15.625 750
375 15.625 771
93.75 -281.25 896
132.812 39.0625 781
320.312 273.438 1084
171.875 -39.0625 744
117.188 -351.562 1115
132.812 -257.812 875
187.5 -218.75 742
226.562 7.8125 738
273.438 -257.812 757
250 -296.875 1019
312.5 -265.625 827
367.188 78.125 774
359.375 -437.5 925
367.188 7.8125 780
195.312 7.8125 746
242.188 257.812 1404
335.938 -273.438 790
390.625 -132.812 700
320.312 -15.625 759
101.562 -46.875 821
328.125 -296.875 809
-85.9375 -265.625 825
171.875 -23.4375 747
0 -70.3125 862
367.188 156.25 871
273.438 -171.875 736
398.438 -132.812 700
101.562 -351.562 860
234.375 -328.125 1057
-23.4375 -476.562 2812
328.125 -31.25 761
117.188 -265.625 885
320.312 -312.5 819
257.812 -421.875 923
343.75 -78.125 762
343.75 -265.625 785
273.438 -367.188 875
62.5 265.625 880
0 164.062 769
-421.875 132.812 815
-54.6875 -242.188 803
328.125 304.688 1223
296.875 -218.75 898
304.688 -164.062 736
335.938 -281.25 796
-78.125 -257.812 819
351.562 -62.5 811
484.375 -125 688
-93.75 312.5 1398
351.562 148.438 864
453.125 156.25 1365
-15.625 210.938 878
382.812 -187.5 731
335.938 -289.062 802
-296.875 242.188 891
257.812 234.375 959
109.375 -125 774
375 -179.688 728
468.75 -125 690
-218.75 -359.375 1193
-85.9375 -468.75 2812
210.938 31.25 754
226.562 0 736
-15.625 -85.9375 869
70.3125 296.875 1392
226.562 -343.75 1084
-203.125 265.625 930
343.75 -273.438 790
-500 -414.062 1904
406.25 -132.812 700
0 -125 843
289.062 226.562 959
406.25 -15.625 730
-171.875 398.438 1181
-125 179.688 774
226.562 -375 1057
23.4375 398.438 1317
312.5 -164.062 880
382.812 -132.812 703
125 -335.938 847
398.438 31.25 778
-23.4375 -335.938 871
39.0625 156.25 769
445.312 -406.25 725
101.562 -164.062 720
-46.875 164.062 773
164.062 -132.812 723
335.938 -125 757
179.688 -304.688 823
281.25 257.812 1101
203.125 15.625 744
390.625 210.938 1410
265.625 -117.188 719
351.562 -257.812 780
351.562 156.25 871
320.312 -320.312 827
320.312 15.625 813
179.688 -226.562 847
257.812 -62.5 730
234.375 -359.375 992
156.25 273.438 1410
210.938 273.438 1387
148.438 -39.0625 755
226.562 -289.062 781
328.125 -46.875 761
-203.125 257.812 923
187.5 -125 716
-39.0625 -210.938 790
39.0625 -359.375 887
117.188 7.8125 769
195.312 -70.3125 723
148.438 54.6875 769
132.812 281.25 1392
7.8125 273.438 967
351.562 -164.062 759
-210.938 351.562 1067
328.125 109.375 766
226.562 -140.625 719
375 -203.125 742
421.875 -101.562 683
117.188 -101.562 761
-62.5 171.875 771
468.75 -281.25 759
289.062 281.25 1115
-312.5 -421.875 2812
437.5 -117.188 687
-7.8125 -101.562 845
70.3125 -125 780
-421.875 125 819
-156.25 335.938 1077
312.5 -179.688 882
23.4375 -156.25 803
210.938 -382.812 1112
140.625 -242.188 873
242.188 -312.5 1047
156.25 187.5 873
250 359.375 1312
117.188 15.625 776
148.438 15.625 750
-132.812 304.688 978
367.188 -85.9375 755
15.625 304.688 1398
320.312 -164.062 860
54.6875 -109.375 839
218.75 -148.438 722
85.9375 -171.875 717
359.375 226.562 1157
351.562 -250 774
367.188 -210.938 746
390.625 -164.062 719
148.438 187.5 873
187.5 -78.125 720
320.312 -148.438 864
-31.25 -234.375 796
203.125 242.188 959
218.75 -46.875 723
445.312 -117.188 686
210.938 0 738
156.25 -304.688 829
164.062 62.5 767
203.125 -296.875 794
218.75 -304.688 1050
476.562 93.75 766
-296.875 312.5 1671
351.562 -234.375 766
421.875 164.062 1439
156.25 -328.125 1087
70.3125 -179.688 723
328.125 -125 757
226.562 -39.0625 727
195.312 93.75 780
304.688 -156.25 734
46.875 -39.0625 867
179.688 -23.4375 744
-31.25 -148.438 854
187.5 -23.4375 736
93.75 -164.062 711
273.438 -171.875 736
390.625 -171.875 722
-54.6875 171.875 771
-31.25 304.688 1398
-93.75 -468.75 2812
203.125 265.625 978
195.312 7.8125 746
492.188 -125 684
226.562 -117.188 713
31.25 -367.188 887
375 -195.312 736
359.375 -242.188 767
203.125 23.4375 749
226.562 -414.062 1028
406.25 234.375 1381
296.875 -367.188 867
453.125 -414.062 710
109.375 226.562 875
140.625 15.625 750
-250 -398.438 2908
85.9375 -125 771
335.938 -23.4375 764
304.688 273.438 1084
265.625 -23.4375 733
289.062 328.125 1197
39.0625 -70.3125 887
-7.8125 -70.3125 869
140.625 -250 871
375 -187.5 731
-226.562 218.75 871
148.438 -320.312 839
132.812 -140.625 704
125 23.4375 783
304.688 -203.125 894
31.25 242.188 869
-429.688 203.125 780
304.688 -351.562 854
492.188 -320.312 734
304.688 -31.25 749
117.188 -117.188 787
226.562 -62.5 730
343.75 -93.75 759
132.812 -7.8125 755
421.875 -93.75 682
140.625 281.25 1392
179.688 -15.625 744
367.188 281.25 1354
-429.688 195.312 780
375 -23.4375 762
-117.188 289.062 975
140.625 46.875 776
117.188 -343.75 854
62.5 -101.562 839
414.062 -109.375 687
-281.25 265.625 923
312.5 -335.938 841
265.625 -187.5 744
-31.25 -242.188 796
-39.0625 -148.438 856
382.812 0 750
7.8125 296.875 1404
54.6875 -31.25 858
156.25 23.4375 750
367.188 -7.8125 774
187.5 -7.8125 744
171.875 46.875 757
257.812 -304.688 984
-7.8125 -78.125 864
343.75 -46.875 764
164.062 250 964
257.812 -187.5 728
62.5 -367.188 885
203.125 39.0625 757
171.875 -320.312 1077
132.812 -93.75 759
-39.0625 -171.875 882
156.25 -320.312 831
273.438 -164.062 733
132.812 -343.75 1105
0 -101.562 843
429.688 -117.188 688
187.5 54.6875 766
390.625 226.562 1404
195.312 132.812 766
-203.125 -445.312 2812
265.625 -179.688 738
-210.938 242.188 896
-54.6875 281.25 967
101.562 -265.625 898
164.062 31.25 750
-23.4375 -195.312 785
343.75 -85.9375 761
-39.0625 -476.562 2789
250 -54.6875 730
273.438 -210.938 731
109.375 -265.625 889
164.062 -31.25 749
367.188 -226.562 755
351.562 -101.562 796
484.375 -273.438 762
398.438 109.375 766
195.312 46.875 757
296.875 242.188 967
179.688 -226.562 847
-39.0625 281.25 973
359.375 -93.75 790
359.375 -101.562 790
226.562 -351.562 1077
296.875 46.875 798
78.125 -367.188 875
218.75 -234.375 755
328.125 -148.438 759
-62.5 -250 809
390.625 -156.25 714
70.3125 265.625 967
335.938 -125 757
-218.75 -406.25 2908
468.75 210.938 1365
-234.375 210.938 783
-70.3125 375 1349
-7.8125 70.3125 813
351.562 -62.5 811
15.625 -62.5 885
312.5 70.3125 783
-39.0625 -31.25 871
265.625 -398.438 901
-171.875 -453.125 2812
0 -218.75 781
109.375 -273.438 887
39.0625 -140.625 800
382.812 -140.625 706
-70.3125 -257.812 811
140.625 15.625 750
-7.8125 242.188 873
203.125 -390.625 1141
359.375 203.125 935
304.688 -304.688 823
250 -15.625 731
148.438 0 752
117.188 -15.625 766
171.875 -23.4375 747
54.6875 -148.438 771
351.562 -117.188 785
-31.25 -187.5 843
476.562 -304.688 744
351.562 -257.812 780
140.625 -15.625 755
140.625 -257.812 867
-23.4375 -343.75 878
117.188 -265.625 885
351.562 -148.438 762
312.5 -7.8125 749
93.75 -367.188 1138
242.188 -125 714
218.75 -367.188 1094
250 -328.125 1004
171.875 -7.8125 747
375 -78.125 731
171.875 -304.688 823
351.562 -85.9375 800
-46.875 -234.375 800
359.375 -203.125 742
148.438 -218.75 864
125 -257.812 880
117.188 257.812 967
117.188 0 766
-39.0625 -242.188 803
-203.125 -257.812 1073
226.562 -335.938 1077
-210.938 250 913
382.812 31.25 776
296.875 -148.438 752
359.375 -85.9375 790
164.062 210.938 906
132.812 31.25 781
0 -70.3125 862
156.25 250 964
320.312 -140.625 759
398.438 -156.25 713
242.188 0 736
132.812 -257.812 875
320.312 -148.438 864
226.562 -242.188 759
31.25 296.875 1398
171.875 -85.9375 741
265.625 62.5 792
-117.188 179.688 774
218.75 -62.5 727
351.562 140.625 854
445.312 -421.875 717
375 -31.25 755
437.5 101.562 764
132.812 39.0625 781
54.6875 -117.188 789
296.875 -195.312 918
132.812 -31.25 769
281.25 351.562 1259
328.125 -132.812 757
46.875 -125 796
406.25 -132.812 700
109.375 -460.938 2859
304.688 -187.5 856
-31.25 -250 871
359.375 195.312 923
0 -179.688 766
-156.25 -375 1189
210.938 -70.3125 723
359.375 -109.375 769
-140.625 -460.938 2812
289.062 -398.438 898
-15.625 -117.188 845
-15.625 -85.9375 869
335.938 -39.0625 762
414.062 -46.875 707
289.062 -62.5 736
156.25 23.4375 750
156.25 218.75 869
320.312 -109.375 757
-164.062 414.062 1214
265.625 -109.375 754
437.5 -109.375 683
382.812 -179.688 728
343.75 -101.562 821
367.188 -70.3125 744
-39.0625 -101.562 915
203.125 15.625 744
375 140.625 851
-62.5 -265.625 849
273.438 320.312 1193
359.375 335.938 1307
468.75 15.625 773
335.938 -31.25 761
328.125 -140.625 759
70.3125 -375 1149
375 7.8125 764
414.062 -117.188 690
-15.625 242.188 873
156.25 -242.188 860
328.125 -304.688 813
312.5 328.125 1189
-39.0625 -218.75 796
250 -296.875 1019
-31.25 -117.188 867
351.562 7.8125 813
210.938 -398.438 1108
476.562 -406.25 682
335.938 -54.6875 767
85.9375 -359.375 869
281.25 250 967
359.375 187.5 889
273.438 -382.812 882
429.688 140.625 1433
289.062 242.188 962
375 -210.938 746
-125 289.062 973
406.25 187.5 1421
62.5 289.062 1392
210.938 -382.812 1112
304.688 -203.125 894
-39.0625 70.3125 817
-281.25 210.938 789
468.75 23.4375 780
148.438 -39.0625 755
328.125 -250 789
125 23.4375 783
-148.438 343.75 1087
-164.062 406.25 1202
-109.375 406.25 1245
203.125 -78.125 717
-31.25 -156.25 854
179.688 -15.625 744
265.625 -406.25 908
312.5 -31.25 752
257.812 -312.5 984
445.312 -390.625 731
281.25 -85.9375 738
-101.562 421.875 1278
0 296.875 1421
179.688 -7.8125 747
328.125 -257.812 789
62.5 -132.812 776
289.062 -210.938 938
23.4375 296.875 1398
-23.4375 -101.562 878
203.125 0 739
140.625 -328.125 839
390.625 -171.875 722
171.875 -234.375 851
218.75 -398.438 1073
304.688 -179.688 898
-7.8125 164.062 771
78.125 -93.75 829
382.812 -15.625 742
-312.5 -382.812 2883
421.875 -109.375 686
-195.312 273.438 946
-70.3125 -257.812 811
398.438 15.625 761
-421.875 148.438 807
312.5 -187.5 856
148.438 273.438 1404
117.188 -93.75 800
164.062 -31.25 749
250 265.625 1381
234.375 7.8125 738
359.375 273.438 1359
78.125 -39.0625 862
406.25 -140.625 703
367.188 -226.562 755
195.312 265.625 978
101.562 -148.438 707
242.188 -46.875 728
304.688 265.625 1077
242.188 257.812 1404
296.875 -375 873
140.625 -46.875 762
187.5 -7.8125 744
46.875 -156.25 766
445.312 -398.438 727
62.5 -375 1149
312.5 62.5 789
-250 -46.875 908
-109.375 179.688 774
476.562 -296.875 749
476.562 -109.375 683
15.625 -164.062 803
-140.625 359.375 1119
398.438 -140.625 701
109.375 -109.375 787
85.9375 -117.188 781
132.812 -335.938 845
296.875 -171.875 739
226.562 265.625 1387
117.188 23.4375 787
312.5 -117.188 755
-226.562 -367.188 1189
-421.875 156.25 802
320.312 -328.125 833
335.938 -78.125 762
-359.375 -437.5 2680
320.312 -125 759
187.5 132.812 766
367.188 164.062 871
-414.062 70.3125 849
-54.6875 304.688 1404
257.812 -187.5 728
-46.875 312.5 1398
78.125 -281.25 906
148.438 -125 704
390.625 250 1354
320.312 -273.438 794
351.562 -46.875 815
-398.438 -445.312 2789
46.875 -132.812 792
312.5 -328.125 835
-421.875 140.625 811
187.5 -218.75 742
335.938 -296.875 807
-398.438 -39.0625 920
171.875 -312.5 823
156.25 140.625 766
125 -148.438 706
85.9375 148.438 767
125 -54.6875 776
109.375 -359.375 1126
23.4375 304.688 1398
304.688 -148.438 752
289.062 -343.75 856
0 -101.562 843
390.625 -109.375 693
289.062 -382.812 885
-31.25 -210.938 790
304.688 -109.375 750
304.688 328.125 1189
226.562 -156.25 725
476.562 -93.75 682
328.125 -312.5 821
328.125 31.25 803
296.875 -226.562 894
453.125 -125 690
343.75 -273.438 790
343.75 -109.375 821
289.062 7.8125 749
250 -445.312 948
148.438 -148.438 706
343.75 -281.25 796
445.312 -375 738
421.875 -85.9375 683
312.5 -171.875 878
0 242.188 873
-421.875 -375 2040
179.688 23.4375 750
398.438 -156.25 713
335.938 117.188 766
78.125 -367.188 875
289.062 -375 875
375 -85.9375 706
54.6875 -101.562 845
203.125 15.625 744
320.312 -140.625 759
93.75 -156.25 708
421.875 -78.125 684
132.812 -7.8125 755
78.125 -375 1145
328.125 -148.438 759
367.188 -15.625 773
250 -93.75 749
117.188 -7.8125 766
156.25 15.625 750
335.938 -23.4375 764
203.125 -117.188 711
140.625 -250 871
132.812 15.625 754
109.375 -117.188 783
265.625 -179.688 738
429.688 132.812 1452
78.125 289.062 1415
445.312 -367.188 739
476.562 -125 690
93.75 -359.375 867
148.438 23.4375 750
-62.5 312.5 1392
320.312 109.375 767
195.312 -218.75 746
414.062 109.375 767
359.375 -31.25 817
257.812 -429.688 930
-421.875 164.062 798
93.75 -367.188 1138
210.938 -296.875 785
-15.625 -203.125 783
-46.875 281.25 964
250 31.25 744
171.875 -93.75 744
54.6875 234.375 869
414.062 -125 694
-226.562 226.562 878
382.812 -140.625 706
156.25 -234.375 867
390.625 7.8125 754
-39.0625 -226.562 796
195.312 0 742
179.688 -39.0625 736
242.188 7.8125 738
257.812 7.8125 739
359.375 -242.188 767
296.875 -7.8125 747
109.375 -70.3125 807
132.812 -242.188 880
-15.625 -187.5 827
296.875 -359.375 858
-132.812 -460.938 2812
296.875 -367.188 864
414.062 -39.0625 713
234.375 -296.875 778
382.812 -195.312 734
-460.938 -187.5 2485
85.9375 -171.875 713
398.438 203.125 1404
109.375 -265.625 896
226.562 -125 713
125 7.8125 769
7.8125 -70.3125 867
328.125 312.5 1236
156.25 0 749
359.375 101.562 764
70.3125 -171.875 720
-23.4375 -101.562 878
132.812 31.25 785
-437.5 -460.938 1915
-85.9375 -273.438 825
-31.25 -117.188 871
320.312 -132.812 759
226.562 -351.562 1084
257.812 0 736
296.875 257.812 1070
343.75 -125 829
406.25 -140.625 700
-296.875 -351.562 1193
54.6875 -187.5 731
78.125 390.625 1312
117.188 -15.625 769
171.875 -156.25 703
382.812 -148.438 711
265.625 -296.875 978
156.25 62.5 789
171.875 -234.375 854
109.375 257.812 962
-125 -460.938 2812
414.062 117.188 773
-7.8125 -117.188 841
-273.438 195.312 773
210.938 -117.188 710
429.688 164.062 1433
46.875 -109.375 854
210.938 -359.375 1105
367.188 -421.875 903
195.312 -156.25 703
-15.625 -93.75 875
250 234.375 962
335.938 109.375 764
304.688 281.25 1112
390.625 -179.688 723
-460.938 187.5 1863
234.375 23.4375 742
351.562 -109.375 807
-46.875 -125 869
343.75 234.375 1153
234.375 -335.938 1067
23.4375 -203.125 755
203.125 265.625 1392
125 -343.75 849
234.375 -367.188 1007
195.312 390.625 1292
148.438 -250 867
382.812 -31.25 752
351.562 148.438 864
367.188 -62.5 792
250 -328.125 1013
203.125 7.8125 744
398.438 -164.062 713
-250 -437.5 2812
375 -210.938 742
-234.375 320.312 1007
414.062 203.125 1410
421.875 101.562 764
-218.75 226.562 871
320.312 -171.875 882
210.938 23.4375 747
218.75 0 738
335.938 -15.625 750
484.375 203.125 1297
156.25 54.6875 773
367.188 -195.312 736
257.812 -312.5 956
234.375 -39.0625 725
234.375 -140.625 713
351.562 -265.625 781
328.125 -15.625 750
109.375 -273.438 891
54.6875 289.062 1398
132.812 -257.812 878
367.188 101.562 764
-15.625 -234.375 785
171.875 -15.625 747
132.812 23.4375 783
250 0 736
7.8125 46.875 819
-140.625 312.5 1141
382.812 156.25 1470
-281.25 -429.688 2789
-195.312 265.625 925
148.438 -242.188 871
390.625 195.312 1421
351.562 -54.6875 762
195.312 0 742
78.125 -62.5 873
265.625 -257.812 755
-210.938 -445.312 2812
140.625 -62.5 767
273.438 -117.188 754
296.875 -226.562 913
218.75 -54.6875 723
320.312 -101.562 749
421.875 210.938 1398
-23.4375 -109.375 875
54.6875 -140.625 789
-296.875 367.188 1609
70.3125 -226.562 873
312.5 234.375 962
101.562 -109.375 780
210.938 273.438 1381
-382.812 -414.062 2723
-273.438 390.625 1586
156.25 -226.562 867
-289.062 -421.875 2812
-195.312 -375 1193
445.312 -304.688 776
367.188 -234.375 757
-39.0625 -226.562 794
210.938 -375 1119
156.25 375 1312
140.625 -148.438 701
242.188 -171.875 731
109.375 -351.562 860
421.875 125 773
250 7.8125 736
312.5 -156.25 898
359.375 132.812 773
218.75 -367.188 1105
0 210.938 875
476.562 -281.25 759
328.125 -195.312 800
242.188 -140.625 716
0 -117.188 839
390.625 -148.438 706
429.688 125 1477
-15.625 210.938 873
101.562 -281.25 894
421.875 93.75 762
304.688 -359.375 856
382.812 -23.4375 750
351.562 23.4375 800
390.625 156.25 1452
-23.4375 -203.125 780
-273.438 -429.688 2789
367.188 -164.062 754
156.25 -39.0625 754
210.938 -78.125 716
390.625 -117.188 700
304.688 -23.4375 744
382.812 -15.625 750
203.125 242.188 956
226.562 -70.3125 728
273.438 234.375 962
250 242.188 970
-54.6875 -265.625 847
351.562 0 813
-156.25 -453.125 2812
226.562 -382.812 1073
210.938 -226.562 747
343.75 -78.125 767
437.5 -320.312 780
234.375 -382.812 995
0 -218.75 778
312.5 -343.75 843
351.562 -93.75 774
367.188 -218.75 750
93.75 -281.25 898
140.625 -85.9375 755
-78.125 -468.75 2812
335.938 -31.25 757
304.688 -187.5 741
-23.4375 -234.375 790
-398.438 -382.812 2958
203.125 0 741
-85.9375 -281.25 833
132.812 -46.875 776
257.812 -54.6875 727
148.438 140.625 762
445.312 -312.5 774
156.25 187.5 873
343.75 171.875 891
-31.25 -210.938 783
296.875 -93.75 739
140.625 46.875 783
-70.3125 -281.25 839
-46.875 -257.812 802
343.75 -281.25 790
289.062 46.875 796
0 -93.75 845
-23.4375 46.875 821
-15.625 -398.438 1185
0 -234.375 781
289.062 -210.938 943
-31.25 -164.062 889
-226.562 328.125 1019
-78.125 -265.625 819
70.3125 -101.562 835
242.188 -195.312 720
281.25 -234.375 742
343.75 -46.875 762
273.438 -203.125 731
117.188 0 776
289.062 250 959
242.188 257.812 1404
46.875 289.062 1392
367.188 -7.8125 809
132.812 -31.25 766
343.75 -39.0625 757
375 -187.5 730
125 -265.625 880
148.438 54.6875 780
421.875 250 1354
179.688 -39.0625 742
296.875 -390.625 885
156.25 7.8125 749
335.938 -132.812 843
429.688 210.938 1387
-140.625 296.875 973
421.875 -117.188 687
-70.3125 -257.812 815
-343.75 -390.625 2789
117.188 -421.875 1181
242.188 -351.562 987
171.875 -132.812 722
414.062 -125 690
140.625 39.0625 781
0 -78.125 860
414.062 39.0625 787
140.625 -93.75 755
31.25 -406.25 1185
-31.25 -117.188 871
468.75 -117.188 683
171.875 -234.375 854
-7.8125 210.938 873
375 23.4375 798
148.438 -15.625 754
-85.9375 -289.062 837
101.562 -164.062 708
218.75 265.625 1392
31.25 -367.188 882
343.75 187.5 913
-109.375 -31.25 875
335.938 -296.875 803
414.062 -31.25 719
117.188 -31.25 762
117.188 -31.25 762
187.5 54.6875 757
125 -351.562 1112
296.875 304.688 1157
375 -39.0625 778
62.5 -273.438 903
93.75 -117.188 781
210.938 23.4375 747
54.6875 265.625 878
343.75 -85.9375 769
382.812 -39.0625 755
390.625 148.438 1464
187.5 -304.688 819
179.688 -23.4375 746
281.25 -171.875 731
0 -109.375 839
125 -23.4375 762
320.312 -156.25 880
312.5 -195.312 885
-46.875 -476.562 2789
-7.8125 -351.562 873
125 15.625 781
117.188 -7.8125 769
-195.312 367.188 1094
-226.562 210.938 780
-406.25 23.4375 875
210.938 -406.25 1097
171.875 -226.562 858
93.75 -23.4375 847
398.438 -164.062 713
109.375 -164.062 706
242.188 7.8125 736
85.9375 -179.688 719
273.438 -179.688 736
343.75 -117.188 829
140.625 -117.188 757
218.75 -398.438 1080
-234.375 -367.188 1185
171.875 70.3125 790
156.25 218.75 867
203.125 7.8125 744
148.438 -250 867
210.938 0 739
390.625 -179.688 723
226.562 -148.438 717
-476.562 -359.375 2958
-7.8125 -117.188 841
-70.3125 -273.438 825
-250 296.875 967
445.312 -359.375 754
164.062 62.5 769
-23.4375 -242.188 790
31.25 156.25 767
359.375 -78.125 803
367.188 -203.125 741
367.188 -234.375 757
117.188 -109.375 787
304.688 62.5 789
117.188 -343.75 860
-7.8125 -140.625 843
382.812 7.8125 769
367.188 -15.625 803
93.75 -70.3125 825
-203.125 359.375 1084
-351.562 -390.625 2789
-7.8125 -85.9375 869
343.75 -62.5 764
-218.75 234.375 887
-23.4375 -109.375 875
-226.562 218.75 867
39.0625 -148.438 794
117.188 -273.438 885
335.938 226.562 967
453.125 -109.375 682
265.625 -273.438 762
-203.125 257.812 918
414.062 187.5 1421
304.688 -210.938 901
382.812 125 774
187.5 -226.562 841
164.062 -242.188 858
62.5 -109.375 790
265.625 -281.25 767
101.562 -351.562 864
328.125 -187.5 798
359.375 -23.4375 823
-54.6875 -203.125 989
140.625 -109.375 757
328.125 -281.25 796
210.938 -304.688 1054
195.312 242.188 956
460.938 -406.25 713
406.25 -148.438 706
46.875 -265.625 901
15.625 -140.625 845
281.25 -382.812 880
179.688 -312.5 817
257.812 -289.062 769
101.562 281.25 1410
179.688 -85.9375 738
-23.4375 -46.875 875
31.25 -156.25 803
312.5 -179.688 891
304.688 -101.562 742
375 140.625 854
-23.4375 -101.562 878
320.312 -195.312 856
398.438 -125 696
93.75 148.438 764
-7.8125 -125 841
-54.6875 -250 805
375 -218.75 749
328.125 -156.25 862
289.062 -382.812 880
195.312 -23.4375 736
351.562 -265.625 781
375 148.438 854
101.562 -273.438 898
429.688 -101.562 680
-7.8125 -109.375 843
375 7.8125 785
132.812 382.812 1312
468.75 -109.375 680
250 -335.938 1013
257.812 -101.562 750
125 -343.75 849
-54.6875 -476.562 2789
148.438 195.312 878
328.125 -312.5 815
-257.812 414.062 1564
359.375 -39.0625 813
148.438 39.0625 776
-148.438 312.5 1041
382.812 -156.25 714
78.125 -125 774
351.562 -125 796
-7.8125 296.875 1381
125 -421.875 1181
62.5 -375 885
-93.75 -468.75 2812
195.312 -125 713
226.562 -93.75 711
367.188 171.875 894
-289.062 257.812 906
289.062 335.938 1219
445.312 -351.562 762
265.625 -406.25 903
367.188 132.812 773
429.688 -93.75 679
140.625 -7.8125 754
382.812 242.188 1392
242.188 -320.312 1013
-7.8125 -78.125 869
335.938 -140.625 845
-500 -78.125 2271
70.3125 -375 882
148.438 7.8125 749
156.25 15.625 749
156.25 -125 727
476.562 125 1410
273.438 312.5 1210
54.6875 -375 887
195.312 -7.8125 741
343.75 -132.812 821
359.375 203.125 925
367.188 -23.4375 798
156.25 -109.375 755
328.125 -148.438 864
-406.25 -335.938 2090
-281.25 257.812 908
7.8125 -70.3125 867
210.938 23.4375 747
242.188 234.375 962
179.688 -320.312 1067
390.625 -85.9375 701
390.625 0 754
398.438 195.312 1415
62.5 -179.688 725
54.6875 -125 796
335.938 -289.062 798
164.062 54.6875 762
429.688 101.562 764
234.375 -398.438 1007
265.625 -148.438 719
234.375 -367.188 1007
156.25 250 964
406.25 -125 691
226.562 125 764
437.5 171.875 1421
156.25 195.312 878
250 -421.875 928
382.812 -70.3125 738
257.812 -85.9375 738
226.562 -445.312 1010
148.438 46.875 776
187.5 -15.625 742
-15.625 -195.312 774
-351.562 -398.438 2767
0 -109.375 839
-85.9375 -281.25 833
-54.6875 -257.812 807
320.312 -328.125 829
414.062 -132.812 696
390.625 -125 700
257.812 257.812 1153
414.062 164.062 1439
312.5 -7.8125 747
85.9375 289.062 1392
7.8125 -125 839
0 -78.125 860
281.25 -218.75 736
140.625 -78.125 759
335.938 -70.3125 761
140.625 218.75 869
257.812 242.188 973
132.812 -257.812 878
382.812 -203.125 738
62.5 265.625 964
179.688 -23.4375 746
-46.875 -242.188 802
234.375 257.812 1410
125 15.625 781
242.188 -296.875 771
281.25 250 967
250 -289.062 769
234.375 -140.625 713
-7.8125 -226.562 781
171.875 -31.25 749
320.312 -335.938 835
156.25 54.6875 773
234.375 -335.938 1067
382.812 -148.438 711
351.562 -54.6875 762
-187.5 -375 1181
109.375 -359.375 1123
367.188 117.188 769
109.375 -156.25 706
390.625 -429.688 908
-500 31.25 2078
296.875 -304.688 858
-70.3125 367.188 1349
265.625 273.438 1153
179.688 -54.6875 738
273.438 31.25 749
406.25 -7.8125 739
289.062 -218.75 736
242.188 -351.562 987
226.562 -304.688 1050
257.812 -421.875 920
328.125 -31.25 755
281.25 -359.375 873
15.625 -85.9375 845
46.875 -195.312 739
304.688 265.625 1080
453.125 -390.625 731
273.438 -382.812 882
-421.875 156.25 796
437.5 179.688 1427
85.9375 -375 1145
140.625 226.562 867
-140.625 304.688 973
359.375 -250 769
437.5 -125 690
265.625 -390.625 889
101.562 -125 769
101.562 -367.188 1134
-312.5 351.562 1632
226.562 -382.812 1073
203.125 7.8125 744
468.75 -125 686
0 -125 839
-375 -468.75 2579
421.875 -62.5 694
195.312 -85.9375 714
445.312 -367.188 752
117.188 -265.625 889
281.25 343.75 1259
367.188 -125 774
140.625 -343.75 1101
421.875 320.312 1302
93.75 -171.875 711
367.188 -62.5 792
320.312 -171.875 882
164.062 -23.4375 750
85.9375 -281.25 903
398.438 -171.875 717
164.062 -101.562 750
-117.188 390.625 1193
203.125 15.625 747
164.062 -234.375 860
218.75 -156.25 723
0 273.438 962
273.438 -179.688 736
46.875 -140.625 794
-421.875 164.062 796
148.438 -328.125 835
156.25 -39.0625 754
335.938 -101.562 757
39.0625 -179.688 742
382.812 -23.4375 750
296.875 234.375 967
351.562 164.062 882
437.5 -117.188 684
156.25 -242.188 867
296.875 -234.375 742
164.062 -320.312 829
343.75 -125 829
0 -101.562 841
296.875 -195.312 741
70.3125 -125 785
328.125 -320.312 823
-7.8125 -109.375 843
242.188 -414.062 910
187.5 -226.562 841
109.375 -148.438 706
242.188 0 736
312.5 -226.562 869
23.4375 296.875 1398
265.625 -156.25 723
-85.9375 -132.812 938
-203.125 250 906
328.125 -148.438 864
171.875 62.5 762
-421.875 148.438 807
195.312 85.9375 781
117.188 7.8125 781
-390.625 -382.812 2958
445.312 -382.812 741
250 289.062 1370
359.375 195.312 925
390.625 218.75 1392
359.375 -210.938 747
281.25 -171.875 731
-78.125 -265.625 819
335.938 -31.25 757
-226.562 218.75 867
-62.5 296.875 954
453.125 -304.688 769
125 -257.812 885
335.938 -304.688 807
453.125 -421.875 716
-31.25 -140.625 854
-421.875 171.875 792
-320.312 343.75 1632
39.0625 -171.875 742
390.625 -187.5 730
140.625 -265.625 862
250 7.8125 736
109.375 -421.875 1181
484.375 -414.062 678
156.25 -15.625 755
-31.25 -242.188 796
-31.25 -132.812 858
148.438 15.625 750
320.312 226.562 962
351.562 -70.3125 769
210.938 -156.25 706
359.375 132.812 773
-187.5 273.438 943
335.938 0 815
-171.875 320.312 1013
46.875 -132.812 798
-15.625 -117.188 845
125 93.75 783
343.75 -101.562 757
125 7.8125 769
132.812 23.4375 783
101.562 -78.125 817
101.562 23.4375 821
390.625 -7.8125 749
210.938 15.625 744
-54.6875 39.0625 827
140.625 -54.6875 769
296.875 -203.125 935
31.25 -54.6875 871
273.438 -218.75 734
-85.9375 -273.438 825
-7.8125 -85.9375 869
-62.5 304.688 1415
-109.375 398.438 1214
0 -117.188 839
-23.4375 -109.375 875
15.625 242.188 864
234.375 -171.875 714
179.688 39.0625 750
156.25 187.5 873
359.375 140.625 854
-179.688 382.812 1138
492.188 -125 682
343.75 -289.062 800
289.062 -234.375 742
132.812 -335.938 847
-23.4375 -203.125 780
296.875 -375 871
-70.3125 328.125 1387
367.188 -23.4375 798
343.75 -39.0625 757
320.312 -164.062 880
125 -273.438 875
273.438 -289.062 910
382.812 -54.6875 733
-31.25 -125 864
312.5 -109.375 747
273.438 117.188 764
390.625 187.5 1427
-171.875 304.688 998
54.6875 -125 796
398.438 93.75 764
117.188 -23.4375 762
351.562 -273.438 785
117.188 -156.25 704
359.375 -78.125 803
148.438 0 749
62.5 -156.25 717
-203.125 375 1094
226.562 -78.125 717
312.5 -289.062 829
125 -23.4375 762
-93.75 -171.875 973
85.9375 -367.188 871
390.625 23.4375 769
-140.625 320.312 1087
93.75 -359.375 871
7.8125 210.938 878
101.562 -289.062 889
-101.562 398.438 1214
140.625 39.0625 781
187.5 78.125 785
0 210.938 875
-312.5 -351.562 1193
-7.8125 -406.25 1185
343.75 -351.562 845
273.438 -414.062 910
328.125 296.875 1134
187.5 -85.9375 736
375 -226.562 754
132.812 -54.6875 776
320.312 -46.875 749
-203.125 -429.688 2812
156.25 15.625 749
257.812 -320.312 959
343.75 -23.4375 827
445.312 -343.75 764
265.625 -414.062 910
179.688 375 1307
382.812 -429.688 910
0 242.188 871
210.938 -414.062 1090
375 -46.875 774
164.062 375 1312
140.625 195.312 880
195.312 -281.25 803
-132.812 179.688 771
187.5 -15.625 742
-54.6875 -250 805
132.812 -31.25 766
-296.875 234.375 871
359.375 7.8125 809
312.5 -195.312 885
226.562 -359.375 1080
281.25 226.562 959
195.312 -7.8125 741
101.562 -359.375 864
0 -109.375 839
125 -101.562 761
-31.25 -218.75 790
-7.8125 210.938 873
101.562 226.562 864
320.312 -179.688 869
31.25 -359.375 882
187.5 -226.562 841
-429.688 -343.75 2078
445.312 -335.938 764
-218.75 335.938 1031
140.625 -257.812 871
351.562 -101.562 817
-62.5 -257.812 811
242.188 -359.375 1007
62.5 296.875 1392
164.062 23.4375 749
-7.8125 -93.75 862
343.75 -125 829
164.062 -242.188 858
398.438 -171.875 717
359.375 125 773
218.75 -375 1070
375 -203.125 738
101.562 257.812 959
171.875 -31.25 749
429.688 -109.375 683
414.062 -132.812 696
187.5 265.625 1404
156.25 -140.625 700
-156.25 414.062 1214
85.9375 -179.688 719
265.625 -187.5 742
148.438 15.625 750
-367.188 -460.938 2618
250 -335.938 1013
343.75 -70.3125 766
375 148.438 854
164.062 -39.0625 750
281.25 -109.375 746
335.938 -140.625 845
-140.625 351.562 1080
406.25 -156.25 708
218.75 -398.438 1080
296.875 -328.125 845
0 296.875 1381
171.875 23.4375 749
156.25 -335.938 1090
265.625 -179.688 734
93.75 -117.188 781
7.8125 -359.375 875
359.375 -70.3125 769
109.375 -351.562 860
320.312 -125 757
-242.188 304.688 978
195.312 -78.125 730
164.062 -156.25 703
414.062 -125 690
289.062 -218.75 736
-15.625 164.062 769
421.875 -54.6875 703
398.438 117.188 771
359.375 -257.812 776
-367.188 -375 2835
289.062 -351.562 854
226.562 -351.562 1084
-179.688 -453.125 2812
382.812 125 774
-23.4375 -117.188 851
-359.375 -414.062 2701
257.812 -164.062 725
203.125 273.438 1381
265.625 -304.688 973
328.125 -164.062 862
468.75 -289.062 759
85.9375 -93.75 823
320.312 296.875 1134
101.562 -117.188 781
109.375 -164.062 706
257.812 281.25 1370
257.812 -289.062 769
312.5 -179.688 891
-132.812 -421.875 2908
-31.25 -140.625 854
140.625 -70.3125 762
-406.25 23.4375 875
226.562 0 736
460.938 -117.188 684
335.938 15.625 807
78.125 -375 882
312.5 -351.562 849
132.812 140.625 764
257.812 -437.5 938
320.312 312.5 1165
179.688 132.812 762
156.25 187.5 873
242.188 -140.625 716
406.25 -148.438 706
-101.562 -468.75 2812
-226.562 -437.5 2835
-31.25 -132.812 858
148.438 -117.188 757
0 -226.562 781
343.75 -117.188 829
101.562 281.25 1410
406.25 -117.188 688
312.5 109.375 764
101.562 -367.188 1134
351.562 304.688 1223
242.188 -265.625 769
335.938 -62.5 761
375 -226.562 754
359.375 -85.9375 811
312.5 -187.5 885
320.312 -23.4375 752
234.375 257.812 1410
-414.062 125 815
281.25 -382.812 880
265.625 70.3125 785
-210.938 234.375 882
210.938 15.625 744
296.875 -234.375 742
-195.312 -375 1193
54.6875 265.625 878
-484.375 15.625 2103
203.125 265.625 1392
234.375 -367.188 1007
148.438 -7.8125 752
343.75 -234.375 767
414.062 -140.625 700
390.625 -171.875 719
-406.25 46.875 862
304.688 257.812 1070
367.188 -117.188 774
0 210.938 875
140.625 -335.938 841
156.25 -320.312 835
492.188 85.9375 764
-23.4375 -250 873
156.25 46.875 767
203.125 -46.875 725
109.375 -320.312 860
101.562 -421.875 1181
93.75 -46.875 862
-164.062 -85.9375 920
-421.875 187.5 783
210.938 265.625 1392
312.5 -164.062 734
257.812 -296.875 769
-39.0625 -234.375 796
-46.875 -234.375 796
367.188 210.938 1165
7.8125 242.188 869
289.062 -382.812 880
296.875 -203.125 935
218.75 265.625 1392
343.75 -85.9375 769
367.188 -31.25 798
23.4375 -164.062 803
328.125 62.5 783
273.438 -398.438 896
-31.25 -250 796
46.875 -140.625 794
-54.6875 281.25 964
156.25 23.4375 752
289.062 -31.25 736
265.625 -210.938 728
164.062 -125 725
93.75 -179.688 711
-7.8125 -234.375 781
390.625 117.188 771
-187.5 375 1119
-453.125 117.188 1947
187.5 -7.8125 744
304.688 -218.75 889
234.375 23.4375 742
406.25 117.188 771
171.875 -234.375 854
492.188 -93.75 682
242.188 234.375 962
343.75 -23.4375 827
39.0625 -187.5 741
117.188 -70.3125 803
148.438 250 959
171.875 -148.438 700
320.312 289.062 1119
242.188 -179.688 716
320.312 -156.25 880
367.188 171.875 894
117.188 -359.375 1119
382.812 -210.938 742
257.812 257.812 1153
78.125 -367.188 882
312.5 -343.75 843
414.062 210.938 1398
390.625 -7.8125 749
242.188 -132.812 713
-460.938 140.625 1904
265.625 -289.062 767
156.25 -125 727
281.25 257.812 1153
320.312 -335.938 835
117.188 -273.438 885
-320.312 335.938 1647
-7.8125 210.938 873
203.125 -125 711
0 226.562 891
39.0625 -54.6875 871
140.625 -273.438 860
179.688 -39.0625 742
0 -187.5 766
31.25 -179.688 749
281.25 -210.938 733
156.25 -132.812 704
195.312 265.625 1404
203.125 -304.688 800
382.812 -62.5 738
429.688 -85.9375 682
343.75 -31.25 757
-210.938 242.188 894
257.812 -203.125 725
179.688 -93.75 739
304.688 -359.375 856
312.5 250 1054
148.438 -15.625 754
156.25 -250 862
226.562 -359.375 1080
171.875 -39.0625 747
320.312 -7.8125 747
179.688 -226.562 851
210.938 -125 711
281.25 -406.25 903
15.625 -70.3125 885
195.312 -304.688 802
281.25 -226.562 739
164.062 23.4375 749
-15.625 -140.625 845
312.5 -39.0625 747
218.75 -70.3125 720
-218.75 218.75 864
210.938 -70.3125 720
328.125 -320.312 823
398.438 -164.062 713
421.875 -117.188 687
375 -218.75 749
164.062 -39.0625 750
-15.625 -234.375 785
445.312 -46.875 710
15.625 -179.688 754
304.688 281.25 1112
265.625 -62.5 730
304.688 289.062 1123
156.25 -117.188 757
437.5 164.062 1421
54.6875 -132.812 792
140.625 -101.562 755
0 242.188 871
320.312 -179.688 869
343.75 195.312 925
15.625 -210.938 769
367.188 -242.188 762
390.625 164.062 1452
187.5 -312.5 819
-414.062 70.3125 851
359.375 195.312 925
242.188 -312.5 1047
156.25 -312.5 829
132.812 -351.562 1108
375 -54.6875 733
281.25 250 967
-31.25 304.688 1398
54.6875 -117.188 790
-187.5 273.438 943
304.688 -156.25 730
-117.188 -460.938 2812
203.125 0 741
445.312 -109.375 680
0 234.375 908
250 -23.4375 728
-406.25 -328.125 2116
234.375 -250 762
210.938 15.625 744
273.438 -195.312 746
234.375 -343.75 1067
195.312 -132.812 716
421.875 242.188 1354
328.125 -289.062 800
125 382.812 1312
132.812 -328.125 843
351.562 -140.625 794
-7.8125 -132.812 841
382.812 -31.25 752
242.188 -328.125 1047
-500 85.9375 1993
375 -421.875 903
351.562 -93.75 774
351.562 -78.125 767
46.875 -171.875 736
117.188 -351.562 860
234.375 -296.875 778
382.812 -187.5 728
320.312 -171.875 882
445.312 -125 687
242.188 -375 1010
-320.312 -351.562 1189
-195.312 -304.688 1115
-484.375 -382.812 2883
179.688 -46.875 738
390.625 -140.625 701
375 156.25 869
140.625 -250 875
109.375 257.812 962
468.75 78.125 764
304.688 -218.75 889
328.125 -54.6875 752
398.438 250 1359
-23.4375 -117.188 851
406.25 -421.875 898
234.375 -187.5 717
15.625 -78.125 851
398.438 351.562 1288
367.188 -70.3125 794
179.688 -234.375 845
-31.25 -140.625 854
375 -39.0625 778
70.3125 289.062 1398
414.062 -140.625 700
460.938 54.6875 776
109.375 289.062 1392
414.062 343.75 1288
171.875 -328.125 1077
140.625 -15.625 754
117.188 -15.625 769
0 250 871
257.812 -62.5 728
375 -7.8125 778
195.312 242.188 956
132.812 -421.875 1181
281.25 -265.625 755
-257.812 54.6875 843
437.5 187.5 1415
343.75 -140.625 821
367.188 7.8125 805
23.4375 -359.375 880
125 7.8125 769
210.938 -390.625 1119
-445.312 -367.188 2016
234.375 -328.125 1063
0 -101.562 841
-148.438 421.875 1245
46.875 234.375 867
320.312 -289.062 807
140.625 -85.9375 755
-140.625 -460.938 2812
-382.812 -382.812 2958
476.562 -117.188 683
390.625 -164.062 716
320.312 70.3125 780
398.438 187.5 1421
203.125 93.75 776
359.375 -62.5 766
460.938 -421.875 704
335.938 -312.5 815
171.875 -242.188 851
328.125 -140.625 759
351.562 -46.875 762
-109.375 375 1288
-195.312 265.625 925
-31.25 -31.25 869
296.875 343.75 1241
296.875 226.562 959
70.3125 -164.062 717
390.625 31.25 780
351.562 164.062 882
382.812 7.8125 769
-15.625 -406.25 1185
-359.375 -429.688 2680
250 -70.3125 728
-62.5 -257.812 811
117.188 -164.062 706
273.438 250 970
46.875 -117.188 851
359.375 140.625 854
54.6875 -375 887
421.875 117.188 773
-23.4375 -54.6875 880
382.812 226.562 1387
140.625 31.25 781
156.25 23.4375 752
-195.312 257.812 918
7.8125 242.188 869
-39.0625 -179.688 878
265.625 -296.875 978
414.062 -15.625 733
-203.125 -375 1193
85.9375 -460.938 2859
203.125 -218.75 742
-218.75 226.562 871
218.75 -78.125 717
492.188 -101.562 680
265.625 -304.688 973
460.938 -296.875 759
-62.5 281.25 964
132.812 85.9375 785
328.125 195.312 923
281.25 -179.688 736
-492.188 -15.625 2156
-78.125 -132.812 938
132.812 -265.625 873
140.625 281.25 1392
390.625 -179.688 723
140.625 -39.0625 766
429.688 -125 690
-54.6875 -273.438 847
117.188 -148.438 704
125 -15.625 762
398.438 -179.688 723
257.812 -320.312 959
414.062 -421.875 898
148.438 39.0625 776
226.562 46.875 802
429.688 -359.375 759
445.312 -359.375 754
398.438 117.188 771
-210.938 343.75 1054
15.625 -85.9375 845
125 -132.812 704
-23.4375 -210.938 783
148.438 7.8125 749
445.312 -328.125 767
398.438 -398.438 878
343.75 -132.812 821
312.5 -203.125 875
179.688 -15.625 744
171.875 375 1307
-70.3125 -265.625 817
-39.0625 -234.375 796
492.188 -289.062 757
351.562 -85.9375 767
-93.75 351.562 1365
273.438 -281.25 759
359.375 -70.3125 769
234.375 257.812 1410
125 -156.25 704
218.75 23.4375 746
-421.875 171.875 792
250 257.812 1153
187.5 -226.562 841
171.875 -312.5 827
164.062 54.6875 762
179.688 39.0625 750
335.938 -304.688 807
414.062 54.6875 776
476.562 -70.3125 698
242.188 23.4375 742
-7.8125 -85.9375 869
234.375 -148.438 717
257.812 -54.6875 727
320.312 39.0625 798
85.9375 -117.188 783
156.25 46.875 767
54.6875 -132.812 792
335.938 -23.4375 754
398.438 23.4375 769
312.5 93.75 769
382.812 132.812 774
343.75 -31.25 757
296.875 312.5 1173
187.5 -23.4375 741
320.312 -156.25 880
414.062 -46.875 708
257.812 62.5 790
203.125 0 741
437.5 -414.062 730
445.312 -117.188 683
-359.375 -406.25 2701
-7.8125 -343.75 873
148.438 -46.875 761
406.25 -132.812 697
109.375 -421.875 1181
226.562 265.625 1392
484.375 117.188 1328
-62.5 -265.625 815
351.562 -109.375 807
-351.562 -414.062 2701
312.5 -171.875 734
132.812 -101.562 761
156.25 195.312 878
-359.375 -359.375 2859
398.438 195.312 1415
-156.25 328.125 1047
0 -226.562 781
156.25 7.8125 749
-367.188 -437.5 2659
-437.5 -343.75 2053
343.75 -23.4375 827
226.562 -156.25 722
85.9375 -125 773
367.188 179.688 906
343.75 179.688 903
171.875 398.438 1297
-23.4375 -117.188 851
312.5 -164.062 734
195.312 -164.062 706
335.938 296.875 1210
460.938 -304.688 757
304.688 -304.688 835
335.938 -148.438 833
257.812 -15.625 730
257.812 -15.625 730
78.125 -101.562 829
-445.312 -359.375 2040
109.375 -281.25 885
445.312 -406.25 731
359.375 -46.875 809
328.125 -164.062 862
234.375 -343.75 1067
210.938 7.8125 742
54.6875 -453.125 2908
-414.062 109.375 825
132.812 -351.562 1108
460.938 -109.375 682
234.375 -70.3125 728
453.125 -421.875 716
195.312 -15.625 739
7.8125 304.688 1387
-453.125 -367.188 2016
492.188 -132.812 684
-406.25 54.6875 858
437.5 -109.375 680
85.9375 -367.188 871
312.5 -359.375 854
62.5 -117.188 790
414.062 242.188 1370
132.812 -117.188 783
375 187.5 1421
-414.062 117.188 819
390.625 -148.438 706
-7.8125 -117.188 841
359.375 187.5 910
367.188 -148.438 717
195.312 -226.562 741
492.188 70.3125 762
-31.25 -218.75 790
179.688 -31.25 746
-15.625 -101.562 875
125 0 764
195.312 -312.5 1060
187.5 0 747
39.0625 156.25 767
234.375 -390.625 1007
218.75 31.25 754
265.625 -421.875 918
343.75 0 815
-203.125 250 906
-31.25 -257.812 869
54.6875 -148.438 783
367.188 234.375 1157
218.75 -375 1070
70.3125 70.3125 798
351.562 -273.438 785
242.188 -140.625 716
156.25 -328.125 835
195.312 -85.9375 714
70.3125 -281.25 903
-7.8125 -242.188 880
367.188 0 811
-117.188 -390.625 1181
226.562 -359.375 1080
-93.75 -132.812 943
304.688 250 1067
-62.5 -476.562 2789
156.25 -250 862
125 -312.5 847
0 -78.125 860
320.312 -187.5 856
-500 -359.375 2859
-39.0625 -257.812 802
78.125 -281.25 906
-343.75 -375 2789
70.3125 390.625 1312
359.375 148.438 864
0 -117.188 839
210.938 265.625 1392
39.0625 -148.438 794
296.875 -31.25 739
23.4375 -62.5 880
7.8125 -78.125 856
-46.875 -257.812 802
304.688 273.438 1090
312.5 -304.688 821
46.875 -375 889
101.562 -359.375 864
367.188 125 773
-414.062 125 815
140.625 140.625 764
242.188 -257.812 766
453.125 -406.25 723
265.625 -101.562 749
257.812 -93.75 744
343.75 -46.875 762
210.938 -46.875 723
304.688 -375 869
-203.125 187.5 773
320.312 -343.75 841
242.188 265.625 1157
335.938 -312.5 815
39.0625 -414.062 1185
109.375 -78.125 809
218.75 23.4375 746
70.3125 -109.375 789
203.125 -132.812 714
-70.3125 -398.438 1189
7.8125 -171.875 819
437.5 -125 690
140.625 -7.8125 754
257.812 117.188 766
-367.188 -453.125 2639
-289.062 -429.688 2789
0 -242.188 887
203.125 -23.4375 730
171.875 -101.562 750
-375 -460.938 2598
289.062 335.938 1219
234.375 -7.8125 731
93.75 -460.938 2859
-7.8125 -93.75 862
-421.875 164.062 796
398.438 -429.688 908
296.875 -242.188 742
-335.938 -414.062 2789
406.25 -164.062 711
250 265.625 1157
390.625 -140.625 701
218.75 -85.9375 714
-93.75 343.75 1370
273.438 -398.438 896
-7.8125 210.938 873
54.6875 -367.188 887
7.8125 273.438 964
234.375 0 736
-70.3125 -273.438 825
312.5 -187.5 885
281.25 0 738
398.438 -156.25 710
23.4375 -93.75 845
-7.8125 -156.25 854
281.25 320.312 1210
195.312 -218.75 741
328.125 -328.125 829
226.562 -156.25 722
367.188 -39.0625 809
101.562 -156.25 707
132.812 -257.812 878
187.5 242.188 951
289.062 -171.875 733
429.688 -125 690
414.062 -148.438 703
156.25 -7.8125 750
328.125 -7.8125 747
367.188 -250 769
390.625 -15.625 746
148.438 -343.75 1101
273.438 250 970
0 273.438 962
-46.875 -250 802
-203.125 242.188 894
359.375 -265.625 780
265.625 -70.3125 731
-39.0625 -250 802
203.125 -171.875 706
148.438 -257.812 862
-85.9375 -203.125 992
-7.8125 -140.625 843
-7.8125 273.438 962
476.562 15.625 774
101.562 257.812 959
351.562 -281.25 789
320.312 -148.438 759
132.812 -343.75 847
265.625 257.812 1153
156.25 -156.25 703
242.188 -359.375 1007
218.75 -109.375 710
250 -54.6875 725
101.562 -171.875 713
78.125 148.438 762
484.375 -117.188 682
132.812 -265.625 873
101.562 281.25 1410
15.625 398.438 1317
46.875 289.062 1392
195.312 265.625 1404
281.25 -179.688 736
312.5 289.062 1119
-15.625 -242.188 785
70.3125 -187.5 728
359.375 -257.812 776
398.438 -109.375 691
156.25 7.8125 749
304.688 -367.188 862
328.125 -367.188 860
-70.3125 -218.75 1010
273.438 -125 723
210.938 7.8125 742
359.375 -62.5 766
-54.6875 -476.562 2789
187.5 -218.75 736
-23.4375 -406.25 1185
406.25 -429.688 906
85.9375 -39.0625 858
140.625 -54.6875 769
343.75 296.875 1206
54.6875 -125 796
195.312 -226.562 741
101.562 -85.9375 809
390.625 -31.25 733
-265.625 398.438 1572
367.188 -31.25 798
148.438 250 959
125 -15.625 762
250 359.375 1312
226.562 -406.25 1038
343.75 -289.062 800
375 -226.562 754
460.938 -125 688
140.625 23.4375 781
328.125 -156.25 862
429.688 117.188 769
375 -15.625 780
234.375 -375 1041
54.6875 265.625 878
-117.188 382.812 1185
-453.125 7.8125 2103
234.375 234.375 959
343.75 -31.25 757
328.125 -140.625 759
234.375 -304.688 1050
46.875 265.625 873
0 -140.625 843
171.875 -320.312 827
140.625 -15.625 754
-500 -382.812 1947
-429.688 -320.312 2103
187.5 -23.4375 741
117.188 -421.875 1181
203.125 -70.3125 723
-398.438 -312.5 2156
382.812 -39.0625 755
-421.875 203.125 778
7.8125 -70.3125 867
-351.562 -382.812 2789
398.438 -179.688 723
453.125 -125 687
-421.875 187.5 783
273.438 -156.25 725
-148.438 335.938 1080
375 156.25 869
312.5 -351.562 849
62.5 -109.375 790
164.062 -242.188 858
359.375 -125 785
421.875 101.562 764
304.688 -203.125 901
140.625 -335.938 841
-187.5 273.438 943
101.562 -117.188 781
250 257.812 1153
320.312 218.75 954
164.062 15.625 749
203.125 242.188 956
304.688 265.625 1080
148.438 -156.25 701
312.5 218.75 954
-421.875 -406.25 1993
117.188 -117.188 783
468.75 -132.812 690
312.5 -195.312 885
109.375 -117.188 781
203.125 -7.8125 738
164.062 203.125 880
93.75 -179.688 711
429.688 -85.9375 682
-406.25 46.875 862
367.188 203.125 1415
179.688 -312.5 817
359.375 -117.188 789
453.125 -312.5 766
382.812 -218.75 747
226.562 23.4375 744
148.438 -62.5 757
273.438 226.562 954
375 -62.5 776
-289.062 375 1601
398.438 -171.875 717
171.875 -39.0625 747
453.125 -414.062 719
0 210.938 875
335.938 -148.438 833
226.562 -390.625 1007
375 -54.6875 733
484.375 -125 684
23.4375 296.875 1398
289.062 328.125 1206
343.75 156.25 873
117.188 -164.062 706
195.312 -15.625 739
-23.4375 -210.938 783
476.562 -289.062 757
351.562 156.25 873
-23.4375 -343.75 875
343.75 -296.875 805
375 -234.375 757
39.0625 -156.25 789
250 -398.438 898
-70.3125 -265.625 817
414.062 85.9375 764
257.812 359.375 1307
429.688 -78.125 684
-164.062 -78.125 915
148.438 -54.6875 762
132.812 15.625 774
156.25 -148.438 701
-234.375 312.5 995
-39.0625 304.688 1398
382.812 0 762
429.688 148.438 1445
0 234.375 908
70.3125 289.062 1398
367.188 -265.625 778
140.625 -156.25 701
164.062 -109.375 757
-414.062 132.812 811
148.438 -257.812 862
343.75 7.8125 811
-289.062 242.188 885
406.25 210.938 1398
62.5 -148.438 764
359.375 281.25 1206
-78.125 -273.438 825
-23.4375 -148.438 851
171.875 54.6875 757
320.312 -179.688 869
210.938 -164.062 707
109.375 -109.375 783
101.562 -179.688 713
328.125 -171.875 851
328.125 296.875 1134
296.875 -382.812 878
15.625 -171.875 803
23.4375 -367.188 880
179.688 -31.25 746
46.875 -85.9375 891
-23.4375 -117.188 851
70.3125 -39.0625 862
7.8125 -226.562 778
-101.562 406.25 1250
210.938 -367.188 1108
195.312 7.8125 746
304.688 -296.875 835
289.062 -226.562 739
492.188 -273.438 764
210.938 -382.812 1126
453.125 -398.438 723
351.562 -117.188 802
429.688 -296.875 792
0 -117.188 839
-351.562 -390.625 2789
218.75 -164.062 710
125 0 764
132.812 -273.438 869
-62.5 0 851
-203.125 351.562 1067
148.438 46.875 776
125 140.625 762
-421.875 195.312 778
195.312 242.188 956
125 -7.8125 762
140.625 23.4375 781
93.75 257.812 875
351.562 -101.562 817
273.438 -187.5 742
-171.875 296.875 975
375 7.8125 785
-414.062 148.438 803
398.438 -187.5 727
187.5 265.625 1404
54.6875 -132.812 792
390.625 -203.125 738
421.875 -132.812 694
-31.25 -140.625 854
242.188 -328.125 1047
-359.375 -437.5 2659
7.8125 -78.125 856
31.25 -414.062 1185
390.625 -148.438 706
-7.8125 210.938 873
-343.75 -414.062 2744
281.25 7.8125 739
156.25 15.625 749
445.312 15.625 769
265.625 -289.062 767
312.5 39.0625 800
0 296.875 1381
156.25 -46.875 755
-93.75 335.938 1381
-39.0625 -156.25 889
-62.5 304.688 1415
187.5 -296.875 807
242.188 -296.875 771
484.375 85.9375 764
296.875 -343.75 847
85.9375 -125 773
-179.688 429.688 1536
7.8125 -351.562 875
390.625 -54.6875 714
281.25 -273.438 759
351.562 -132.812 794
195.312 -93.75 714
281.25 -125 761
203.125 46.875 759
218.75 125 764
257.812 -296.875 769
476.562 46.875 778
109.375 -281.25 885
-406.25 62.5 851
250 -273.438 769
296.875 -281.25 869
-148.438 -460.938 2789
156.25 46.875 767
445.312 -335.938 764
-23.4375 -242.188 790
-398.438 -429.688 2835
-15.625 -101.562 875
-7.8125 -132.812 841
101.562 -421.875 1181
242.188 359.375 1307
164.062 -15.625 750
148.438 -93.75 752
-320.312 328.125 1655
-15.625 -406.25 1185
-500 -453.125 1843
-7.8125 -93.75 862
359.375 -54.6875 762
-70.3125 304.688 1415
296.875 -210.938 935
-7.8125 296.875 1381
-250 296.875 967
148.438 39.0625 776
125 39.0625 811
109.375 -367.188 1130
70.3125 70.3125 798
203.125 367.188 1307
-15.625 -203.125 780
156.25 70.3125 792
460.938 23.4375 789
-414.062 -460.938 2744
15.625 -179.688 754
406.25 -7.8125 739
406.25 156.25 1439
171.875 46.875 755
250 -343.75 1007
117.188 -7.8125 769
140.625 -39.0625 766
-390.625 -70.3125 933
-335.938 -93.75 948
-210.938 234.375 882
-39.0625 -93.75 903
132.812 -148.438 698
320.312 289.062 1130
359.375 -62.5 761
46.875 -148.438 798
