ply
format ascii 1.0
comment Created by Open3D
element vertex 2409
property double x
property double y
property double z
end_header
-242.188 390.625 987
-414.062 367.188 1028
-195.312 171.875 731
93.75 -281.25 843
-257.812 -226.562 1288
-328.125 171.875 819
-31.25 -187.5 719
-226.562 -78.125 885
39.0625 -23.4375 807
-492.188 171.875 903
15.625 195.312 708
187.5 210.938 691
-382.812 390.625 1219
210.938 -296.875 1090
-46.875 -132.812 747
328.125 -7.8125 757
296.875 -289.062 1073
93.75 -257.812 843
-234.375 164.062 734
476.562 226.562 663
101.562 -234.375 837
-398.438 390.625 1219
62.5 -234.375 730
-70.3125 187.5 719
304.688 15.625 755
-476.562 46.875 787
-406.25 156.25 802
484.375 -187.5 946
265.625 328.125 789
15.625 -117.188 755
7.8125 -234.375 722
93.75 390.625 785
-484.375 140.625 843
226.562 -265.625 862
-250 164.062 739
-414.062 140.625 802
359.375 210.938 674
23.4375 -273.438 885
164.062 437.5 1273
-54.6875 -85.9375 774
-85.9375 7.8125 815
-23.4375 -234.375 722
-500 78.125 973
-54.6875 -117.188 755
203.125 445.312 1264
-23.4375 7.8125 811
78.125 203.125 704
-421.875 367.188 1038
195.312 -218.75 871
234.375 -250 862
-171.875 179.688 730
-429.688 140.625 802
140.625 210.938 698
-406.25 125 802
-460.938 367.188 1232
117.188 429.688 1343
-109.375 -101.562 767
351.562 -7.8125 734
-226.562 179.688 746
-39.0625 -210.938 713
-54.6875 -62.5 789
164.062 398.438 781
85.9375 390.625 785
-406.25 46.875 802
484.375 218.75 663
-328.125 140.625 815
-210.938 179.688 746
468.75 218.75 663
-15.625 -125 752
-367.188 390.625 1214
54.6875 -210.938 708
-492.188 351.562 1041
203.125 -156.25 780
140.625 -234.375 843
234.375 164.062 704
109.375 -242.188 839
320.312 -15.625 789
242.188 -296.875 1087
414.062 406.25 747
265.625 398.438 761
164.062 -296.875 845
234.375 398.438 766
-39.0625 375 794
-101.562 359.375 802
117.188 -218.75 803
117.188 -187.5 803
367.188 390.625 750
-460.938 343.75 1034
-125 -289.062 918
343.75 398.438 752
343.75 -281.25 1063
7.8125 195.312 710
-398.438 85.9375 785
-46.875 375 794
-78.125 187.5 719
312.5 406.25 759
-31.25 312.5 807
-39.0625 -218.75 714
-390.625 382.812 1034
-445.312 203.125 839
-492.188 78.125 973
-234.375 171.875 739
-382.812 210.938 819
-445.312 367.188 1034
-390.625 375 1034
-78.125 -117.188 755
-109.375 -23.4375 813
-39.0625 -164.062 730
-109.375 0 825
171.875 210.938 694
171.875 304.688 778
-367.188 210.938 827
-15.625 -187.5 717
289.062 406.25 762
140.625 406.25 781
-398.438 70.3125 794
-226.562 398.438 992
390.625 312.5 744
62.5 210.938 710
210.938 414.062 774
320.312 218.75 679
273.438 421.875 764
-125 -382.812 910
343.75 0 746
492.188 234.375 662
-54.6875 -367.188 854
93.75 203.125 700
-359.375 195.312 811
328.125 390.625 754
-39.0625 -148.438 741
-109.375 -250 746
148.438 -242.188 841
-23.4375 195.312 713
15.625 -85.9375 773
15.625 -85.9375 773
7.8125 -304.688 862
476.562 234.375 667
117.188 390.625 781
156.25 398.438 781
132.812 210.938 700
-117.188 -265.625 928
93.75 -320.312 839
-445.312 226.562 862
-257.812 335.938 819
179.688 398.438 776
-382.812 -156.25 987
31.25 -140.625 741
-109.375 187.5 727
203.125 -328.125 2883
-273.438 414.062 1197
54.6875 -242.188 730
-273.438 23.4375 809
476.562 218.75 662
320.312 39.0625 730
296.875 93.75 703
-78.125 -23.4375 815
-93.75 -304.688 875
-54.6875 -187.5 716
15.625 -23.4375 811
-85.9375 187.5 720
468.75 226.562 663
304.688 226.562 687
-7.8125 -367.188 851
-7.8125 195.312 711
195.312 -179.688 781
-46.875 -437.5 851
-429.688 -234.375 1328
-132.812 359.375 803
-500 0 815
-375 70.3125 796
210.938 445.312 1268
304.688 -320.312 2812
101.562 203.125 698
-179.688 171.875 728
7.8125 -437.5 856
335.938 93.75 700
218.75 414.062 773
0 -93.75 767
414.062 398.438 747
101.562 320.312 802
-304.688 398.438 1016
437.5 226.562 667
-320.312 -359.375 2984
-171.875 187.5 739
-460.938 70.3125 798
39.0625 0 811
-156.25 203.125 749
-335.938 390.625 1019
148.438 390.625 776
382.812 46.875 736
-7.8125 390.625 798
-390.625 132.812 800
-250 -31.25 849
265.625 234.375 700
203.125 234.375 708
273.438 125 722
296.875 -15.625 811
-70.3125 -140.625 741
281.25 210.938 683
-148.438 351.562 805
-46.875 -15.625 819
351.562 125 690
234.375 414.062 769
-117.188 187.5 730
-31.25 -156.25 734
304.688 62.5 734
-62.5 -46.875 800
-468.75 367.188 1232
-406.25 367.188 1028
234.375 -296.875 1087
242.188 414.062 769
-78.125 210.938 741
-148.438 179.688 727
-140.625 -15.625 837
-7.8125 7.8125 809
39.0625 210.938 714
-125 359.375 802
-164.062 -140.625 938
296.875 23.4375 757
460.938 218.75 663
-78.125 -125 750
-421.875 375 1038
-476.562 359.375 1041
-429.688 78.125 790
-93.75 367.188 800
476.562 406.25 738
7.8125 -31.25 805
453.125 -265.625 1041
-39.0625 203.125 725
-398.438 296.875 833
15.625 -234.375 722
179.688 210.938 693
132.812 218.75 704
304.688 101.562 703
-117.188 195.312 734
93.75 -203.125 817
0 7.8125 807
-328.125 -46.875 849
-85.9375 -320.312 869
0 195.312 711
429.688 226.562 667
39.0625 203.125 710
296.875 140.625 713
-148.438 296.875 817
203.125 414.062 776
-78.125 7.8125 815
-140.625 -125 757
296.875 406.25 761
-421.875 140.625 802
-367.188 15.625 803
-367.188 382.812 1019
93.75 -195.312 811
304.688 31.25 741
-296.875 171.875 750
234.375 218.75 691
273.438 31.25 781
-421.875 -234.375 1328
-85.9375 -125 752
-195.312 343.75 811
-359.375 234.375 856
164.062 -179.688 785
-429.688 -164.062 975
429.688 234.375 672
0 398.438 1445
7.8125 -187.5 717
31.25 7.8125 805
15.625 7.8125 809
-375 -164.062 987
23.4375 7.8125 805
414.062 226.562 670
-85.9375 -406.25 873
-289.062 164.062 746
398.438 234.375 682
140.625 -195.312 790
195.312 -296.875 871
-304.688 406.25 1206
-31.25 203.125 723
-85.9375 -132.812 749
140.625 -187.5 789
250 -289.062 1077
-62.5 7.8125 815
-93.75 -328.125 871
-101.562 -414.062 898
-398.438 54.6875 798
273.438 62.5 761
-429.688 54.6875 800
-15.625 -359.375 851
-93.75 0 825
-382.812 54.6875 800
-328.125 148.438 817
-179.688 187.5 742
-46.875 7.8125 813
-101.562 -54.6875 796
31.25 203.125 711
226.562 414.062 769
-296.875 54.6875 992
70.3125 203.125 704
398.438 398.438 749
257.812 -289.062 1077
140.625 218.75 704
-273.438 -226.562 1292
117.188 -187.5 803
421.875 226.562 668
-343.75 187.5 813
359.375 312.5 749
101.562 -335.938 831
-93.75 -218.75 717
-265.625 406.25 1004
195.312 210.938 690
-476.562 109.375 951
-70.3125 289.062 823
-210.938 171.875 734
-46.875 -85.9375 774
210.938 210.938 688
-187.5 171.875 730
296.875 132.812 717
367.188 7.8125 736
-382.812 23.4375 802
85.9375 -273.438 920
140.625 -179.688 792
-289.062 242.188 849
335.938 -281.25 1063
-171.875 -179.688 981
390.625 -281.25 1063
15.625 15.625 803
85.9375 203.125 701
312.5 101.562 701
-484.375 -375 2156
-234.375 203.125 766
-109.375 195.312 730
484.375 234.375 667
-265.625 171.875 747
-140.625 179.688 723
242.188 218.75 690
187.5 445.312 1264
-54.6875 7.8125 813
-179.688 296.875 817
-46.875 -125 750
281.25 31.25 781
-312.5 0 987
101.562 -85.9375 871
328.125 39.0625 727
-429.688 195.312 825
195.312 -265.625 875
-109.375 -46.875 803
-125 187.5 730
46.875 210.938 713
156.25 -296.875 845
-23.4375 195.312 713
-101.562 -218.75 717
-429.688 289.062 837
164.062 -296.875 845
117.188 -203.125 800
-429.688 210.938 873
-7.8125 -125 752
70.3125 437.5 1392
-265.625 164.062 742
429.688 218.75 666
-179.688 179.688 738
-101.562 -242.188 736
414.062 218.75 667
-375 382.812 1025
-31.25 195.312 716
156.25 218.75 701
-281.25 171.875 749
437.5 406.25 744
-23.4375 203.125 723
-320.312 156.25 744
125 210.938 700
-15.625 195.312 711
-312.5 164.062 747
-359.375 23.4375 819
156.25 -140.625 819
140.625 -203.125 790
109.375 -78.125 864
-390.625 -164.062 987
62.5 -296.875 889
359.375 7.8125 739
265.625 31.25 781
0 -31.25 805
-85.9375 -234.375 727
78.125 -296.875 903
250 226.562 694
109.375 -296.875 837
-117.188 375 800
-375 390.625 1214
-414.062 218.75 867
-312.5 398.438 1016
-156.25 367.188 807
-7.8125 -296.875 862
-125 -375 901
-93.75 -203.125 714
226.562 -289.062 862
23.4375 -234.375 722
-39.0625 -218.75 714
312.5 218.75 682
117.188 320.312 800
-140.625 0 823
226.562 218.75 691
117.188 -265.625 845
-320.312 -23.4375 827
-218.75 281.25 827
54.6875 210.938 710
-492.188 179.688 896
335.938 15.625 739
-234.375 351.562 835
-406.25 -234.375 1317
-164.062 -132.812 933
-398.438 -164.062 987
210.938 -179.688 778
7.8125 -132.812 747
125 -242.188 847
7.8125 7.8125 807
117.188 -312.5 835
-398.438 156.25 802
-85.9375 -203.125 714
-281.25 -226.562 1288
23.4375 -187.5 717
-39.0625 7.8125 813
289.062 218.75 684
-265.625 -226.562 1292
-101.562 195.312 728
328.125 -281.25 1060
-132.812 7.8125 819
335.938 7.8125 746
-117.188 -281.25 915
101.562 -242.188 837
-492.188 -46.875 875
-85.9375 -281.25 887
-437.5 39.0625 790
-421.875 54.6875 798
-273.438 414.062 1197
-62.5 -234.375 723
148.438 335.938 790
101.562 445.312 1312
375 101.562 730
-484.375 179.688 896
476.562 -195.312 956
-445.312 101.562 796
-7.8125 -85.9375 774
70.3125 335.938 790
78.125 203.125 704
406.25 398.438 747
-93.75 187.5 723
-382.812 234.375 856
-218.75 429.688 1177
343.75 70.3125 725
414.062 46.875 728
125 -210.938 798
468.75 234.375 670
101.562 -187.5 813
390.625 250 693
-109.375 -203.125 716
-492.188 54.6875 790
-375 -78.125 989
234.375 -289.062 1080
320.312 164.062 698
85.9375 320.312 800
203.125 210.938 688
-54.6875 375 794
-320.312 320.312 827
109.375 -304.688 835
375 85.9375 741
351.562 0 736
-367.188 -140.625 946
23.4375 210.938 717
-351.562 -85.9375 903
-132.812 179.688 723
-335.938 398.438 1214
-242.188 414.062 1004
148.438 398.438 781
375 46.875 739
-195.312 171.875 731
-140.625 -226.562 727
-203.125 171.875 733
406.25 -273.438 1054
484.375 218.75 663
-101.562 -203.125 714
-46.875 367.188 794
-367.188 390.625 1214
7.8125 429.688 1410
-101.562 367.188 802
453.125 234.375 672
132.812 -132.812 843
453.125 218.75 664
117.188 210.938 701
-273.438 15.625 827
31.25 -132.812 746
31.25 -156.25 733
62.5 203.125 707
-15.625 390.625 1458
187.5 210.938 691
-468.75 320.312 987
-46.875 -148.438 738
-148.438 179.688 727
-335.938 -46.875 849
156.25 210.938 697
-351.562 -109.375 925
140.625 -171.875 798
406.25 234.375 679
-101.562 -140.625 744
109.375 320.312 800
296.875 148.438 710
-281.25 406.25 1010
140.625 -242.188 841
296.875 62.5 717
-328.125 156.25 819
-390.625 257.812 841
-54.6875 195.312 720
210.938 226.562 698
62.5 -171.875 730
-265.625 414.062 1197
468.75 320.312 741
-148.438 -54.6875 867
281.25 78.125 750
-468.75 117.188 841
85.9375 -281.25 920
-62.5 382.812 1464
31.25 210.938 719
226.562 -296.875 1087
125 218.75 706
398.438 218.75 670
-171.875 289.062 823
31.25 -148.438 736
93.75 320.312 802
140.625 414.062 1292
257.812 39.0625 778
7.8125 -234.375 722
375 -15.625 730
-375 -62.5 978
46.875 226.562 730
7.8125 195.312 710
-429.688 109.375 800
367.188 226.562 678
-54.6875 -164.062 728
226.562 226.562 697
218.75 218.75 693
421.875 218.75 667
-218.75 421.875 1007
-70.3125 304.688 813
218.75 226.562 698
-476.562 218.75 867
-171.875 -187.5 987
-484.375 93.75 964
-78.125 -390.625 862
421.875 234.375 675
-7.8125 195.312 711
453.125 250 682
23.4375 320.312 803
-54.6875 367.188 794
-164.062 -140.625 938
273.438 398.438 761
382.812 85.9375 741
210.938 218.75 694
31.25 195.312 707
-125 -351.562 896
-187.5 351.562 815
-31.25 195.312 716
312.5 -289.062 1073
-335.938 78.125 829
-421.875 70.3125 790
-15.625 -367.188 851
218.75 328.125 792
132.812 -179.688 796
-62.5 -7.8125 825
-296.875 414.062 1206
-289.062 171.875 750
-39.0625 -156.25 734
23.4375 203.125 713
-164.062 367.188 807
140.625 -250 839
195.312 445.312 1264
343.75 0 746
484.375 328.125 741
-398.438 -234.375 1312
-234.375 421.875 1189
156.25 -171.875 790
-39.0625 -203.125 713
320.312 0 759
-328.125 398.438 1022
-15.625 7.8125 811
31.25 328.125 798
-296.875 164.062 746
15.625 -70.3125 781
-85.9375 187.5 720
156.25 328.125 796
-445.312 -234.375 1328
148.438 -296.875 849
-132.812 296.875 819
-289.062 156.25 741
148.438 -101.562 809
-62.5 -187.5 716
-46.875 -164.062 728
-437.5 132.812 803
31.25 -164.062 728
195.312 -179.688 781
-39.0625 195.312 717
-343.75 265.625 835
187.5 414.062 781
117.188 218.75 710
-437.5 54.6875 800
414.062 218.75 667
382.812 54.6875 736
-140.625 -164.062 733
-429.688 132.812 802
164.062 437.5 1273
-132.812 -164.062 734
-39.0625 -437.5 849
-85.9375 -210.938 714
390.625 218.75 670
-414.062 382.812 1223
218.75 -179.688 778
-101.562 -164.062 731
257.812 445.312 1297
-351.562 273.438 831
-367.188 31.25 811
-289.062 -226.562 1288
-31.25 320.312 803
54.6875 203.125 707
132.812 -171.875 823
7.8125 -117.188 755
-93.75 -171.875 727
-156.25 359.375 807
132.812 -218.75 796
148.438 210.938 697
335.938 -23.4375 744
273.438 226.562 690
234.375 -296.875 1087
-156.25 -93.75 898
-31.25 -210.938 713
-468.75 46.875 790
382.812 -281.25 1063
-54.6875 203.125 727
421.875 46.875 761
-218.75 171.875 738
437.5 218.75 666
-164.062 187.5 738
-312.5 109.375 761
-343.75 7.8125 815
101.562 -257.812 843
414.062 234.375 676
-187.5 187.5 742
312.5 -15.625 790
406.25 218.75 668
-500 78.125 973
390.625 398.438 749
109.375 -234.375 837
359.375 234.375 687
-343.75 46.875 809
-78.125 289.062 823
234.375 406.25 769
-429.688 218.75 869
312.5 70.3125 730
-281.25 226.562 794
-421.875 -164.062 981
320.312 335.938 781
445.312 218.75 666
-109.375 -132.812 749
445.312 -273.438 1050
140.625 -257.812 839
164.062 210.938 696
-328.125 406.25 1210
359.375 226.562 676
140.625 -218.75 798
-406.25 187.5 809
351.562 312.5 749
281.25 140.625 714
218.75 -289.062 867
-453.125 -234.375 1328
-101.562 187.5 727
-359.375 179.688 811
-156.25 179.688 728
476.562 234.375 667
-93.75 304.688 813
-500 351.562 1044
-453.125 210.938 841
296.875 218.75 683
390.625 234.375 683
445.312 312.5 736
-304.688 164.062 746
367.188 234.375 684
78.125 210.938 707
-296.875 156.25 742
-85.9375 -140.625 742
109.375 218.75 710
-320.312 -23.4375 827
-398.438 382.812 1227
-93.75 187.5 723
-171.875 -171.875 967
-39.0625 -7.8125 823
328.125 -7.8125 757
-289.062 414.062 1197
39.0625 398.438 792
195.312 414.062 1322
289.062 31.25 761
132.812 218.75 704
0 -234.375 719
-343.75 70.3125 807
-304.688 406.25 1206
-250 414.062 1010
296.875 -23.4375 815
-414.062 -218.75 1297
-101.562 -46.875 802
492.188 218.75 658
-500 62.5 987
-484.375 70.3125 981
187.5 -296.875 871
-125 -132.812 749
-296.875 -46.875 841
-468.75 218.75 869
320.312 -281.25 1060
281.25 218.75 686
101.562 -195.312 811
7.8125 382.812 796
-109.375 -226.562 722
359.375 78.125 728
-132.812 -226.562 725
265.625 406.25 766
179.688 -296.875 873
140.625 -226.562 843
-62.5 351.562 789
31.25 -289.062 878
-54.6875 -7.8125 825
-101.562 -125 752
-437.5 -156.25 978
-257.812 421.875 1193
85.9375 -273.438 920
179.688 -273.438 871
-460.938 46.875 789
-343.75 -62.5 975
-39.0625 -234.375 725
-476.562 359.375 1041
460.938 -242.188 1010
23.4375 -234.375 722
-343.75 390.625 1016
382.812 234.375 683
-406.25 390.625 1227
445.312 234.375 671
-31.25 -85.9375 776
70.3125 203.125 704
-453.125 218.75 867
-7.8125 -460.938 847
-359.375 85.9375 831
-273.438 164.062 744
0 -117.188 755
-398.438 -78.125 992
-320.312 156.25 744
78.125 -328.125 887
-54.6875 -320.312 860
-343.75 406.25 1214
-234.375 343.75 835
-46.875 203.125 725
-359.375 7.8125 809
101.562 210.938 704
140.625 210.938 698
-132.812 195.312 738
-85.9375 -164.062 730
-39.0625 203.125 725
-62.5 -101.562 766
-93.75 -414.062 889
85.9375 -312.5 843
-171.875 304.688 811
-398.438 375 1028
-7.8125 -132.812 746
-195.312 179.688 739
-351.562 398.438 1210
-250 171.875 741
-445.312 210.938 841
93.75 203.125 700
-62.5 -437.5 858
39.0625 -234.375 720
-117.188 -117.188 759
218.75 406.25 773
468.75 218.75 663
-62.5 -203.125 713
-460.938 203.125 835
-31.25 -437.5 849
-164.062 179.688 730
468.75 -218.75 987
242.188 406.25 769
-226.562 343.75 821
156.25 382.812 771
-375 218.75 864
429.688 226.562 667
203.125 218.75 694
-93.75 -218.75 717
429.688 218.75 666
203.125 -265.625 873
-70.3125 382.812 1464
-296.875 171.875 750
-445.312 203.125 839
-359.375 398.438 1214
-62.5 414.062 1433
70.3125 375 778
375 -7.8125 730
210.938 414.062 774
-484.375 203.125 878
203.125 226.562 700
0 398.438 1445
-78.125 382.812 1464
-15.625 -375 851
335.938 0 749
93.75 218.75 713
-492.188 46.875 790
-70.3125 -234.375 723
390.625 62.5 731
140.625 -62.5 851
343.75 234.375 687
265.625 46.875 771
171.875 210.938 694
304.688 -289.062 1073
-93.75 -281.25 889
179.688 414.062 781
31.25 -31.25 803
195.312 -273.438 871
-421.875 -234.375 1328
-101.562 -203.125 714
-164.062 -125 925
-359.375 -109.375 925
93.75 234.375 725
-39.0625 195.312 717
-242.188 335.938 817
-421.875 359.375 1031
-148.438 359.375 809
335.938 125 697
-132.812 -359.375 906
429.688 234.375 672
492.188 234.375 662
-85.9375 -375 862
453.125 210.938 666
78.125 -289.062 908
140.625 -234.375 843
-265.625 367.188 954
109.375 -296.875 837
273.438 15.625 755
46.875 398.438 1445
-468.75 187.5 831
85.9375 -304.688 843
179.688 -265.625 878
-70.3125 -273.438 885
265.625 -195.312 796
-414.062 46.875 802
-39.0625 -343.75 851
148.438 -195.312 789
62.5 203.125 707
328.125 15.625 741
-140.625 -7.8125 833
-117.188 195.312 734
-125 195.312 736
62.5 390.625 790
-125 -226.562 725
375 218.75 672
-242.188 179.688 750
-15.625 210.938 727
-257.812 328.125 813
-453.125 367.188 1034
-93.75 -234.375 728
218.75 -257.812 869
335.938 226.562 680
-445.312 148.438 811
-125 375 1297
39.0625 203.125 710
46.875 210.938 713
132.812 210.938 700
445.312 226.562 666
250 -234.375 851
210.938 -328.125 2859
-320.312 398.438 1019
265.625 226.562 691
15.625 210.938 719
39.0625 382.812 790
-85.9375 382.812 1458
-398.438 210.938 819
125 210.938 700
70.3125 -125 757
-140.625 -226.562 727
-367.188 312.5 833
-453.125 101.562 802
343.75 187.5 686
-312.5 101.562 825
-414.062 -156.25 984
132.812 390.625 780
343.75 62.5 723
156.25 210.938 697
289.062 46.875 771
-257.812 164.062 739
234.375 46.875 773
-367.188 39.0625 809
-46.875 -218.75 714
-93.75 -164.062 731
-46.875 -382.812 851
-179.688 187.5 742
-78.125 203.125 731
-429.688 -234.375 1328
312.5 117.188 722
312.5 54.6875 734
398.438 234.375 682
-70.3125 195.312 722
210.938 -171.875 776
476.562 226.562 663
140.625 -195.312 790
257.812 218.75 687
195.312 218.75 696
250 218.75 690
-304.688 171.875 754
93.75 -250 839
-367.188 218.75 867
226.562 437.5 1273
-500 54.6875 792
328.125 -281.25 1060
-179.688 -218.75 1264
85.9375 218.75 713
492.188 406.25 730
-414.062 54.6875 798
320.312 156.25 703
-179.688 289.062 823
-62.5 203.125 728
210.938 226.562 698
171.875 414.062 1322
-70.3125 -203.125 713
-109.375 375 1359
-203.125 351.562 811
-15.625 -85.9375 774
-250 398.438 1004
31.25 0 813
148.438 -203.125 789
93.75 -257.812 843
46.875 390.625 789
148.438 -296.875 849
289.062 148.438 710
-328.125 -46.875 849
382.812 218.75 671
46.875 203.125 708
-281.25 257.812 841
-85.9375 -421.875 880
117.188 -210.938 800
-156.25 -85.9375 891
-460.938 -296.875 2301
343.75 218.75 676
179.688 -171.875 783
-164.062 -132.812 933
-46.875 -164.062 728
195.312 226.562 701
210.938 -296.875 1090
-484.375 109.375 948
242.188 218.75 690
273.438 218.75 686
-312.5 398.438 1016
351.562 218.75 675
-15.625 -421.875 856
15.625 -187.5 717
-7.8125 210.938 725
312.5 156.25 704
-46.875 195.312 719
218.75 -289.062 867
-476.562 218.75 867
359.375 7.8125 739
-500 -140.625 954
398.438 218.75 670
328.125 125 700
-93.75 -54.6875 796
132.812 -203.125 794
-171.875 -179.688 981
-250 179.688 750
-101.562 187.5 727
-390.625 304.688 835
54.6875 390.625 789
468.75 226.562 663
-54.6875 -218.75 714
-492.188 62.5 943
-281.25 164.062 744
-23.4375 0 815
132.812 -179.688 796
-156.25 179.688 728
-164.062 -179.688 978
234.375 -187.5 781
351.562 234.375 687
304.688 156.25 704
0 382.812 798
-7.8125 -39.0625 803
-171.875 179.688 730
289.062 7.8125 754
-226.562 179.688 746
-78.125 -218.75 716
-390.625 390.625 1219
-468.75 179.688 831
-296.875 -226.562 1292
54.6875 203.125 707
-85.9375 -273.438 891
-171.875 -171.875 967
-375 203.125 819
218.75 -296.875 1090
-101.562 -296.875 887
-148.438 -46.875 860
421.875 226.562 668
-273.438 414.062 1197
429.688 -304.688 2723
0 210.938 722
62.5 -328.125 873
437.5 -273.438 1050
15.625 -328.125 860
-375 -125 995
-460.938 203.125 835
101.562 -296.875 843
-203.125 179.688 741
-460.938 359.375 1034
476.562 -179.688 938
-453.125 210.938 841
140.625 -296.875 839
23.4375 210.938 717
85.9375 -296.875 843
-7.8125 -15.625 817
210.938 -289.062 869
-468.75 -234.375 1333
-242.188 421.875 1189
31.25 398.438 1445
-460.938 62.5 805
-437.5 62.5 794
335.938 148.438 707
78.125 -312.5 891
-70.3125 -15.625 819
179.688 226.562 704
312.5 148.438 708
-421.875 78.125 790
335.938 39.0625 727
-328.125 265.625 837
335.938 218.75 676
-62.5 -117.188 754
-429.688 62.5 794
398.438 23.4375 764
-23.4375 -312.5 860
273.438 46.875 771
23.4375 -70.3125 781
-351.562 312.5 833
7.8125 203.125 716
187.5 218.75 697
-421.875 203.125 813
367.188 46.875 730
15.625 320.312 803
367.188 218.75 674
312.5 -281.25 1063
265.625 218.75 687
-226.562 171.875 738
-328.125 -453.125 2835
23.4375 398.438 1445
-273.438 -226.562 1292
242.188 -289.062 1077
359.375 218.75 674
-500 46.875 792
-171.875 -187.5 987
-312.5 7.8125 987
39.0625 328.125 798
398.438 -273.438 1054
328.125 218.75 678
492.188 -156.25 915
187.5 -234.375 891
-289.062 -226.562 1288
-54.6875 195.312 720
-351.562 54.6875 803
-39.0625 -203.125 713
-109.375 -203.125 716
-171.875 -164.062 964
-234.375 390.625 978
179.688 445.312 1268
-429.688 367.188 1041
-132.812 -226.562 725
93.75 210.938 706
-78.125 195.312 725
164.062 -296.875 845
85.9375 -234.375 837
23.4375 15.625 803
-109.375 187.5 727
390.625 54.6875 731
-23.4375 -148.438 739
0 203.125 717
164.062 414.062 1322
406.25 15.625 762
85.9375 -218.75 835
-78.125 -54.6875 796
109.375 -289.062 841
-226.562 429.688 1189
265.625 117.188 728
-39.0625 -210.938 713
-312.5 164.062 747
-304.688 -226.562 1292
-140.625 187.5 733
-335.938 15.625 833
7.8125 312.5 807
281.25 406.25 764
179.688 218.75 698
-109.375 15.625 811
-414.062 62.5 794
78.125 -289.062 908
414.062 335.938 776
187.5 226.562 703
-7.8125 -117.188 755
-351.562 -85.9375 903
437.5 226.562 667
296.875 109.375 704
-343.75 62.5 807
320.312 -281.25 1060
-476.562 -234.375 1333
273.438 140.625 714
468.75 -250 1022
312.5 164.062 698
-62.5 -406.25 860
460.938 414.062 742
109.375 -117.188 841
7.8125 -226.562 717
117.188 -117.188 831
390.625 93.75 734
-250 359.375 933
-179.688 429.688 1097
-31.25 15.625 809
304.688 226.562 687
-132.812 15.625 815
351.562 -78.125 856
296.875 156.25 704
109.375 -70.3125 858
-7.8125 -31.25 807
312.5 93.75 700
-468.75 226.562 862
-351.562 250 849
375 234.375 684
429.688 414.062 747
179.688 -164.062 787
85.9375 210.938 707
-312.5 406.25 1206
-101.562 -421.875 903
375 -281.25 1063
93.75 -242.188 837
109.375 -187.5 809
-7.8125 -148.438 738
-70.3125 -125 750
-320.312 -15.625 825
140.625 210.938 698
0 414.062 1427
78.125 335.938 790
7.8125 -195.312 711
281.25 101.562 706
171.875 -296.875 845
296.875 -289.062 1073
-445.312 85.9375 794
-375 -328.125 3238
320.312 218.75 679
156.25 414.062 1297
-15.625 -148.438 738
117.188 210.938 701
-289.062 164.062 746
140.625 445.312 1333
-210.938 179.688 746
-132.812 195.312 738
-23.4375 -359.375 851
-460.938 187.5 831
328.125 234.375 691
-257.812 179.688 752
-398.438 382.812 1227
23.4375 -54.6875 790
148.438 210.938 697
-304.688 85.9375 774
-101.562 -226.562 722
-109.375 -242.188 738
7.8125 -23.4375 811
-109.375 -210.938 716
-429.688 39.0625 794
-265.625 421.875 1193
476.562 -187.5 948
312.5 226.562 686
54.6875 320.312 803
218.75 218.75 693
31.25 210.938 719
-367.188 125 803
-62.5 304.688 811
-78.125 -320.312 867
226.562 218.75 691
484.375 226.562 663
171.875 226.562 704
-171.875 -195.312 992
-414.062 242.188 851
101.562 -125 854
-234.375 281.25 827
-382.812 -164.062 987
-46.875 -218.75 714
-343.75 398.438 1214
101.562 -304.688 839
-148.438 187.5 736
171.875 -171.875 785
-265.625 171.875 747
-54.6875 -164.062 728
85.9375 -320.312 839
109.375 -218.75 809
-7.8125 -406.25 856
-320.312 210.938 871
437.5 414.062 747
46.875 -218.75 710
-281.25 414.062 1197
-93.75 359.375 798
-453.125 -234.375 1328
-93.75 -351.562 864
281.25 31.25 781
-125 15.625 815
-62.5 -218.75 714
46.875 -335.938 867
-156.25 -101.562 767
-367.188 390.625 1214
398.438 242.188 686
343.75 234.375 687
39.0625 203.125 710
-289.062 328.125 815
453.125 226.562 666
85.9375 -273.438 920
468.75 -195.312 959
320.312 85.9375 720
125 210.938 700
-39.0625 -140.625 744
-125 -226.562 725
-359.375 -109.375 925
-468.75 125 851
-281.25 406.25 1010
-445.312 125 809
132.812 -218.75 796
210.938 406.25 774
187.5 -265.625 878
250 -226.562 851
-328.125 -406.25 2859
-375 382.812 1025
320.312 234.375 690
-273.438 273.438 831
-85.9375 195.312 727
-320.312 -23.4375 827
85.9375 218.75 713
406.25 437.5 940
31.25 203.125 711
375 62.5 736
-31.25 -296.875 864
-78.125 23.4375 803
-414.062 195.312 811
-453.125 117.188 817
-140.625 195.312 739
-39.0625 -156.25 734
-171.875 -171.875 967
-453.125 125 813
-70.3125 -164.062 728
-195.312 437.5 1097
273.438 320.312 792
-7.8125 203.125 717
-117.188 187.5 730
-460.938 203.125 835
195.312 -171.875 781
-375 265.625 835
-125 414.062 1181
226.562 406.25 769
218.75 -289.062 867
-273.438 234.375 805
78.125 210.938 707
171.875 414.062 1322
445.312 -265.625 1041
351.562 7.8125 744
23.4375 203.125 713
31.25 -343.75 860
-304.688 156.25 744
382.812 7.8125 736
296.875 226.562 687
-460.938 343.75 1034
-203.125 171.875 733
156.25 226.562 708
195.312 328.125 792
31.25 -171.875 725
-328.125 -39.0625 839
7.8125 210.938 720
-343.75 132.812 809
-7.8125 -70.3125 783
-359.375 195.312 811
-343.75 -70.3125 867
304.688 234.375 694
-382.812 226.562 860
-15.625 -320.312 856
273.438 132.812 717
335.938 0 749
164.062 414.062 1322
-117.188 421.875 1177
171.875 445.312 1268
-359.375 31.25 815
117.188 -257.812 849
-359.375 242.188 851
-93.75 -203.125 714
265.625 -289.062 1077
0 320.312 803
140.625 -265.625 839
375 226.562 674
-359.375 101.562 817
-93.75 -117.188 759
23.4375 -78.125 776
242.188 312.5 769
148.438 429.688 1283
-343.75 101.562 815
-492.188 -351.562 3149
-421.875 375 1038
148.438 -62.5 851
187.5 -62.5 849
-382.812 -148.438 987
250 -296.875 1084
156.25 429.688 1283
-31.25 -148.438 739
125 -320.312 831
375 70.3125 749
-445.312 -70.3125 987
-476.562 218.75 867
148.438 421.875 1288
-218.75 171.875 738
-125 -273.438 930
-351.562 101.562 815
-54.6875 -101.562 764
-85.9375 -218.75 717
312.5 234.375 693
-429.688 -281.25 2349
-328.125 -31.25 831
156.25 -171.875 790
-492.188 273.438 845
156.25 -265.625 869
-390.625 -70.3125 987
-109.375 -39.0625 807
-62.5 -203.125 713
7.8125 320.312 803
-125 -296.875 913
-85.9375 382.812 1458
304.688 -281.25 1063
210.938 -265.625 871
-179.688 179.688 738
-500 78.125 973
46.875 -320.312 871
-78.125 -203.125 713
335.938 335.938 783
70.3125 -265.625 923
367.188 234.375 684
70.3125 218.75 716
-398.438 46.875 802
-375 -70.3125 987
-351.562 242.188 854
132.812 210.938 700
140.625 -296.875 839
-101.562 7.8125 817
-54.6875 195.312 720
-476.562 -140.625 967
-265.625 164.062 742
93.75 -335.938 837
-421.875 31.25 794
359.375 93.75 696
-171.875 -164.062 964
398.438 7.8125 769
-429.688 375 1041
-421.875 382.812 1197
-7.8125 -335.938 854
93.75 218.75 713
164.062 210.938 696
203.125 406.25 776
-226.562 328.125 807
265.625 -250 835
304.688 218.75 683
210.938 -289.062 869
304.688 -15.625 796
-406.25 375 1028
367.188 70.3125 730
171.875 -265.625 878
-93.75 -218.75 717
-429.688 -156.25 981
242.188 -156.25 815
-351.562 390.625 1022
62.5 -351.562 873
320.312 406.25 755
312.5 -289.062 1073
460.938 406.25 741
171.875 -164.062 789
-132.812 -171.875 728
46.875 -406.25 871
-54.6875 203.125 727
-7.8125 -445.312 847
-31.25 -23.4375 813
-109.375 187.5 727
390.625 -273.438 1054
359.375 226.562 676
70.3125 210.938 710
-468.75 70.3125 798
-406.25 140.625 800
-218.75 343.75 817
70.3125 -328.125 880
-171.875 179.688 730
-54.6875 -218.75 714
218.75 445.312 1273
101.562 -296.875 843
210.938 -257.812 873
468.75 406.25 741
-109.375 -226.562 722
-85.9375 398.438 1445
273.438 218.75 686
304.688 85.9375 703
-375 390.625 1214
-281.25 -226.562 1288
-156.25 414.062 1185
-70.3125 -437.5 882
-351.562 -78.125 987
78.125 -289.062 908
-437.5 320.312 970
101.562 -234.375 837
-203.125 187.5 747
281.25 335.938 783
93.75 -234.375 835
257.812 -289.062 1077
390.625 226.562 671
171.875 328.125 794
453.125 -265.625 1041
-468.75 62.5 805
0 -132.812 746
7.8125 -78.125 778
445.312 -304.688 2723
62.5 218.75 716
-257.812 414.062 1010
367.188 226.562 678
-31.25 -125 750
-62.5 195.312 722
-15.625 203.125 717
-46.875 195.312 719
132.812 -320.312 831
-234.375 382.812 967
242.188 -250 851
195.312 398.438 773
-23.4375 382.812 794
140.625 -101.562 813
265.625 335.938 785
-62.5 -164.062 728
-335.938 -101.562 910
-484.375 70.3125 981
-500 54.6875 792
164.062 -164.062 790
-210.938 171.875 734
-335.938 367.188 989
382.812 -273.438 1057
-46.875 -203.125 713
343.75 70.3125 725
0 -312.5 860
125 -179.688 800
85.9375 -210.938 829
-320.312 164.062 747
-367.188 226.562 860
164.062 -109.375 802
-171.875 351.562 809
-148.438 -171.875 727
-335.938 406.25 1219
-367.188 -140.625 946
-453.125 367.188 1034
-375 203.125 819
-242.188 343.75 835
-187.5 437.5 1097
117.188 296.875 781
296.875 335.938 783
-468.75 -179.688 1250
312.5 -281.25 1063
93.75 -250 839
335.938 -23.4375 744
421.875 23.4375 764
-62.5 -312.5 862
179.688 226.562 704
-101.562 -195.312 716
-484.375 203.125 878
-46.875 -93.75 769
-85.9375 203.125 734
-492.188 351.562 1041
375 78.125 746
210.938 218.75 694
304.688 -289.062 1073
343.75 414.062 761
-351.562 125 807
-179.688 -218.75 1264
-382.812 390.625 1219
-250 414.062 1010
-156.25 187.5 736
304.688 78.125 706
195.312 226.562 701
-484.375 -234.375 1333
390.625 23.4375 761
-421.875 -156.25 981
54.6875 203.125 707
-31.25 -31.25 807
-93.75 382.812 1458
101.562 -109.375 891
156.25 -164.062 796
164.062 226.562 707
-164.062 -117.188 920
250 -242.188 851
375 -7.8125 730
-62.5 -85.9375 774
-335.938 320.312 825
15.625 210.938 719
-85.9375 15.625 809
265.625 218.75 687
390.625 218.75 670
-445.312 -156.25 975
273.438 203.125 683
242.188 -242.188 856
-140.625 7.8125 819
359.375 234.375 687
218.75 226.562 698
-117.188 187.5 730
-453.125 -156.25 975
15.625 398.438 1445
-93.75 -195.312 716
-351.562 62.5 803
-468.75 54.6875 790
195.312 -296.875 871
-15.625 -234.375 720
-164.062 351.562 807
-46.875 -234.375 723
367.188 15.625 742
156.25 218.75 701
109.375 -296.875 837
-109.375 -140.625 746
7.8125 0 815
-289.062 406.25 1013
-414.062 93.75 787
-351.562 171.875 813
-125 -7.8125 829
351.562 -70.3125 849
-476.562 46.875 787
320.312 -7.8125 762
-109.375 -328.125 882
460.938 398.438 742
-101.562 -250 741
-335.938 -39.0625 843
203.125 -289.062 871
273.438 226.562 690
-54.6875 -234.375 723
242.188 -234.375 860
0 -242.188 728
203.125 -296.875 871
257.812 218.75 687
-70.3125 -117.188 754
-421.875 210.938 813
117.188 210.938 701
23.4375 -85.9375 774
-468.75 328.125 998
31.25 -117.188 754
-93.75 203.125 738
-476.562 -328.125 2226
-39.0625 -101.562 764
-39.0625 -156.25 734
85.9375 -265.625 933
7.8125 -85.9375 773
85.9375 -328.125 837
-320.312 117.188 819
-320.312 171.875 821
187.5 -171.875 783
-296.875 -226.562 1292
-54.6875 -39.0625 803
-476.562 54.6875 787
203.125 218.75 694
-156.25 -85.9375 891
226.562 -257.812 864
-320.312 -226.562 1292
-492.188 85.9375 967
-320.312 398.438 1019
375 250 694
7.8125 398.438 1445
375 7.8125 736
-78.125 -218.75 716
-453.125 187.5 831
195.312 -171.875 781
-93.75 195.312 728
-296.875 328.125 819
-312.5 7.8125 987
-70.3125 -46.875 802
7.8125 203.125 716
156.25 414.062 1297
-429.688 -46.875 967
-429.688 382.812 1227
109.375 -187.5 809
-289.062 -257.812 2984
101.562 210.938 704
-101.562 -226.562 722
-382.812 85.9375 798
0 -85.9375 774
335.938 78.125 723
265.625 226.562 691
320.312 46.875 730
-46.875 390.625 1445
179.688 -171.875 783
-312.5 -226.562 1292
132.812 -62.5 854
-492.188 7.8125 813
-125 187.5 730
-15.625 328.125 800
-257.812 164.062 739
-468.75 226.562 862
-304.688 414.062 1206
125 210.938 700
-468.75 -234.375 1333
-414.062 210.938 811
148.438 406.25 781
-390.625 -164.062 987
-164.062 359.375 807
-78.125 -164.062 728
164.062 414.062 1322
-406.25 203.125 813
-85.9375 -195.312 714
-23.4375 203.125 723
-7.8125 -7.8125 821
-31.25 -320.312 858
226.562 218.75 691
-281.25 414.062 1197
156.25 -171.875 790
296.875 234.375 696
398.438 414.062 754
-117.188 -375 887
62.5 210.938 710
-23.4375 -328.125 856
7.8125 -7.8125 819
351.562 7.8125 744
-312.5 171.875 747
31.25 -148.438 736
78.125 203.125 704
-226.562 171.875 738
109.375 429.688 1322
296.875 -320.312 2812
15.625 203.125 714
289.062 85.9375 708
296.875 -7.8125 754
-15.625 312.5 807
-78.125 -195.312 714
-171.875 -164.062 964
-343.75 -54.6875 854
375 39.0625 739
-125 -179.688 725
125 -195.312 796
109.375 -203.125 805
289.062 234.375 696
-445.312 -164.062 978
-23.4375 -304.688 860
-70.3125 -218.75 716
-171.875 -156.25 954
-257.812 179.688 752
140.625 -195.312 790
-101.562 15.625 811
-328.125 320.312 829
0 -367.188 854
31.25 203.125 711
-250 421.875 1193
-484.375 351.562 1041
195.312 -328.125 2883
-375 312.5 831
-367.188 -132.812 946
-187.5 -218.75 1268
-328.125 -226.562 1292
23.4375 203.125 713
132.812 -203.125 794
-312.5 0 987
234.375 218.75 691
109.375 -226.562 831
-476.562 210.938 873
-312.5 -46.875 841
-164.062 179.688 730
-31.25 -414.062 856
367.188 7.8125 736
195.312 218.75 696
-93.75 15.625 811
289.062 132.812 717
93.75 210.938 706
-78.125 -242.188 736
-445.312 289.062 841
289.062 218.75 684
218.75 218.75 693
23.4375 -328.125 860
-164.062 187.5 738
-164.062 -125 925
117.188 -70.3125 858
-117.188 -226.562 723
382.812 62.5 736
39.0625 -414.062 871
-437.5 62.5 794
156.25 437.5 1283
7.8125 -242.188 727
273.438 406.25 764
23.4375 -179.688 720
382.812 226.562 672
125 382.812 774
-125 367.188 800
0 -23.4375 811
39.0625 203.125 710
-226.562 421.875 1013
-437.5 367.188 1028
-242.188 171.875 741
-23.4375 375 794
-117.188 226.562 762
-15.625 0 815
23.4375 382.812 792
125 -171.875 803
-382.812 195.312 809
78.125 375 778
-296.875 164.062 746
-500 156.25 906
281.25 -320.312 2789
78.125 218.75 714
187.5 -140.625 789
-398.438 140.625 800
281.25 85.9375 747
492.188 -296.875 2639
-414.062 218.75 867
-234.375 429.688 1189
-70.3125 -195.312 714
148.438 -265.625 867
-62.5 -218.75 714
367.188 -15.625 733
-195.312 -343.75 3010
-414.062 78.125 789
179.688 390.625 771
-132.812 414.062 1181
-101.562 -312.5 878
273.438 70.3125 755
468.75 414.062 739
-335.938 187.5 813
-132.812 343.75 798
-15.625 210.938 727
140.625 328.125 796
-171.875 359.375 807
-328.125 406.25 1210
109.375 210.938 703
-218.75 179.688 746
203.125 -257.812 875
390.625 39.0625 734
382.812 398.438 749
-328.125 140.625 815
273.438 234.375 698
140.625 -218.75 798
-85.9375 -218.75 717
117.188 179.688 701
-101.562 -195.312 716
289.062 -289.062 1073
367.188 -281.25 1063
226.562 -250 869
320.312 101.562 706
-62.5 375 796
-171.875 -195.312 992
-78.125 -437.5 882
335.938 31.25 730
-7.8125 15.625 805
-328.125 -39.0625 839
109.375 -289.062 841
-343.75 398.438 1214
-62.5 -195.312 714
-273.438 164.062 744
-156.25 -78.125 887
23.4375 -117.188 754
171.875 226.562 704
281.25 -289.062 1073
-429.688 296.875 837
429.688 -273.438 1054
-398.438 62.5 794
-93.75 -195.312 716
-390.625 -156.25 987
-351.562 195.312 811
-265.625 421.875 1193
296.875 218.75 683
148.438 226.562 710
304.688 234.375 694
-382.812 132.812 800
-39.0625 -46.875 798
-484.375 281.25 845
335.938 226.562 680
-382.812 -78.125 992
-242.188 421.875 1189
218.75 -171.875 776
296.875 -281.25 1063
-140.625 0 823
-78.125 -312.5 867
-101.562 -414.062 898
-125 -117.188 759
-421.875 250 845
-164.062 -117.188 920
-179.688 179.688 738
-343.75 93.75 821
171.875 445.312 1268
-70.3125 15.625 809
-445.312 132.812 807
-62.5 -39.0625 803
54.6875 210.938 710
-132.812 -140.625 747
0 15.625 803
-351.562 31.25 815
335.938 101.562 698
-351.562 46.875 807
7.8125 421.875 1415
-390.625 85.9375 792
-437.5 218.75 867
257.812 234.375 701
-31.25 0 819
257.812 226.562 694
-54.6875 -406.25 860
148.438 414.062 1292
-46.875 359.375 790
281.25 234.375 697
-304.688 -226.562 1292
382.812 54.6875 736
265.625 140.625 716
-406.25 46.875 802
-39.0625 414.062 1427
-101.562 -234.375 731
187.5 -296.875 871
-320.312 -343.75 3010
-101.562 195.312 728
140.625 226.562 710
187.5 218.75 697
-492.188 -406.25 2103
-210.938 343.75 815
148.438 -171.875 794
78.125 -320.312 889
-492.188 187.5 887
-414.062 -164.062 984
359.375 7.8125 739
289.062 15.625 754
195.312 -289.062 871
164.062 -203.125 785
195.312 -62.5 849
203.125 -289.062 871
109.375 -273.438 851
23.4375 -351.562 856
-85.9375 -164.062 730
492.188 234.375 662
-78.125 367.188 800
-289.062 164.062 746
-429.688 210.938 873
-171.875 -187.5 987
-406.25 -164.062 987
-140.625 -140.625 746
-156.25 296.875 817
445.312 234.375 671
-382.812 398.438 1219
31.25 -140.625 741
367.188 398.438 750
-164.062 -312.5 3092
289.062 -281.25 1063
-46.875 15.625 807
-117.188 15.625 813
0 210.938 722
-312.5 156.25 744
-281.25 164.062 744
-39.0625 -210.938 713
-109.375 -234.375 728
445.312 242.188 678
-492.188 -234.375 1338
-500 62.5 987
-414.062 39.0625 798
-492.188 93.75 964
-406.25 -156.25 987
281.25 148.438 710
-54.6875 -195.312 714
-351.562 218.75 823
382.812 101.562 730
-78.125 195.312 725
210.938 -289.062 869
-70.3125 195.312 722
-460.938 101.562 825
-195.312 179.688 739
85.9375 210.938 707
-46.875 -140.625 744
-273.438 171.875 749
-93.75 -296.875 880
-437.5 85.9375 790
-15.625 -351.562 851
-468.75 -140.625 967
-85.9375 -179.688 722
-429.688 70.3125 792
328.125 -15.625 742
-101.562 -117.188 759
320.312 414.062 764
-62.5 -164.062 728
-453.125 203.125 835
0 203.125 717
296.875 93.75 703
62.5 218.75 716
-382.812 187.5 809
-132.812 187.5 731
46.875 210.938 713
484.375 -156.25 918
-406.25 210.938 813
-46.875 -39.0625 803
-164.062 195.312 744
-78.125 304.688 813
335.938 414.062 762
-312.5 406.25 1206
-476.562 -148.438 962
-398.438 -156.25 987
-281.25 265.625 835
203.125 -171.875 778
250 335.938 785
-171.875 -156.25 954
359.375 335.938 781
-31.25 -148.438 739
-171.875 -179.688 981
-7.8125 23.4375 802
-148.438 -39.0625 856
164.062 -265.625 873
156.25 226.562 708
-359.375 39.0625 809
-23.4375 7.8125 811
-375 -156.25 987
-367.188 398.438 1214
-31.25 203.125 723
-382.812 218.75 819
382.812 -273.438 1057
-93.75 -140.625 744
-484.375 -234.375 1333
-265.625 -7.8125 837
398.438 39.0625 731
281.25 218.75 686
-281.25 171.875 749
-62.5 15.625 807
343.75 7.8125 746
39.0625 -328.125 867
492.188 -101.562 864
-78.125 -195.312 714
-23.4375 -15.625 821
-242.188 281.25 827
-39.0625 328.125 800
-164.062 -140.625 938
-101.562 203.125 736
-234.375 187.5 754
109.375 -281.25 845
-500 164.062 903
-39.0625 203.125 725
-328.125 398.438 1022
296.875 148.438 710
39.0625 -312.5 869
304.688 101.562 703
-210.938 187.5 749
234.375 421.875 1288
140.625 218.75 704
-320.312 156.25 744
343.75 218.75 676
265.625 445.312 1307
421.875 -273.438 1050
-398.438 257.812 841
-445.312 46.875 796
-382.812 312.5 835
453.125 -242.188 1013
-140.625 187.5 733
-453.125 46.875 790
-109.375 -257.812 746
250 -289.062 1077
-78.125 -15.625 819
93.75 437.5 1333
-101.562 -210.938 714
85.9375 -265.625 933
-414.062 375 1028
31.25 -85.9375 773
101.562 -250 841
-203.125 437.5 1101
-101.562 -93.75 771
-250 343.75 817
-85.9375 375 800
-437.5 203.125 837
-304.688 328.125 825
312.5 23.4375 739
-187.5 179.688 738
-195.312 -218.75 1268
-23.4375 15.625 809
7.8125 203.125 716
-7.8125 210.938 725
429.688 234.375 672
-78.125 15.625 809
210.938 218.75 694
-429.688 187.5 817
179.688 218.75 698
-226.562 429.688 1189
-62.5 -437.5 858
140.625 421.875 1288
-62.5 -218.75 714
-156.25 195.312 744
-375 390.625 1214
-39.0625 -117.188 757
437.5 234.375 672
31.25 15.625 802
234.375 437.5 1273
-70.3125 -218.75 716
476.562 242.188 674
250 226.562 694
-460.938 -62.5 978
-445.312 -234.375 1328
-156.25 -140.625 746
7.8125 -125 750
-460.938 289.062 849
132.812 218.75 704
-203.125 -218.75 1268
-39.0625 -125 750
195.312 -296.875 871
367.188 -273.438 1054
-453.125 156.25 829
257.812 132.812 720
-39.0625 -148.438 741
-492.188 359.375 1145
93.75 -85.9375 873
-93.75 -203.125 714
304.688 125 722
281.25 101.562 706
-429.688 375 1041
359.375 15.625 739
-62.5 -148.438 739
148.438 328.125 796
-492.188 54.6875 790
-39.0625 226.562 746
-101.562 382.812 1458
-406.25 31.25 796
-70.3125 -195.312 714
62.5 421.875 1415
312.5 125 720
140.625 -289.062 841
-109.375 203.125 739
-23.4375 -15.625 821
-335.938 -226.562 1297
23.4375 -179.688 720
-382.812 203.125 815
-343.75 31.25 815
-437.5 226.562 862
460.938 226.562 664
140.625 -210.938 798
-125 15.625 815
-125 187.5 730
-70.3125 398.438 1439
-39.0625 -203.125 713
-304.688 -226.562 1292
-335.938 -46.875 849
-351.562 -78.125 987
93.75 -195.312 811
351.562 398.438 750
93.75 -273.438 851
445.312 -265.625 1041
78.125 210.938 707
312.5 101.562 701
460.938 234.375 670
492.188 226.562 658
343.75 39.0625 725
164.062 -171.875 789
359.375 -281.25 1063
-15.625 15.625 807
359.375 85.9375 696
367.188 15.625 742
132.812 -210.938 796
101.562 210.938 704
-54.6875 -179.688 720
-78.125 -164.062 728
359.375 54.6875 725
140.625 -226.562 843
-62.5 -195.312 714
-500 -234.375 1338
-289.062 257.812 841
265.625 234.375 700
-62.5 195.312 722
-359.375 93.75 825
-7.8125 203.125 717
398.438 335.938 776
-15.625 -289.062 869
242.188 421.875 1283
273.438 335.938 783
-343.75 70.3125 807
-78.125 -140.625 741
281.25 46.875 773
101.562 -226.562 831
468.75 335.938 776
406.25 31.25 764
476.562 226.562 663
-93.75 -23.4375 813
234.375 -242.188 869
468.75 234.375 670
-70.3125 -7.8125 825
320.312 31.25 731
179.688 -132.812 790
468.75 -210.938 973
-312.5 -226.562 1292
-281.25 31.25 809
93.75 210.938 706
85.9375 -203.125 827
312.5 70.3125 730
375 320.312 754
-468.75 46.875 790
-218.75 187.5 749
-359.375 -101.562 925
-328.125 -226.562 1292
-15.625 -453.125 849
359.375 62.5 725
-250 171.875 741
-78.125 -218.75 716
-234.375 289.062 821
-39.0625 -210.938 713
-351.562 257.812 841
-343.75 226.562 860
-164.062 -109.375 915
-117.188 -140.625 746
-23.4375 203.125 723
234.375 226.562 697
-125 -70.3125 787
-164.062 382.812 1141
-328.125 39.0625 819
-265.625 335.938 813
-39.0625 312.5 809
-156.25 -109.375 769
70.3125 218.75 716
195.312 -289.062 871
226.562 421.875 1292
-375 -62.5 978
-203.125 289.062 823
437.5 -265.625 1044
-351.562 195.312 811
343.75 226.562 679
492.188 242.188 667
-85.9375 -31.25 809
-445.312 250 845
7.8125 406.25 1439
-484.375 210.938 873
484.375 234.375 667
203.125 -289.062 871
-85.9375 -140.625 742
-406.25 382.812 1227
-375 218.75 864
-54.6875 -164.062 728
-62.5 -140.625 741
-31.25 -132.812 747
-78.125 375 800
117.188 -171.875 803
-398.438 -164.062 987
-242.188 398.438 995
-109.375 195.312 730
23.4375 -187.5 717
-85.9375 -132.812 749
195.312 -171.875 781
-125 -156.25 739
171.875 445.312 1268
132.812 226.562 711
484.375 242.188 672
398.438 445.312 959
-335.938 257.812 841
-492.188 -140.625 964
304.688 226.562 687
414.062 234.375 676
-328.125 164.062 819
-164.062 414.062 1157
-46.875 -93.75 769
-414.062 304.688 837
234.375 234.375 704
-125 -140.625 747
-375 39.0625 807
406.25 343.75 773
-390.625 46.875 802
484.375 226.562 663
-460.938 -156.25 973
54.6875 -273.438 901
164.062 320.312 798
39.0625 -273.438 891
179.688 -296.875 873
226.562 -171.875 778
468.75 226.562 663
-54.6875 -78.125 780
-304.688 164.062 746
328.125 132.812 706
-85.9375 -398.438 869
375 414.062 754
-359.375 312.5 831
0 -70.3125 781
70.3125 -367.188 875
-23.4375 -335.938 854
-273.438 179.688 755
226.562 -328.125 2835
-54.6875 -195.312 714
218.75 421.875 1302
23.4375 -195.312 713
-320.312 -226.562 1292
-46.875 -140.625 744
-125 -375 901
421.875 234.375 675
-195.312 429.688 1084
296.875 -15.625 811
218.75 445.312 1273
406.25 54.6875 727
351.562 7.8125 744
-359.375 7.8125 809
-7.8125 -156.25 734
429.688 226.562 667
-156.25 -156.25 733
-39.0625 210.938 719
492.188 320.312 719
46.875 218.75 710
-234.375 171.875 731
-78.125 195.312 714
54.6875 328.125 802
-335.938 406.25 1210
-101.562 15.625 813
203.125 445.312 1273
-406.25 140.625 796
31.25 -125 742
-453.125 351.562 935
-304.688 414.062 1202
-7.8125 -31.25 800
429.688 242.188 670
-320.312 398.438 1016
-343.75 -54.6875 860
-390.625 156.25 800
-109.375 -195.312 711
-7.8125 328.125 802
406.25 242.188 674
-156.25 -117.188 752
-54.6875 15.625 809
78.125 390.625 780
-171.875 179.688 722
367.188 31.25 741
-70.3125 -31.25 800
-78.125 -148.438 733
-359.375 398.438 1019
-351.562 46.875 807
-179.688 187.5 730
179.688 406.25 774
296.875 226.562 678
7.8125 15.625 805
-140.625 359.375 800
-203.125 179.688 731
-109.375 -140.625 739
-78.125 -414.062 867
-234.375 429.688 1185
-46.875 210.938 722
23.4375 -171.875 717
-289.062 179.688 747
-390.625 -164.062 984
-23.4375 -437.5 845
-132.812 -125 747
-242.188 -343.75 3037
-429.688 54.6875 800
-414.062 187.5 805
-328.125 -23.4375 827
85.9375 210.938 698
289.062 31.25 754
140.625 -265.625 854
-132.812 187.5 720
-320.312 -15.625 825
195.312 218.75 687
179.688 -265.625 873
-23.4375 -343.75 849
-453.125 -54.6875 975
-7.8125 398.438 790
398.438 70.3125 723
414.062 -273.438 1050
-296.875 -343.75 3064
289.062 140.625 716
-101.562 -46.875 792
187.5 -328.125 2908
-78.125 -179.688 716
-226.562 187.5 741
-15.625 406.25 1439
-62.5 -210.938 711
-367.188 125 803
70.3125 210.938 700
343.75 70.3125 722
-351.562 0 813
-359.375 -460.938 2723
-39.0625 -226.562 719
-359.375 31.25 817
-70.3125 -164.062 722
335.938 398.438 750
156.25 -265.625 867
7.8125 203.125 706
187.5 -289.062 871
-93.75 -273.438 885
375 54.6875 736
-445.312 296.875 841
-93.75 15.625 811
289.062 -281.25 1063
296.875 31.25 754
445.312 226.562 662
328.125 226.562 674
-39.0625 -15.625 811
31.25 -234.375 722
-398.438 210.938 813
-257.812 390.625 975
257.812 335.938 789
-78.125 406.25 1433
218.75 218.75 684
421.875 242.188 670
-156.25 -70.3125 789
-140.625 7.8125 823
-93.75 203.125 727
468.75 242.188 663
85.9375 -273.438 845
226.562 -179.688 780
-242.188 187.5 744
-85.9375 195.312 714
-335.938 304.688 817
-117.188 -117.188 752
-351.562 398.438 1019
-476.562 218.75 869
-171.875 -156.25 954
289.062 70.3125 730
125 -179.688 792
-156.25 -171.875 722
-414.062 31.25 794
187.5 -296.875 1090
-85.9375 -296.875 869
453.125 226.562 662
-343.75 -226.562 1302
-171.875 -148.438 946
171.875 -117.188 790
-335.938 273.438 833
23.4375 -421.875 873
382.812 85.9375 742
-46.875 -156.25 727
179.688 -203.125 858
421.875 226.562 664
-171.875 187.5 728
-273.438 421.875 1197
273.438 132.812 720
-476.562 171.875 829
-148.438 187.5 723
-46.875 203.125 716
-70.3125 -257.812 887
-390.625 -171.875 987
-31.25 203.125 711
242.188 234.375 693
289.062 -320.312 2835
-343.75 39.0625 815
-476.562 117.188 943
125 226.562 703
226.562 -93.75 856
460.938 242.188 663
-359.375 203.125 809
54.6875 -257.812 918
-476.562 367.188 1041
242.188 226.562 684
-453.125 148.438 805
312.5 398.438 752
101.562 -289.062 835
39.0625 -328.125 864
-109.375 382.812 798
0 203.125 707
156.25 398.438 773
-226.562 171.875 730
-289.062 171.875 741
140.625 -171.875 789
-218.75 171.875 730
-70.3125 -414.062 858
-46.875 312.5 811
-54.6875 -140.625 736
117.188 -179.688 796
-406.25 289.062 827
218.75 226.562 687
-398.438 390.625 1028
367.188 234.375 671
-117.188 195.312 722
-156.25 210.938 744
31.25 -109.375 752
23.4375 390.625 787
171.875 218.75 690
-476.562 281.25 835
-31.25 -359.375 847
187.5 218.75 688
-273.438 -7.8125 1047
-23.4375 210.938 717
-429.688 46.875 796
62.5 210.938 700
148.438 -164.062 789
-31.25 -156.25 727
39.0625 -39.0625 790
132.812 -164.062 792
-203.125 -343.75 3010
-93.75 -156.25 728
-140.625 367.188 796
-15.625 -367.188 847
-7.8125 -226.562 717
-62.5 0 821
437.5 226.562 662
-265.625 -343.75 3064
-335.938 -46.875 847
-171.875 367.188 807
140.625 -296.875 841
31.25 210.938 708
-39.0625 -31.25 800
-164.062 -117.188 752
-234.375 179.688 736
23.4375 -320.312 860
117.188 210.938 694
-343.75 -7.8125 817
-500 -132.812 954
23.4375 15.625 803
-281.25 164.062 736
93.75 398.438 783
273.438 -320.312 2835
281.25 39.0625 754
-132.812 15.625 815
-187.5 -343.75 2984
-46.875 -117.188 750
-265.625 375 951
406.25 23.4375 759
-85.9375 367.188 790
23.4375 -226.562 716
-54.6875 414.062 1427
31.25 148.438 723
289.062 226.562 679
453.125 242.188 667
-85.9375 -226.562 720
0 -226.562 717
-117.188 15.625 815
-125 23.4375 809
242.188 -289.062 1077
414.062 226.562 664
390.625 70.3125 727
78.125 -281.25 845
296.875 414.062 757
