ply
format ascii 1.0
comment Created by Open3D
element vertex 2403
property double x
property double y
property double z
end_header
-62.5 343.75 683
-421.875 398.438 1041
-250 296.875 704
-54.6875 -203.125 964
-328.125 -54.6875 698
-500 70.3125 796
39.0625 359.375 671
-421.875 7.8125 959
-328.125 -101.562 676
-78.125 -390.625 821
-304.688 -132.812 688
-70.3125 -242.188 829
-328.125 -226.562 1245
210.938 156.25 697
0 -210.938 783
-101.562 -406.25 817
-78.125 -328.125 803
-296.875 281.25 706
-359.375 -70.3125 1094
-234.375 -117.188 675
171.875 367.188 643
-39.0625 -281.25 833
281.25 382.812 630
343.75 382.812 622
-179.688 -390.625 781
171.875 382.812 659
7.8125 343.75 663
15.625 -218.75 796
-179.688 312.5 693
-328.125 -453.125 2835
-39.0625 -234.375 773
-492.188 -39.0625 896
179.688 171.875 683
-273.438 -7.8125 727
156.25 265.625 657
-429.688 257.812 742
226.562 179.688 693
-46.875 -281.25 825
-148.438 93.75 783
-15.625 -234.375 774
-218.75 -257.812 811
289.062 382.812 628
187.5 179.688 683
-23.4375 335.938 667
351.562 382.812 621
-187.5 445.312 794
234.375 -265.625 995
-382.812 406.25 1025
-468.75 0 831
-265.625 289.062 701
-140.625 -312.5 790
-343.75 382.812 807
-265.625 -273.438 839
-140.625 328.125 700
406.25 -54.6875 829
109.375 -171.875 805
-453.125 250 744
-31.25 -93.75 742
296.875 390.625 630
-398.438 250 723
-15.625 351.562 679
-468.75 125 803
-7.8125 -132.812 792
-476.562 -132.812 951
164.062 203.125 683
-234.375 296.875 697
-23.4375 -78.125 744
-296.875 -132.812 688
-7.8125 -109.375 734
-156.25 -78.125 668
117.188 148.438 713
-500 -132.812 956
101.562 148.438 739
-476.562 132.812 802
226.562 70.3125 769
-156.25 62.5 774
226.562 367.188 636
-453.125 382.812 1034
-148.438 62.5 769
-15.625 -78.125 742
-445.312 -398.438 2156
367.188 382.812 620
0 -15.625 755
-242.188 -101.562 670
70.3125 -406.25 2835
31.25 359.375 675
-117.188 85.9375 783
117.188 -164.062 798
109.375 359.375 648
398.438 -203.125 935
-296.875 46.875 778
70.3125 351.562 654
54.6875 -281.25 1025
-7.8125 -148.438 790
-242.188 -195.312 869
-226.562 414.062 789
-218.75 -265.625 809
-15.625 -85.9375 739
-265.625 -101.562 672
109.375 -195.312 792
-281.25 289.062 710
-312.5 -390.625 3010
-437.5 -15.625 849
-140.625 -421.875 817
-31.25 -210.938 778
-460.938 250 746
-140.625 -289.062 792
7.8125 -101.562 728
195.312 -265.625 998
-39.0625 -343.75 829
210.938 367.188 637
-437.5 242.188 728
-328.125 273.438 713
-351.562 265.625 716
-242.188 -242.188 833
0 -117.188 734
210.938 382.812 643
-468.75 -46.875 882
-500 -398.438 3064
-492.188 -46.875 898
-265.625 -39.0625 704
7.8125 -125 787
-31.25 -140.625 757
-156.25 312.5 684
312.5 375 625
-500 78.125 794
-351.562 -39.0625 882
-359.375 -78.125 1097
234.375 140.625 710
-156.25 31.25 746
257.812 375 632
-15.625 -265.625 769
-460.938 242.188 738
125 156.25 733
-453.125 78.125 854
140.625 242.188 670
-164.062 -70.3125 671
-31.25 -273.438 769
-70.3125 328.125 672
-210.938 93.75 787
23.4375 343.75 661
132.812 351.562 647
-156.25 -281.25 794
140.625 210.938 687
-46.875 -179.688 783
-156.25 -70.3125 671
23.4375 -289.062 1034
-93.75 -273.438 805
-500 -39.0625 896
-468.75 -414.062 2116
-421.875 0 962
-265.625 -23.4375 714
-343.75 281.25 736
148.438 226.562 678
-484.375 85.9375 809
-476.562 -85.9375 910
-343.75 -31.25 869
-125 320.312 683
-101.562 335.938 688
46.875 -62.5 727
-15.625 343.75 668
-281.25 -101.562 674
-351.562 -46.875 878
31.25 -289.062 1034
335.938 -250 978
-164.062 93.75 781
210.938 85.9375 690
164.062 164.062 686
-140.625 93.75 781
-171.875 -304.688 789
-250 -296.875 821
-23.4375 -125 741
23.4375 -70.3125 733
-85.9375 -343.75 802
-484.375 250 813
-453.125 85.9375 854
406.25 -39.0625 819
-445.312 -15.625 849
-437.5 367.188 829
-382.812 257.812 720
-500 -421.875 2090
-23.4375 -140.625 757
-93.75 -257.812 809
390.625 -242.188 967
-476.562 117.188 798
-289.062 351.562 821
-273.438 46.875 774
15.625 -289.062 1038
-31.25 -226.562 774
187.5 164.062 684
-31.25 0 825
39.0625 -101.562 725
109.375 -273.438 1010
-304.688 -390.625 3010
140.625 281.25 676
-179.688 93.75 785
-335.938 -226.562 1245
117.188 -132.812 734
-320.312 -132.812 693
-203.125 304.688 696
-242.188 -54.6875 690
54.6875 -148.438 813
-140.625 390.625 796
31.25 351.562 664
-70.3125 -382.812 821
-242.188 -382.812 835
-296.875 351.562 821
-335.938 -78.125 684
132.812 281.25 676
289.062 390.625 632
460.938 -132.812 1087
-453.125 234.375 733
-257.812 421.875 796
-226.562 -39.0625 698
-312.5 -132.812 691
-218.75 -39.0625 698
-304.688 54.6875 817
-304.688 -414.062 2958
-460.938 382.812 1034
7.8125 15.625 811
-62.5 -140.625 776
-78.125 -390.625 821
117.188 -156.25 803
-140.625 320.312 690
-156.25 -62.5 679
203.125 195.312 687
-406.25 257.812 734
85.9375 242.188 696
-226.562 -367.188 817
-234.375 -312.5 805
-195.312 -367.188 794
-429.688 242.188 728
156.25 359.375 643
-140.625 -281.25 794
-398.438 406.25 1034
-312.5 -7.8125 731
195.312 375 641
-421.875 -234.375 1264
-39.0625 -312.5 827
-54.6875 -203.125 964
-234.375 -117.188 675
-398.438 320.312 839
-15.625 406.25 787
-296.875 281.25 706
265.625 -257.812 987
-429.688 -234.375 1264
-226.562 -109.375 671
-476.562 375 1001
-445.312 -234.375 1264
-31.25 -218.75 776
-101.562 328.125 686
-375 414.062 1034
-320.312 -23.4375 720
203.125 132.812 687
-117.188 320.312 678
-312.5 289.062 731
-312.5 -23.4375 723
-445.312 -335.938 2271
476.562 289.062 821
-226.562 46.875 767
85.9375 367.188 666
-179.688 320.312 708
78.125 359.375 661
398.438 -195.312 930
-296.875 359.375 815
-101.562 -406.25 817
-289.062 85.9375 798
-335.938 -15.625 860
-7.8125 -250 767
132.812 250 667
-234.375 -226.562 839
0 -125 792
132.812 -273.438 1010
-234.375 367.188 811
-218.75 93.75 789
-257.812 -203.125 987
-148.438 -109.375 666
218.75 367.188 637
-250 93.75 789
-359.375 -62.5 1090
406.25 -23.4375 811
-39.0625 -335.938 827
-351.562 -226.562 1245
-351.562 -226.562 1245
-31.25 335.938 668
406.25 257.812 667
-15.625 -179.688 783
140.625 375 657
-234.375 15.625 744
-406.25 265.625 747
281.25 390.625 632
-468.75 -7.8125 845
-375 343.75 827
-312.5 -101.562 676
218.75 101.562 684
195.312 132.812 690
132.812 187.5 694
-226.562 -46.875 693
-218.75 7.8125 733
218.75 187.5 696
-203.125 93.75 787
-453.125 -367.188 2212
-476.562 226.562 736
414.062 148.438 717
-39.0625 -226.562 776
-242.188 -320.312 811
-210.938 304.688 698
125 226.562 667
-171.875 -281.25 794
-148.438 -117.188 670
-78.125 -367.188 809
-210.938 390.625 798
-226.562 -179.688 967
273.438 382.812 631
-187.5 -156.25 693
101.562 156.25 734
-484.375 132.812 792
382.812 398.438 619
-367.188 414.062 1031
-406.25 250 727
125 203.125 687
39.0625 -93.75 725
-242.188 296.875 703
101.562 351.562 649
-70.3125 398.438 790
-492.188 93.75 803
-242.188 -289.062 813
125 281.25 678
-218.75 -375 807
-484.375 -125 956
-54.6875 -125 754
132.812 226.562 667
148.438 296.875 668
117.188 -281.25 1019
250 445.312 720
132.812 367.188 653
-195.312 93.75 787
-398.438 328.125 835
-398.438 265.625 746
-406.25 296.875 800
-468.75 7.8125 825
-39.0625 -343.75 829
-375 273.438 742
-46.875 -125 752
-85.9375 328.125 678
187.5 218.75 688
179.688 367.188 642
257.812 -257.812 987
-15.625 -85.9375 739
164.062 437.5 764
-382.812 328.125 835
-273.438 -226.562 1232
-343.75 -62.5 690
-468.75 15.625 825
-289.062 289.062 717
-421.875 15.625 959
-312.5 -382.812 3010
-351.562 -70.3125 690
101.562 -23.4375 807
-320.312 -445.312 2859
-296.875 -54.6875 697
31.25 -70.3125 731
-281.25 -23.4375 719
-70.3125 -250 823
-187.5 -62.5 678
-312.5 -375 3037
-70.3125 414.062 783
-171.875 93.75 783
101.562 -187.5 802
-468.75 -445.312 2090
-273.438 -70.3125 682
-414.062 312.5 843
-164.062 312.5 688
-273.438 289.062 707
54.6875 351.562 657
-429.688 -7.8125 962
-414.062 -234.375 1264
-289.062 -132.812 688
296.875 375 628
132.812 -187.5 776
54.6875 -289.062 1031
-54.6875 -367.188 821
406.25 -203.125 933
-320.312 -468.75 2812
-31.25 -289.062 837
-187.5 70.3125 787
-210.938 437.5 794
-351.562 273.438 730
-445.312 242.188 731
171.875 132.812 701
-7.8125 -132.812 792
-296.875 -93.75 675
-304.688 -132.812 688
-265.625 -109.375 675
109.375 -117.188 733
-210.938 -390.625 817
46.875 -281.25 1025
-218.75 304.688 701
39.0625 -187.5 827
15.625 343.75 662
-195.312 304.688 693
0 -132.812 790
109.375 -62.5 776
-203.125 -390.625 790
-109.375 320.312 678
-492.188 -390.625 2170
-54.6875 -171.875 780
406.25 250 670
-171.875 -289.062 790
-492.188 -242.188 1288
-148.438 -289.062 792
-31.25 -320.312 837
23.4375 351.562 664
125 195.312 693
-85.9375 320.312 674
234.375 445.312 755
-62.5 328.125 671
-117.188 78.125 780
-343.75 -85.9375 682
273.438 445.312 713
335.938 382.812 623
-62.5 304.688 676
-226.562 70.3125 789
-23.4375 351.562 688
-390.625 -250 1264
-250 -273.438 823
-70.3125 -242.188 829
-62.5 335.938 676
-101.562 320.312 676
187.5 203.125 684
328.125 382.812 624
-226.562 -109.375 671
304.688 375 627
-7.8125 -148.438 790
-335.938 -289.062 2812
390.625 390.625 618
-31.25 351.562 688
-382.812 23.4375 833
-351.562 382.812 809
-437.5 -234.375 1264
-85.9375 -250 817
117.188 -273.438 1010
-187.5 304.688 691
0 -203.125 783
-156.25 -93.75 663
-453.125 -15.625 845
164.062 375 648
7.8125 -156.25 787
203.125 -273.438 1007
-7.8125 -187.5 781
-296.875 -132.812 688
-31.25 -281.25 843
-312.5 39.0625 825
-273.438 62.5 790
-343.75 -226.562 1245
-210.938 -335.938 796
-328.125 7.8125 845
0 -210.938 783
-23.4375 343.75 674
164.062 187.5 682
-351.562 -46.875 878
-296.875 -39.0625 707
234.375 375 635
-406.25 7.8125 964
-101.562 -335.938 796
-156.25 -132.812 675
-265.625 -15.625 719
195.312 437.5 762
203.125 382.812 653
-125 -234.375 811
156.25 156.25 688
132.812 375 659
-46.875 -101.562 755
-218.75 312.5 716
414.062 -148.438 889
-359.375 -62.5 1090
-148.438 312.5 683
23.4375 359.375 680
-453.125 -281.25 2398
-46.875 335.938 675
296.875 367.188 630
-109.375 335.938 698
-421.875 250 731
-390.625 257.812 723
-39.0625 -164.062 785
46.875 -367.188 2933
93.75 351.562 649
367.188 398.438 621
-359.375 265.625 722
218.75 117.188 683
-476.562 210.938 742
109.375 210.938 686
-148.438 -85.9375 666
-468.75 234.375 736
-281.25 70.3125 803
-31.25 -93.75 742
101.562 359.375 650
-320.312 281.25 720
-320.312 23.4375 837
-296.875 -85.9375 675
-437.5 -15.625 849
-484.375 -367.188 2184
-93.75 335.938 687
-242.188 -234.375 839
-406.25 -234.375 1264
-210.938 304.688 698
414.062 117.188 733
-187.5 93.75 785
132.812 195.312 693
117.188 -140.625 813
406.25 -210.938 940
-164.062 -343.75 789
-312.5 31.25 829
406.25 -171.875 908
226.562 109.375 684
-476.562 -78.125 901
-171.875 -210.938 825
-62.5 -148.438 780
406.25 -195.312 928
-257.812 296.875 707
62.5 351.562 654
46.875 -148.438 815
-117.188 -218.75 821
-70.3125 -218.75 849
-39.0625 -156.25 783
-132.812 -296.875 790
-312.5 -132.812 691
-500 -46.875 898
265.625 -265.625 992
406.25 265.625 663
62.5 -93.75 727
218.75 195.312 710
-210.938 -351.562 798
-484.375 -39.0625 967
-31.25 7.8125 821
164.062 226.562 676
-54.6875 -203.125 964
-39.0625 -226.562 776
-421.875 7.8125 959
359.375 453.125 683
15.625 -109.375 728
-382.812 265.625 736
-62.5 -289.062 815
-414.062 39.0625 970
-257.812 0 731
406.25 -31.25 815
-500 367.188 1047
-7.8125 -250 767
-171.875 -70.3125 671
-70.3125 -93.75 831
-242.188 296.875 703
0 343.75 664
39.0625 -101.562 725
-179.688 -367.188 792
-54.6875 -351.562 819
132.812 203.125 687
-437.5 390.625 1038
-78.125 328.125 676
-343.75 421.875 1028
93.75 265.625 686
93.75 265.625 686
-210.938 -132.812 682
-242.188 -375 839
-265.625 289.062 701
-156.25 -70.3125 671
-273.438 289.062 707
-437.5 250 742
-476.562 -70.3125 901
-273.438 23.4375 754
-187.5 0 725
-429.688 109.375 789
398.438 343.75 632
414.062 -7.8125 800
-171.875 62.5 773
164.062 257.812 655
-273.438 -54.6875 691
203.125 187.5 687
-164.062 109.375 774
-187.5 -359.375 794
-250 -54.6875 690
492.188 226.562 849
-468.75 117.188 803
-328.125 343.75 825
-148.438 -62.5 680
-335.938 -7.8125 854
-70.3125 -382.812 821
156.25 226.562 676
-375 320.312 839
-226.562 -179.688 967
-273.438 93.75 792
-171.875 -304.688 789
7.8125 -148.438 787
-187.5 312.5 701
-54.6875 -109.375 761
-421.875 93.75 792
-257.812 -210.938 858
-242.188 -359.375 827
-468.75 359.375 835
-54.6875 -335.938 815
-289.062 359.375 815
-492.188 -117.188 962
234.375 164.062 693
-242.188 -296.875 813
-476.562 -359.375 2212
-62.5 -132.812 762
-304.688 -85.9375 676
-250 -39.0625 703
-320.312 359.375 817
-328.125 273.438 713
-78.125 -375 811
-460.938 -390.625 2156
445.312 343.75 794
39.0625 -281.25 1025
-46.875 -242.188 773
-109.375 -289.062 796
-257.812 7.8125 739
-421.875 15.625 959
-304.688 -78.125 679
406.25 296.875 650
-320.312 289.062 734
117.188 -109.375 734
-242.188 -7.8125 723
-31.25 -312.5 837
-62.5 -218.75 851
-156.25 -312.5 787
117.188 -148.438 807
-78.125 -242.188 823
-289.062 -453.125 2883
414.062 109.375 738
-320.312 -78.125 680
-492.188 -54.6875 903
-289.062 296.875 730
-187.5 -39.0625 697
78.125 351.562 652
398.438 -242.188 967
-281.25 -117.188 679
-343.75 -23.4375 867
23.4375 -93.75 727
-195.312 -234.375 811
476.562 218.75 856
-242.188 -117.188 676
250 375 632
-289.062 -93.75 674
-296.875 78.125 802
-203.125 -62.5 680
-289.062 -54.6875 694
-218.75 375 807
382.812 390.625 618
-31.25 -296.875 835
187.5 156.25 688
-351.562 281.25 741
-328.125 -23.4375 720
187.5 375 642
-226.562 -257.812 813
179.688 390.625 663
-93.75 414.062 787
54.6875 421.875 776
-125 320.312 683
-39.0625 -257.812 769
195.312 -265.625 998
179.688 421.875 714
-195.312 -351.562 794
15.625 -132.812 787
-250 304.688 714
265.625 382.812 631
62.5 421.875 776
-164.062 85.9375 787
-218.75 -179.688 967
-242.188 -54.6875 690
-46.875 -179.688 783
-468.75 23.4375 823
492.188 7.8125 981
-437.5 257.812 752
-203.125 -171.875 959
62.5 -101.562 727
-242.188 -281.25 815
218.75 210.938 703
210.938 195.312 687
-179.688 382.812 803
-421.875 101.562 789
-460.938 15.625 823
445.312 375 778
-335.938 343.75 825
226.562 210.938 703
-367.188 265.625 723
-289.062 289.062 717
7.8125 343.75 663
468.75 -140.625 1087
375 -367.188 2598
-312.5 15.625 750
-226.562 -320.312 802
70.3125 359.375 662
148.438 359.375 646
7.8125 -125 787
-156.25 312.5 684
-265.625 -304.688 835
-453.125 -359.375 2226
-203.125 382.812 802
-429.688 -304.688 2349
-320.312 -453.125 2835
-164.062 312.5 688
0 -195.312 783
-140.625 -390.625 787
-39.0625 335.938 671
109.375 359.375 648
-203.125 -359.375 796
-171.875 -296.875 789
-414.062 257.812 736
-203.125 -39.0625 697
-468.75 195.312 742
171.875 421.875 722
-23.4375 -195.312 781
-15.625 -187.5 781
-460.938 39.0625 809
109.375 132.812 713
-15.625 -257.812 767
93.75 156.25 734
-445.312 390.625 1038
-148.438 -109.375 666
-54.6875 -195.312 785
164.062 367.188 644
-250 39.0625 762
289.062 375 628
-476.562 -101.562 962
-109.375 -382.812 802
46.875 351.562 661
-445.312 367.188 833
-234.375 -398.438 827
-70.3125 -179.688 946
-39.0625 -226.562 776
-429.688 -7.8125 962
-203.125 375 805
-31.25 -78.125 749
-109.375 328.125 688
195.312 382.812 653
-304.688 281.25 710
226.562 -265.625 998
218.75 140.625 696
132.812 234.375 667
-234.375 -109.375 671
195.312 140.625 697
171.875 234.375 661
54.6875 -281.25 1025
-492.188 -46.875 898
-23.4375 -468.75 2723
23.4375 351.562 664
101.562 226.562 670
-492.188 -101.562 964
-39.0625 -85.9375 750
179.688 78.125 700
-437.5 125 781
-468.75 0 831
-460.938 -109.375 930
-46.875 -101.562 755
-273.438 367.188 811
62.5 367.188 679
281.25 375 630
0 -203.125 783
-93.75 406.25 789
-156.25 -78.125 668
-250 414.062 792
218.75 445.312 757
-171.875 312.5 693
187.5 101.562 690
-31.25 -289.062 837
-429.688 117.188 781
-148.438 320.312 691
-93.75 -398.438 817
-140.625 -46.875 690
-289.062 414.062 802
-453.125 359.375 829
406.25 -187.5 920
-171.875 -187.5 856
125 250 666
226.562 375 636
-250 429.688 803
406.25 -226.562 956
359.375 -250 975
460.938 31.25 970
-414.062 242.188 727
-54.6875 -257.812 776
203.125 93.75 687
-468.75 -39.0625 869
39.0625 -226.562 811
23.4375 -140.625 783
-7.8125 -250 767
-85.9375 -398.438 823
23.4375 -210.938 805
117.188 289.062 674
-62.5 -375 819
-218.75 -132.812 683
-320.312 -421.875 2908
-7.8125 -140.625 792
-7.8125 -242.188 771
-109.375 398.438 792
-476.562 210.938 742
-85.9375 328.125 678
-476.562 -343.75 2241
320.312 382.812 624
265.625 140.625 716
-195.312 320.312 720
132.812 359.375 647
-226.562 304.688 704
-179.688 320.312 708
-382.812 15.625 837
171.875 367.188 643
-351.562 -39.0625 882
-70.3125 -234.375 833
218.75 70.3125 769
-70.3125 343.75 691
-468.75 101.562 803
-39.0625 -23.4375 781
-414.062 250 731
-273.438 -39.0625 704
156.25 367.188 646
-250 -93.75 671
-320.312 -414.062 2933
210.938 179.688 690
-335.938 -109.375 682
-109.375 -359.375 796
-31.25 -109.375 741
-31.25 343.75 676
187.5 179.688 683
-31.25 -210.938 778
156.25 101.562 757
54.6875 -203.125 815
-343.75 -31.25 869
-460.938 234.375 734
7.8125 -140.625 789
-148.438 328.125 704
218.75 367.188 637
-484.375 226.562 811
-242.188 429.688 802
-15.625 -171.875 785
-234.375 46.875 769
-210.938 304.688 698
-250 -195.312 984
-70.3125 -320.312 807
179.688 140.625 696
-39.0625 -148.438 778
23.4375 -132.812 783
257.812 382.812 632
171.875 -320.312 2767
-500 -414.062 2116
-437.5 -15.625 849
-132.812 320.312 688
218.75 117.188 683
179.688 375 643
-156.25 -125 671
-164.062 -304.688 789
226.562 218.75 700
-304.688 62.5 811
148.438 226.562 678
-23.4375 -117.188 741
-476.562 101.562 803
-304.688 -132.812 688
15.625 359.375 683
406.25 -164.062 901
-46.875 -62.5 809
-195.312 93.75 787
85.9375 257.812 688
-54.6875 335.938 676
-156.25 -281.25 794
-468.75 31.25 817
-148.438 -132.812 675
-242.188 -257.812 821
15.625 351.562 667
-257.812 -203.125 987
406.25 -218.75 948
-226.562 -203.125 851
398.438 390.625 619
70.3125 351.562 654
-414.062 31.25 964
-23.4375 -85.9375 744
-234.375 93.75 789
-218.75 437.5 790
-320.312 -31.25 716
-492.188 296.875 856
-54.6875 421.875 780
398.438 -164.062 903
-468.75 242.188 733
62.5 -101.562 725
-398.438 46.875 813
-132.812 -164.062 869
-335.938 273.438 710
406.25 -179.688 918
-500 296.875 849
-250 -117.188 676
406.25 242.188 674
406.25 210.938 688
-54.6875 -31.25 792
148.438 265.625 657
-242.188 93.75 790
-437.5 85.9375 908
-343.75 -23.4375 869
414.062 78.125 754
-93.75 328.125 674
-281.25 -15.625 714
-460.938 -382.812 2170
31.25 -195.312 817
-429.688 109.375 785
171.875 156.25 687
-460.938 23.4375 819
-242.188 -117.188 676
62.5 -85.9375 723
375 390.625 615
-54.6875 -156.25 780
-234.375 -15.625 711
-226.562 -101.562 670
156.25 78.125 752
109.375 -273.438 1013
-218.75 304.688 691
-289.062 -132.812 690
148.438 460.938 755
187.5 437.5 723
-210.938 -15.625 708
-359.375 -54.6875 1087
-101.562 -281.25 802
-281.25 -132.812 690
-218.75 -390.625 789
-46.875 -242.188 767
-335.938 -7.8125 858
414.062 54.6875 769
-31.25 -132.812 817
-218.75 -335.938 796
164.062 148.438 694
-46.875 -359.375 829
-54.6875 -179.688 785
-39.0625 -335.938 835
-296.875 62.5 811
-46.875 -273.438 766
195.312 85.9375 693
-31.25 328.125 667
-148.438 -265.625 794
-242.188 -390.625 825
0 -132.812 787
-281.25 62.5 780
250 382.812 631
195.312 195.312 684
367.188 390.625 618
-31.25 15.625 817
195.312 125 684
-265.625 15.625 738
-117.188 328.125 678
-7.8125 -70.3125 736
-476.562 273.438 809
85.9375 7.8125 813
-54.6875 -195.312 787
156.25 164.062 687
140.625 93.75 762
-476.562 304.688 849
140.625 289.062 672
476.562 31.25 970
-257.812 304.688 704
109.375 242.188 664
-351.562 -78.125 680
-390.625 31.25 827
-421.875 93.75 800
-164.062 -195.312 837
62.5 359.375 654
117.188 234.375 666
-484.375 39.0625 817
406.25 234.375 678
-351.562 -39.0625 867
-328.125 281.25 711
-210.938 125 773
-312.5 46.875 825
-273.438 -218.75 1227
-296.875 289.062 707
140.625 257.812 661
-414.062 -406.25 3178
-7.8125 -148.438 787
-210.938 -398.438 787
210.938 367.188 636
-46.875 -46.875 798
78.125 367.188 655
62.5 -93.75 725
-320.312 -406.25 2933
250 171.875 720
0 -101.562 731
-39.0625 -93.75 742
-312.5 -39.0625 703
234.375 132.812 687
-85.9375 -343.75 803
-179.688 109.375 780
23.4375 70.3125 785
23.4375 445.312 767
-445.312 140.625 776
398.438 328.125 638
312.5 382.812 623
-117.188 320.312 676
7.8125 -148.438 783
-31.25 -203.125 778
-460.938 304.688 847
187.5 382.812 637
-156.25 -132.812 675
-460.938 312.5 843
398.438 351.562 628
-39.0625 -132.812 747
-148.438 -312.5 787
421.875 273.438 661
-62.5 -125 755
-23.4375 23.4375 813
-281.25 -39.0625 698
109.375 -171.875 792
117.188 -156.25 790
-242.188 -226.562 833
-39.0625 -54.6875 805
-476.562 -62.5 901
-351.562 -382.812 3120
-265.625 -210.938 858
320.312 453.125 707
-468.75 148.438 813
117.188 375 655
164.062 250 655
-39.0625 -218.75 774
-296.875 78.125 803
-140.625 -179.688 858
-328.125 406.25 803
0 -179.688 783
-273.438 289.062 698
-429.688 0 959
-367.188 390.625 811
-234.375 -242.188 817
-382.812 273.438 734
-304.688 281.25 704
-210.938 -39.0625 691
-429.688 281.25 771
0 -187.5 811
62.5 437.5 769
-257.812 289.062 697
125 375 652
-328.125 -445.312 2835
-367.188 375 811
70.3125 -375 2908
-46.875 -250 767
406.25 203.125 691
406.25 171.875 707
-460.938 109.375 800
-382.812 257.812 716
-484.375 109.375 802
-70.3125 -171.875 780
93.75 359.375 650
-187.5 -31.25 696
132.812 -132.812 744
-203.125 -164.062 954
132.812 250 668
15.625 -78.125 728
-15.625 -218.75 776
-359.375 -54.6875 1087
125 -78.125 733
132.812 -125 741
218.75 375 635
54.6875 351.562 655
375 -351.562 2659
406.25 226.562 682
-476.562 93.75 811
-132.812 -414.062 796
-7.8125 -234.375 776
-257.812 -390.625 835
62.5 351.562 653
7.8125 -156.25 783
-7.8125 343.75 662
-296.875 -460.938 2835
375 398.438 615
-7.8125 -250 769
-335.938 -390.625 2984
-296.875 -132.812 690
-140.625 62.5 762
-101.562 351.562 710
-468.75 39.0625 811
-78.125 343.75 680
109.375 351.562 649
-375 0 851
-46.875 -171.875 783
117.188 367.188 647
203.125 187.5 687
62.5 -148.438 811
234.375 195.312 683
-445.312 148.438 767
281.25 140.625 733
-312.5 281.25 706
406.25 179.688 703
-46.875 -351.562 829
-476.562 -54.6875 894
-164.062 31.25 741
273.438 390.625 628
0 -195.312 805
-320.312 -132.812 696
-23.4375 -93.75 734
-195.312 -132.812 683
-7.8125 -242.188 776
304.688 382.812 623
-78.125 -359.375 809
-390.625 257.812 719
-484.375 226.562 807
171.875 171.875 683
-437.5 125 785
-476.562 39.0625 815
-242.188 -117.188 676
-367.188 -70.3125 1101
-265.625 304.688 710
-62.5 -320.312 815
-46.875 -304.688 825
-210.938 31.25 746
-132.812 453.125 773
-156.25 320.312 682
-281.25 289.062 700
-281.25 39.0625 759
31.25 -101.562 725
218.75 382.812 636
-62.5 -210.938 789
-156.25 -117.188 671
406.25 195.312 696
-54.6875 -281.25 823
7.8125 -117.188 785
359.375 390.625 619
15.625 343.75 658
109.375 265.625 686
140.625 234.375 675
-70.3125 -375 821
-468.75 187.5 746
234.375 140.625 713
31.25 -93.75 725
179.688 187.5 680
7.8125 -140.625 783
-171.875 312.5 684
-437.5 242.188 728
-359.375 304.688 776
-210.938 -367.188 798
-39.0625 -242.188 767
-304.688 -101.562 676
-31.25 -101.562 738
398.438 335.938 635
132.812 296.875 670
406.25 187.5 701
-250 -203.125 860
-265.625 -218.75 856
-210.938 -31.25 697
-101.562 406.25 789
-39.0625 -156.25 802
46.875 -156.25 837
-31.25 343.75 667
39.0625 351.562 655
-359.375 351.562 825
125 359.375 646
343.75 382.812 621
-148.438 70.3125 773
-195.312 -359.375 792
-7.8125 -140.625 787
-46.875 335.938 667
-23.4375 -85.9375 734
-320.312 31.25 833
-62.5 -140.625 780
85.9375 -101.562 728
406.25 -171.875 910
-476.562 164.062 811
-210.938 312.5 700
109.375 -125 738
-445.312 140.625 776
406.25 218.75 684
93.75 -187.5 803
-460.938 132.812 815
-210.938 117.188 776
-31.25 -281.25 845
-101.562 -265.625 803
-218.75 304.688 691
468.75 -359.375 2598
-195.312 0 717
-453.125 156.25 767
-156.25 85.9375 785
-164.062 312.5 683
-468.75 132.812 807
-484.375 -117.188 954
78.125 257.812 690
-203.125 437.5 783
437.5 304.688 815
-468.75 140.625 807
-328.125 15.625 841
109.375 164.062 733
-414.062 46.875 973
406.25 -156.25 898
-437.5 296.875 781
-460.938 171.875 811
7.8125 359.375 674
-265.625 296.875 698
-281.25 296.875 704
-148.438 -46.875 684
-78.125 398.438 790
-492.188 -390.625 2156
242.188 -390.625 2701
-234.375 -312.5 802
-31.25 -296.875 839
203.125 398.438 661
132.812 289.062 674
-78.125 335.938 672
85.9375 0 813
218.75 117.188 683
-78.125 -375 815
-210.938 93.75 789
-390.625 265.625 723
-156.25 0 714
-335.938 273.438 710
-7.8125 -125 790
437.5 62.5 951
101.562 359.375 649
-7.8125 -242.188 776
-195.312 -406.25 783
-320.312 406.25 802
-148.438 -257.812 796
-195.312 304.688 687
140.625 125 710
-125 320.312 678
398.438 -187.5 923
101.562 -31.25 792
-320.312 -445.312 2835
-351.562 343.75 827
-234.375 304.688 693
-257.812 -15.625 711
54.6875 -93.75 723
-468.75 7.8125 829
-234.375 -46.875 687
117.188 281.25 678
-39.0625 -265.625 767
-226.562 -234.375 817
179.688 210.938 683
-203.125 -15.625 707
-453.125 210.938 741
242.188 -375 2744
-117.188 335.938 683
-296.875 -39.0625 698
-500 109.375 780
-195.312 -46.875 687
-210.938 -171.875 875
-437.5 -312.5 2333
-46.875 -70.3125 749
218.75 109.375 683
140.625 85.9375 766
-187.5 0 717
171.875 375 641
39.0625 -93.75 725
-492.188 351.562 833
-46.875 -242.188 767
-179.688 -296.875 787
-382.812 15.625 839
171.875 203.125 682
171.875 148.438 694
-250 -54.6875 683
101.562 218.75 710
468.75 -54.6875 1031
-46.875 -54.6875 805
-421.875 390.625 829
0 414.062 783
-492.188 109.375 802
125 -101.562 738
-242.188 0 722
-304.688 -93.75 674
-226.562 -101.562 670
-164.062 375 764
-359.375 273.438 713
132.812 -109.375 742
203.125 203.125 690
-335.938 -54.6875 693
-62.5 -164.062 780
-7.8125 -234.375 776
-62.5 -117.188 755
-484.375 375 1028
85.9375 171.875 730
7.8125 343.75 661
62.5 -101.562 725
-367.188 -15.625 860
171.875 164.062 686
-39.0625 -296.875 833
-484.375 78.125 800
-39.0625 -93.75 742
-54.6875 -187.5 787
-117.188 -171.875 864
343.75 390.625 620
-15.625 -195.312 780
-312.5 -31.25 707
7.8125 -132.812 787
-460.938 -460.938 2116
-187.5 -179.688 858
-70.3125 -187.5 956
15.625 406.25 750
132.812 242.188 668
-312.5 -453.125 2835
7.8125 406.25 750
-62.5 -156.25 780
-101.562 328.125 675
203.125 367.188 637
0 -187.5 811
-148.438 85.9375 783
-234.375 -328.125 802
85.9375 359.375 650
-476.562 148.438 813
-304.688 -468.75 2859
-390.625 335.938 831
-328.125 -453.125 2812
70.3125 367.188 657
-78.125 -250 819
-273.438 -78.125 671
-234.375 -289.062 803
-117.188 62.5 761
31.25 -101.562 725
-23.4375 -125 831
31.25 -93.75 725
-343.75 -78.125 679
-476.562 203.125 746
-460.938 359.375 825
-78.125 -148.438 781
-414.062 265.625 736
46.875 351.562 655
-460.938 -39.0625 880
-359.375 265.625 711
54.6875 -101.562 790
-195.312 390.625 800
-31.25 -125 744
195.312 132.812 687
-468.75 250 734
-343.75 -15.625 867
187.5 250 688
-335.938 -101.562 679
-39.0625 -242.188 767
15.625 -101.562 727
93.75 -125 802
156.25 367.188 642
0 343.75 662
-398.438 257.812 720
132.812 203.125 688
78.125 -195.312 805
406.25 7.8125 790
187.5 218.75 687
-492.188 -78.125 925
453.125 -351.562 2598
-195.312 312.5 687
-15.625 343.75 663
-156.25 -304.688 787
-156.25 328.125 696
62.5 343.75 654
242.188 218.75 698
-468.75 -320.312 2301
-484.375 117.188 798
-335.938 0 851
-39.0625 -257.812 767
281.25 375 628
54.6875 -85.9375 723
125 265.625 666
117.188 210.938 686
-39.0625 335.938 667
-351.562 -31.25 867
-296.875 296.875 717
234.375 375 632
-23.4375 -257.812 766
398.438 312.5 646
31.25 -85.9375 725
-31.25 351.562 676
296.875 351.562 635
203.125 78.125 696
70.3125 -140.625 807
-179.688 -132.812 679
-39.0625 -234.375 771
-93.75 -398.438 821
-226.562 -132.812 684
-93.75 328.125 674
-132.812 320.312 680
-31.25 -132.812 817
-468.75 187.5 746
-421.875 23.4375 959
-359.375 -46.875 1077
101.562 -179.688 798
-367.188 265.625 714
-164.062 -54.6875 676
0 -179.688 783
-62.5 -210.938 789
-484.375 -117.188 954
296.875 382.812 625
-484.375 -109.375 954
429.688 -328.125 2659
132.812 226.562 683
218.75 78.125 694
-492.188 101.562 803
-109.375 -406.25 819
187.5 132.812 688
54.6875 -109.375 790
-46.875 -234.375 771
117.188 273.438 683
148.438 273.438 657
-492.188 -109.375 959
-164.062 -320.312 785
-187.5 -132.812 683
101.562 -117.188 731
210.938 171.875 696
109.375 367.188 648
265.625 390.625 629
289.062 382.812 625
-117.188 -304.688 794
164.062 375 642
406.25 -70.3125 839
-468.75 375 817
-406.25 0 964
406.25 -140.625 887
54.6875 -93.75 723
-54.6875 -265.625 766
203.125 85.9375 693
406.25 0 794
-257.812 -273.438 825
-257.812 -117.188 676
406.25 164.062 710
-46.875 -117.188 747
-460.938 171.875 811
-234.375 -320.312 802
-15.625 -242.188 771
171.875 140.625 697
-242.188 -390.625 825
-234.375 -109.375 672
-250 296.875 696
31.25 351.562 657
-46.875 -109.375 747
398.438 320.312 641
-7.8125 -234.375 776
-328.125 -78.125 676
93.75 -406.25 2812
7.8125 351.562 662
406.25 -7.8125 800
-242.188 -289.062 809
109.375 156.25 734
406.25 156.25 713
-304.688 62.5 811
164.062 234.375 675
-484.375 -375 2184
7.8125 -164.062 821
101.562 -39.0625 787
-398.438 46.875 813
-242.188 -187.5 978
273.438 375 629
359.375 398.438 620
-179.688 85.9375 789
-281.25 359.375 817
78.125 -406.25 2835
78.125 -406.25 2835
-281.25 375 811
476.562 62.5 948
-460.938 -31.25 873
375 -375 2618
265.625 375 630
-54.6875 -187.5 787
-54.6875 -164.062 780
-226.562 -242.188 813
179.688 382.812 642
406.25 -164.062 901
203.125 93.75 688
-218.75 93.75 789
-7.8125 -226.562 778
-265.625 -265.625 833
-85.9375 -62.5 867
-257.812 -93.75 670
-265.625 -117.188 679
250 390.625 632
406.25 140.625 722
210.938 226.562 696
398.438 367.188 622
-156.25 -125 674
484.375 -359.375 2503
-234.375 -101.562 670
-492.188 -125 954
-23.4375 -250 766
-476.562 -46.875 894
-7.8125 -171.875 783
-164.062 -62.5 671
-226.562 7.8125 728
-210.938 -62.5 674
-203.125 -398.438 783
-226.562 -39.0625 693
234.375 156.25 716
406.25 -125 875
164.062 257.812 653
375 429.688 647
398.438 -148.438 894
-62.5 335.938 670
406.25 93.75 746
-7.8125 -242.188 776
-39.0625 -250 767
-312.5 -46.875 696
-171.875 -289.062 789
-31.25 -109.375 738
-187.5 70.3125 776
-367.188 -70.3125 1101
-117.188 -296.875 794
-187.5 -375 787
-117.188 453.125 771
-492.188 -93.75 964
-484.375 218.75 803
-281.25 289.062 700
171.875 125 694
140.625 281.25 678
125 179.688 698
-429.688 93.75 800
-31.25 -234.375 773
-445.312 250 730
-289.062 -15.625 716
-179.688 -289.062 789
54.6875 -101.562 790
-492.188 273.438 809
140.625 226.562 683
-343.75 273.438 711
-390.625 273.438 734
437.5 -234.375 2485
187.5 -398.438 2723
203.125 140.625 691
-46.875 351.562 682
-171.875 -375 785
-117.188 328.125 678
140.625 359.375 643
-54.6875 -171.875 781
93.75 156.25 736
460.938 351.562 790
195.312 367.188 637
406.25 78.125 754
406.25 132.812 725
-62.5 421.875 780
-117.188 -312.5 794
-70.3125 -226.562 837
-7.8125 414.062 785
-242.188 367.188 811
-15.625 -296.875 869
-359.375 -46.875 1077
-296.875 85.9375 798
-406.25 320.312 841
132.812 359.375 646
-39.0625 -234.375 771
234.375 -390.625 2701
-218.75 -296.875 796
179.688 375 638
-500 117.188 780
406.25 -187.5 923
-281.25 46.875 767
234.375 125 687
382.812 -375 2598
46.875 -62.5 723
445.312 -367.188 2579
-15.625 -101.562 731
-257.812 -382.812 841
398.438 398.438 615
-351.562 -62.5 682
7.8125 -117.188 785
140.625 242.188 670
0 -171.875 783
-226.562 312.5 706
257.812 -390.625 2659
-500 343.75 831
-234.375 -210.938 837
-414.062 78.125 807
-367.188 343.75 829
-335.938 -398.438 2958
-437.5 117.188 785
-476.562 117.188 800
-312.5 46.875 825
460.938 78.125 940
-414.062 398.438 1007
-31.25 -203.125 778
406.25 -132.812 882
93.75 0 815
-367.188 -62.5 1090
-62.5 -203.125 867
31.25 -101.562 725
-125 93.75 781
109.375 -164.062 796
-234.375 -109.375 672
-296.875 31.25 755
-476.562 -429.688 2090
-414.062 54.6875 981
-476.562 23.4375 825
148.438 367.188 642
406.25 101.562 742
46.875 -203.125 811
460.938 289.062 821
-234.375 312.5 710
-414.062 70.3125 815
-429.688 0 959
-7.8125 -156.25 785
93.75 -15.625 803
-171.875 312.5 684
-85.9375 328.125 672
-7.8125 -218.75 783
-421.875 85.9375 800
-164.062 -375 783
-171.875 85.9375 787
-335.938 -468.75 2789
406.25 85.9375 750
-156.25 -109.375 666
-39.0625 -226.562 774
-156.25 -414.062 811
-437.5 -304.688 2333
210.938 375 636
-218.75 -15.625 710
328.125 -382.812 2639
-46.875 -250 767
-406.25 54.6875 813
132.812 234.375 668
-304.688 70.3125 809
-179.688 -273.438 792
-117.188 70.3125 769
-328.125 351.562 823
-54.6875 -359.375 825
312.5 445.312 693
-203.125 -328.125 790
-234.375 -335.938 803
-250 -390.625 829
-39.0625 -148.438 803
-156.25 -117.188 671
-250 -195.312 860
-7.8125 -226.562 778
-31.25 -414.062 2835
-468.75 -328.125 2256
-460.938 -398.438 2156
-406.25 62.5 813
-320.312 -445.312 2835
-382.812 7.8125 1038
-195.312 7.8125 722
85.9375 -203.125 798
-195.312 -414.062 823
-445.312 132.812 833
-109.375 -335.938 794
406.25 109.375 738
-351.562 -31.25 867
0 -210.938 798
-476.562 140.625 800
-31.25 -195.312 778
468.75 -203.125 2398
-39.0625 -328.125 833
7.8125 -85.9375 728
-242.188 46.875 762
-289.062 -398.438 3037
406.25 -179.688 918
78.125 -93.75 727
-109.375 -179.688 873
-296.875 -46.875 694
-398.438 406.25 1025
-476.562 203.125 746
-132.812 78.125 774
281.25 390.625 628
0 -125 789
-476.562 234.375 733
218.75 156.25 701
-46.875 -164.062 783
156.25 265.625 653
-39.0625 -265.625 767
398.438 304.688 648
109.375 -156.25 800
85.9375 351.562 650
-156.25 54.6875 757
-7.8125 -210.938 783
-46.875 -234.375 771
195.312 187.5 686
164.062 226.562 678
-156.25 -312.5 787
-421.875 23.4375 959
-210.938 -164.062 956
-78.125 -156.25 780
-468.75 70.3125 802
-203.125 312.5 690
406.25 31.25 780
-460.938 62.5 807
-195.312 -398.438 783
-390.625 23.4375 839
-445.312 242.188 730
54.6875 367.188 670
109.375 -132.812 738
-179.688 -304.688 787
-414.062 250 725
-226.562 -390.625 817
-375 265.625 716
-367.188 -62.5 1090
-31.25 -242.188 771
-62.5 -250 781
-7.8125 -132.812 789
-320.312 39.0625 827
-54.6875 -140.625 778
-476.562 -351.562 2212
-468.75 382.812 1034
179.688 -398.438 2744
-289.062 289.062 701
-343.75 -15.625 867
-242.188 15.625 738
-312.5 -15.625 719
54.6875 -109.375 790
-476.562 242.188 734
-187.5 320.312 694
-226.562 304.688 693
-265.625 304.688 710
-156.25 70.3125 771
-250 -117.188 676
406.25 54.6875 766
406.25 54.6875 766
406.25 39.0625 776
-54.6875 -179.688 785
-296.875 70.3125 807
-39.0625 343.75 668
-101.562 -343.75 800
398.438 296.875 650
-7.8125 -125 790
398.438 -140.625 889
203.125 195.312 688
-62.5 -203.125 867
140.625 218.75 687
-171.875 -226.562 809
-273.438 -273.438 847
-171.875 -257.812 796
335.938 390.625 621
492.188 -359.375 2503
23.4375 -117.188 776
-429.688 398.438 1034
-39.0625 -101.562 742
-421.875 31.25 959
-398.438 31.25 981
109.375 -125 738
406.25 125 728
-320.312 -54.6875 691
-250 -250 825
-101.562 -257.812 807
-39.0625 -210.938 776
7.8125 -78.125 728
-421.875 257.812 725
0 -164.062 783
0 359.375 675
-39.0625 7.8125 825
85.9375 -406.25 2835
-328.125 23.4375 839
-164.062 -62.5 671
-328.125 -468.75 2789
-328.125 289.062 723
-484.375 -101.562 959
-492.188 -125 954
85.9375 -101.562 728
-179.688 -70.3125 667
-39.0625 -226.562 774
406.25 70.3125 759
484.375 187.5 873
117.188 195.312 716
-203.125 -406.25 783
-312.5 -445.312 2835
-148.438 -406.25 780
242.188 382.812 632
-70.3125 -15.625 835
-164.062 -70.3125 666
-273.438 -70.3125 672
398.438 359.375 625
-242.188 -15.625 711
-304.688 289.062 714
-203.125 -320.312 790
-46.875 -31.25 790
390.625 -242.188 970
-257.812 296.875 698
-406.25 398.438 1001
-484.375 218.75 803
148.438 437.5 766
-304.688 351.562 823
-23.4375 -117.188 736
-156.25 -421.875 829
-359.375 281.25 733
-414.062 320.312 841
-484.375 156.25 815
-320.312 -437.5 2835
-312.5 281.25 706
-398.438 39.0625 827
398.438 -171.875 910
-54.6875 -101.562 750
-421.875 367.188 817
85.9375 234.375 700
-125 328.125 683
-468.75 78.125 841
-179.688 -367.188 787
132.812 140.625 710
54.6875 359.375 655
117.188 -148.438 796
-468.75 -398.438 2143
31.25 -210.938 811
312.5 453.125 707
7.8125 -132.812 787
-7.8125 -218.75 783
-484.375 125 796
-257.812 -242.188 835
-460.938 296.875 854
-312.5 -132.812 693
-101.562 -273.438 802
117.188 265.625 686
406.25 117.188 733
-406.25 257.812 720
-93.75 -265.625 805
-242.188 -109.375 675
-281.25 -15.625 708
-312.5 54.6875 821
-429.688 250 725
-257.812 7.8125 723
-351.562 -70.3125 676
-31.25 -132.812 825
406.25 15.625 787
367.188 437.5 652
-429.688 -132.812 1165
-39.0625 -414.062 2835
-15.625 -132.812 785
-23.4375 -234.375 767
-429.688 7.8125 956
-335.938 -382.812 3010
-156.25 -109.375 670
-125 398.438 794
-242.188 296.875 691
-109.375 328.125 674
-468.75 31.25 817
-335.938 7.8125 849
-335.938 281.25 708
203.125 93.75 688
-218.75 304.688 688
-62.5 -109.375 749
-62.5 -320.312 817
70.3125 -406.25 2812
-296.875 85.9375 802
-484.375 -93.75 930
-421.875 250 722
406.25 62.5 762
-273.438 296.875 698
-468.75 23.4375 821
406.25 -203.125 935
-414.062 70.3125 817
398.438 -226.562 959
-328.125 -101.562 679
-62.5 -226.562 773
0 -101.562 728
-312.5 -101.562 678
125 242.188 666
-453.125 164.062 766
351.562 390.625 619
-85.9375 -390.625 827
-31.25 -125 827
-484.375 -367.188 2198
132.812 179.688 687
171.875 414.062 684
-343.75 -54.6875 688
-226.562 -335.938 796
-164.062 -54.6875 670
148.438 289.062 674
406.25 -148.438 894
-101.562 -335.938 798
101.562 273.438 683
328.125 390.625 621
-164.062 320.312 682
-250 -375 827
-273.438 -62.5 674
-484.375 -109.375 943
218.75 375 632
-70.3125 -250 769
-15.625 -210.938 780
289.062 375 630
-437.5 117.188 792
140.625 210.938 683
-484.375 132.812 798
-148.438 -250 798
-257.812 -54.6875 678
-140.625 320.312 679
-78.125 -250 769
203.125 132.812 682
-70.3125 -242.188 767
109.375 375 652
-46.875 -226.562 767
-7.8125 343.75 661
-460.938 78.125 882
-492.188 -70.3125 913
-343.75 -70.3125 676
-226.562 -343.75 800
125 226.562 676
-39.0625 351.562 671
-406.25 54.6875 821
390.625 -234.375 964
390.625 -234.375 964
140.625 265.625 655
156.25 85.9375 749
101.562 265.625 686
-148.438 -273.438 792
-421.875 15.625 956
203.125 187.5 690
265.625 156.25 714
-460.938 70.3125 803
390.625 -375 2598
437.5 -367.188 2579
-460.938 -453.125 2129
406.25 -171.875 910
-164.062 -117.188 672
187.5 132.812 684
101.562 -406.25 2767
-187.5 -15.625 701
-156.25 -242.188 800
-46.875 -85.9375 744
-234.375 -179.688 864
-85.9375 -203.125 847
93.75 -109.375 733
-375 0 851
-117.188 46.875 747
-179.688 312.5 684
-85.9375 343.75 672
335.938 -351.562 2659
-460.938 46.875 811
78.125 -132.812 805
-101.562 -351.562 802
343.75 398.438 620
-460.938 -132.812 1165
-148.438 320.312 679
265.625 -390.625 2659
-140.625 328.125 679
-437.5 -7.8125 964
0 -171.875 813
-101.562 328.125 671
-46.875 -257.812 766
23.4375 351.562 655
-148.438 -304.688 787
-7.8125 -203.125 785
398.438 390.625 615
179.688 390.625 643
-476.562 -31.25 880
54.6875 406.25 719
203.125 85.9375 693
-390.625 257.812 717
398.438 -125 875
-39.0625 -320.312 839
-156.25 -31.25 686
-406.25 85.9375 805
39.0625 351.562 654
296.875 375 628
-468.75 187.5 749
101.562 218.75 683
101.562 -117.188 736
218.75 78.125 769
-265.625 429.688 796
-375 -7.8125 860
-39.0625 -218.75 773
-367.188 273.438 714
125 250 664
-304.688 -39.0625 696
-476.562 85.9375 815
-367.188 -23.4375 875
-226.562 304.688 690
-15.625 -250 762
-484.375 296.875 856
-7.8125 -210.938 794
-453.125 62.5 809
-148.438 -375 789
-164.062 62.5 757
-265.625 -203.125 849
-453.125 148.438 771
-78.125 -140.625 780
-187.5 -367.188 785
-78.125 -226.562 833
-125 -351.562 794
343.75 -382.812 2618
-62.5 -257.812 767
195.312 179.688 687
-445.312 -328.125 2286
-460.938 -382.812 2156
54.6875 -125 798
-54.6875 -179.688 787
117.188 359.375 646
-203.125 -132.812 687
-476.562 7.8125 833
-281.25 -132.812 693
-429.688 101.562 798
78.125 242.188 698
-156.25 -289.062 789
-187.5 312.5 686
-15.625 343.75 662
125 156.25 710
7.8125 -109.375 781
-351.562 -23.4375 873
398.438 289.062 653
-15.625 -414.062 2812
31.25 -93.75 778
179.688 164.062 687
-54.6875 -343.75 829
-156.25 -101.562 667
-62.5 -367.188 829
0 351.562 659
-421.875 85.9375 807
109.375 -273.438 1013
-492.188 -39.0625 910
-70.3125 -78.125 827
-476.562 93.75 815
-62.5 -203.125 785
62.5 -203.125 803
406.25 23.4375 783
-250 -117.188 678
398.438 -132.812 882
-398.438 265.625 720
445.312 -46.875 1028
-78.125 -242.188 823
-265.625 -304.688 821
-164.062 -304.688 787
-31.25 -85.9375 736
-54.6875 335.938 667
156.25 148.438 697
218.75 117.188 682
-7.8125 -132.812 785
-445.312 132.812 780
187.5 367.188 638
-398.438 257.812 719
-203.125 312.5 687
93.75 -406.25 2789
-320.312 -398.438 2933
210.938 195.312 694
-226.562 0 716
-242.188 304.688 691
15.625 -93.75 725
-468.75 296.875 854
-195.312 -335.938 787
-210.938 -23.4375 696
398.438 -375 2579
-148.438 382.812 780
-468.75 164.062 813
-273.438 304.688 706
406.25 -156.25 898
-93.75 -289.062 802
0 -78.125 728
-390.625 31.25 835
-171.875 -39.0625 683
-164.062 -78.125 661
-78.125 -93.75 761
-265.625 -54.6875 678
-226.562 -39.0625 686
367.188 429.688 643
-46.875 -343.75 835
398.438 -234.375 962
-85.9375 -375 817
-54.6875 -250 766
-320.312 -70.3125 675
-273.438 85.9375 798
-343.75 -7.8125 860
-343.75 273.438 708
171.875 125 688
117.188 -171.875 774
-125 85.9375 778
-46.875 -312.5 829
-195.312 85.9375 783
-46.875 -226.562 767
-250 -62.5 674
195.312 93.75 690
-164.062 -125 676
-273.438 -296.875 833
-171.875 39.0625 741
0 -125 785
-484.375 140.625 800
-453.125 -15.625 839
195.312 203.125 686
-164.062 -132.812 679
195.312 -398.438 2723
-117.188 -289.062 794
109.375 -148.438 755
390.625 406.25 614
125 296.875 671
-70.3125 -132.812 773
398.438 328.125 637
109.375 -406.25 2744
390.625 -226.562 959
-320.312 281.25 704
-210.938 -304.688 789
101.562 367.188 647
-46.875 -93.75 742
-421.875 31.25 959
-351.562 -23.4375 873
-39.0625 -312.5 839
164.062 375 638
-23.4375 -210.938 776
-132.812 -234.375 803
117.188 164.062 731
117.188 164.062 731
-453.125 250 728
-78.125 -234.375 831
-257.812 359.375 798
203.125 -398.438 2723
-179.688 -210.938 815
-460.938 242.188 728
-445.312 320.312 841
125 359.375 644
85.9375 -101.562 728
203.125 179.688 691
187.5 -398.438 2723
-148.438 -78.125 655
-171.875 -398.438 780
406.25 7.8125 792
-78.125 -382.812 827
-429.688 7.8125 956
-234.375 -101.562 671
-335.938 7.8125 849
-117.188 39.0625 746
-226.562 -70.3125 666
-203.125 -70.3125 664
-289.062 289.062 698
-15.625 -242.188 767
46.875 351.562 652
-289.062 -62.5 676
-203.125 -351.562 792
445.312 -367.188 2598
23.4375 -125 773
-93.75 328.125 671
-46.875 0 829
-31.25 -117.188 827
-359.375 343.75 829
-195.312 -367.188 787
-406.25 328.125 839
-359.375 -39.0625 1077
-476.562 242.188 734
-7.8125 -414.062 2812
-218.75 -406.25 813
289.062 -390.625 2639
-70.3125 -140.625 778
-328.125 -429.688 2883
-257.812 296.875 696
-70.3125 -289.062 813
476.562 -140.625 2301
-421.875 312.5 794
46.875 359.375 653
-320.312 -15.625 714
-195.312 -31.25 690
-15.625 -148.438 783
-39.0625 -148.438 805
-250 -218.75 835
-250 7.8125 723
-367.188 -54.6875 1090
109.375 -140.625 752
-265.625 -109.375 676
195.312 -265.625 1004
-39.0625 -273.438 841
-39.0625 -218.75 773
-265.625 -226.562 851
-328.125 -437.5 2812
-109.375 -281.25 800
-390.625 23.4375 843
-500 398.438 1322
-15.625 -250 762
-70.3125 -296.875 813
132.812 101.562 762
-476.562 46.875 809
-343.75 -46.875 693
-273.438 46.875 761
-210.938 46.875 752
265.625 -257.812 989
-179.688 -406.25 790
-328.125 -70.3125 675
-7.8125 -195.312 783
-398.438 39.0625 827
335.938 -382.812 2618
109.375 195.312 717
-164.062 -312.5 785
-242.188 -195.312 862
132.812 367.188 643
-468.75 -312.5 2317
-109.375 328.125 674
-15.625 -281.25 862
171.875 265.625 650
-382.812 265.625 716
179.688 382.812 640
-242.188 -46.875 682
-406.25 -171.875 1197
179.688 179.688 682
-484.375 -85.9375 923
62.5 -140.625 809
-484.375 -359.375 2198
-7.8125 -210.938 794
-62.5 -335.938 819
210.938 156.25 698
-382.812 7.8125 851
-39.0625 -101.562 739
-289.062 93.75 794
-242.188 -265.625 805
210.938 -398.438 2680
-328.125 -468.75 2789
-31.25 -414.062 2812
-421.875 265.625 731
-234.375 -132.812 686
-23.4375 -414.062 2812
-492.188 -382.812 2156
453.125 -367.188 2579
-257.812 367.188 813
85.9375 265.625 687
195.312 78.125 693
93.75 421.875 731
187.5 78.125 694
-46.875 -335.938 833
-453.125 242.188 728
-367.188 -62.5 1097
-39.0625 -281.25 841
-242.188 -375 819
-54.6875 -242.188 766
-273.438 -132.812 688
-476.562 -70.3125 908
-164.062 -171.875 851
226.562 125 684
0 -70.3125 728
367.188 -375 2598
-453.125 156.25 769
-242.188 -132.812 687
-148.438 23.4375 727
-62.5 -195.312 789
-70.3125 -359.375 819
-445.312 257.812 727
218.75 210.938 703
-265.625 -132.812 690
-234.375 -335.938 802
-39.0625 -210.938 774
-171.875 -132.812 679
218.75 85.9375 690
-453.125 351.562 825
-500 -429.688 2078
-492.188 304.688 849
-460.938 78.125 882
-492.188 -31.25 898
-164.062 -281.25 789
-281.25 -54.6875 680
0 -164.062 819
-320.312 -406.25 2933
179.688 210.938 682
-312.5 -93.75 675
-484.375 -78.125 913
-85.9375 335.938 670
0 -156.25 785
31.25 -125 807
-437.5 250 725
-15.625 -117.188 792
234.375 218.75 684
-265.625 -85.9375 668
0 -218.75 789
-187.5 -359.375 787
-484.375 39.0625 819
398.438 273.438 661
-242.188 312.5 703
-250 -390.625 827
23.4375 -62.5 727
-492.188 -390.625 2129
-148.438 -296.875 789
367.188 398.438 616
-156.25 453.125 776
-367.188 265.625 714
-273.438 -210.938 858
-46.875 343.75 666
-414.062 7.8125 956
-31.25 -195.312 776
-390.625 320.312 811
0 -117.188 783
187.5 132.812 684
-23.4375 -109.375 734
-195.312 -179.688 851
-234.375 -257.812 805
-257.812 -117.188 678
265.625 125 725
-273.438 23.4375 739
-437.5 -7.8125 964
-85.9375 -390.625 827
-7.8125 -203.125 785
-414.062 39.0625 964
-109.375 -125 913
-70.3125 -304.688 813
-250 -265.625 811
109.375 -187.5 783
117.188 -70.3125 736
-148.438 -23.4375 693
-289.062 -406.25 3010
-70.3125 -218.75 785
-304.688 296.875 708
117.188 -93.75 734
-156.25 -101.562 667
-257.812 -101.562 674
15.625 -125 776
-257.812 -218.75 841
46.875 367.188 661
-289.062 -421.875 2958
-484.375 -70.3125 913
54.6875 -93.75 723
-234.375 -101.562 671
-226.562 78.125 783
-492.188 -54.6875 920
-421.875 375 817
-31.25 -85.9375 736
164.062 382.812 641
-23.4375 -101.562 734
-62.5 -304.688 817
437.5 -15.625 1007
203.125 375 636
-234.375 -250 809
-140.625 -359.375 792
179.688 132.812 686
187.5 156.25 690
-320.312 -437.5 2812
226.562 226.562 697
-335.938 -460.938 2789
-460.938 367.188 823
-195.312 0 713
-140.625 15.625 722
-46.875 335.938 666
-273.438 -15.625 708
-281.25 296.875 698
-125 335.938 679
54.6875 -109.375 790
125 234.375 668
-132.812 335.938 687
-460.938 164.062 813
-484.375 234.375 734
-250 -281.25 807
-70.3125 -375 827
-242.188 93.75 792
-492.188 -125 956
-476.562 -54.6875 898
-250 -351.562 821
-195.312 46.875 750
-500 -109.375 943
-367.188 -54.6875 1090
-78.125 -242.188 823
101.562 226.562 678
54.6875 -85.9375 723
-234.375 93.75 792
-62.5 -148.438 780
-125 78.125 769
-367.188 281.25 725
-171.875 31.25 734
-93.75 335.938 671
-375 351.562 825
-250 -257.812 813
390.625 375 619
-320.312 39.0625 831
-312.5 62.5 815
-242.188 15.625 731
398.438 -85.9375 849
-421.875 62.5 981
398.438 -109.375 864
218.75 117.188 682
359.375 -382.812 2579
351.562 398.438 619
125 289.062 675
-453.125 257.812 734
-171.875 398.438 794
-265.625 -257.812 827
-257.812 15.625 731
171.875 195.312 679
-453.125 -351.562 2226
54.6875 -101.562 789
-39.0625 0 829
-421.875 304.688 794
-85.9375 -218.75 835
-242.188 -304.688 800
187.5 -265.625 1004
-296.875 -398.438 2933
-70.3125 -156.25 780
-164.062 -85.9375 659
-484.375 164.062 815
31.25 -93.75 778
-54.6875 -265.625 766
-484.375 -62.5 906
54.6875 351.562 653
-148.438 -382.812 783
-250 -132.812 687
-117.188 54.6875 755
-210.938 312.5 688
-429.688 257.812 725
-156.25 -46.875 678
-125 -273.438 796
273.438 -390.625 2659
-171.875 320.312 684
-15.625 -242.188 767
-234.375 -312.5 796
117.188 148.438 707
-39.0625 -304.688 837
-15.625 -234.375 773
179.688 171.875 684
-328.125 31.25 835
-39.0625 -132.812 809
0 -109.375 783
-210.938 -132.812 687
-445.312 390.625 831
93.75 -109.375 733
-195.312 320.312 697
-445.312 -234.375 1278
-39.0625 -203.125 774
-289.062 421.875 796
406.25 -375 2579
-62.5 -195.312 789
-7.8125 351.562 661
-218.75 62.5 764
-437.5 -7.8125 964
-468.75 39.0625 813
109.375 -156.25 790
-39.0625 -281.25 841
187.5 85.9375 694
-46.875 -257.812 766
-54.6875 -242.188 766
-500 -31.25 898
31.25 -101.562 776
-500 351.562 829
226.562 382.812 631
-62.5 335.938 667
-210.938 320.312 701
-476.562 140.625 802
-31.25 343.75 664
-226.562 304.688 690
0 -414.062 2835
398.438 257.812 667
398.438 -210.938 943
156.25 101.562 698
