ply
format ascii 1.0
comment Created by Open3D
element vertex 2418
property double x
property double y
property double z
end_header
-296.875 -218.75 1288
289.062 85.9375 716
-148.438 -289.062 858
320.312 -320.312 2744
85.9375 -257.812 802
-437.5 85.9375 802
0 -289.062 829
85.9375 -156.25 776
-54.6875 -171.875 706
-445.312 -320.312 2286
-382.812 39.0625 811
-289.062 23.4375 847
296.875 328.125 648
257.812 132.812 706
-218.75 -85.9375 920
31.25 281.25 680
54.6875 296.875 679
46.875 296.875 680
-492.188 -234.375 1343
-312.5 54.6875 815
-23.4375 -140.625 687
-156.25 -281.25 867
328.125 320.312 644
-335.938 101.562 794
-23.4375 31.25 776
-414.062 234.375 809
171.875 -125 749
-500 218.75 833
-484.375 234.375 837
468.75 398.438 670
-156.25 273.438 720
226.562 226.562 694
-39.0625 -171.875 707
-15.625 -203.125 871
226.562 304.688 657
-453.125 -234.375 1328
-382.812 195.312 809
-109.375 -31.25 742
-273.438 429.688 992
-445.312 109.375 794
-187.5 242.188 708
-335.938 23.4375 975
304.688 312.5 647
-85.9375 265.625 694
-23.4375 -101.562 694
-398.438 101.562 800
-250 -367.188 3037
-140.625 257.812 704
171.875 -117.188 749
-203.125 -31.25 750
445.312 328.125 631
-390.625 140.625 819
-375 203.125 738
-414.062 62.5 803
398.438 320.312 637
210.938 203.125 707
-23.4375 -132.812 684
234.375 148.438 736
140.625 -109.375 749
-343.75 117.188 781
312.5 46.875 716
132.812 -109.375 752
117.188 -195.312 805
0 289.062 684
-23.4375 -109.375 691
93.75 296.875 672
-23.4375 273.438 687
-54.6875 23.4375 773
226.562 234.375 690
-93.75 -156.25 698
78.125 -195.312 819
265.625 312.5 652
257.812 195.312 678
117.188 -156.25 813
-31.25 -23.4375 741
179.688 304.688 663
289.062 328.125 652
296.875 132.812 698
328.125 93.75 703
367.188 109.375 731
-93.75 273.438 698
335.938 171.875 716
429.688 328.125 632
54.6875 -257.812 815
359.375 328.125 641
468.75 -164.062 940
101.562 -117.188 759
234.375 156.25 733
-210.938 -367.188 3010
218.75 -187.5 819
-265.625 -31.25 875
117.188 -164.062 813
46.875 -179.688 807
281.25 218.75 666
242.188 226.562 694
-70.3125 -171.875 707
-54.6875 273.438 693
218.75 218.75 698
218.75 320.312 657
85.9375 -234.375 803
-164.062 -85.9375 714
93.75 -156.25 849
250 179.688 678
312.5 156.25 698
-7.8125 281.25 686
210.938 -257.812 1050
203.125 304.688 658
-382.812 -78.125 923
-492.188 -414.062 2103
414.062 437.5 742
78.125 -250 802
70.3125 -132.812 774
70.3125 -132.812 774
39.0625 296.875 684
-93.75 15.625 773
468.75 -210.938 987
54.6875 -164.062 803
-31.25 0 754
210.938 117.188 754
476.562 -164.062 940
-78.125 -335.938 825
-484.375 -132.812 973
62.5 -265.625 803
484.375 -117.188 896
-375 195.312 738
-343.75 203.125 736
195.312 304.688 661
-54.6875 -320.312 821
109.375 -156.25 813
-468.75 250 817
312.5 85.9375 704
-281.25 234.375 723
-101.562 -273.438 833
-460.938 359.375 940
-242.188 -367.188 3010
-476.562 -421.875 2103
320.312 117.188 711
70.3125 -265.625 800
273.438 218.75 668
335.938 164.062 717
-23.4375 429.688 769
23.4375 281.25 682
62.5 -156.25 794
62.5 398.438 781
-195.312 -367.188 2984
-15.625 31.25 776
-210.938 -54.6875 734
-375 23.4375 821
78.125 -179.688 819
234.375 125 747
-156.25 -171.875 719
-445.312 250 817
335.938 -242.188 1031
-62.5 -171.875 707
-398.438 242.188 809
0 7.8125 759
250 195.312 676
-320.312 70.3125 809
-343.75 -335.938 3238
148.438 304.688 664
-187.5 31.25 792
-398.438 93.75 802
-375 117.188 811
-93.75 -93.75 703
-218.75 -85.9375 920
-304.688 39.0625 825
335.938 78.125 701
-367.188 7.8125 833
-429.688 70.3125 798
54.6875 -234.375 819
117.188 -179.688 809
-148.438 -140.625 694
-39.0625 -296.875 823
-492.188 -125 970
273.438 -250 1041
78.125 -242.188 803
-406.25 -125 975
-15.625 -15.625 746
-437.5 109.375 794
78.125 289.062 675
-382.812 148.438 815
-468.75 148.438 817
242.188 109.375 725
117.188 -148.438 815
-398.438 109.375 800
-218.75 -367.188 3010
492.188 -156.25 935
-328.125 289.062 792
62.5 -171.875 807
-195.312 0 773
70.3125 -320.312 878
382.812 335.938 637
-39.0625 31.25 776
-421.875 62.5 798
265.625 187.5 693
-250 234.375 717
-132.812 -54.6875 731
-179.688 250 707
375 101.562 730
226.562 125 749
-187.5 -171.875 722
78.125 -187.5 819
-367.188 -23.4375 851
62.5 -343.75 873
171.875 382.812 739
-460.938 -132.812 975
-54.6875 -312.5 821
351.562 414.062 717
-39.0625 382.812 790
-367.188 0 835
0 23.4375 767
-70.3125 265.625 693
320.312 164.062 701
-421.875 234.375 809
-125 -140.625 693
281.25 320.312 649
132.812 -343.75 2859
-484.375 226.562 829
-31.25 273.438 688
203.125 312.5 658
109.375 -265.625 794
-265.625 414.062 962
-468.75 179.688 803
-335.938 15.625 835
15.625 281.25 682
304.688 328.125 648
-195.312 -39.0625 747
460.938 406.25 682
281.25 109.375 710
-476.562 -39.0625 984
273.438 101.562 717
140.625 453.125 747
-398.438 54.6875 803
85.9375 -226.562 805
320.312 46.875 711
-46.875 281.25 691
-234.375 -93.75 920
-7.8125 -78.125 708
-195.312 7.8125 783
320.312 93.75 703
476.562 -156.25 933
-85.9375 -140.625 691
304.688 54.6875 711
62.5 -273.438 807
-328.125 85.9375 796
-23.4375 -85.9375 706
-476.562 406.25 1415
289.062 117.188 704
304.688 117.188 706
203.125 -203.125 827
23.4375 -273.438 843
140.625 296.875 667
-7.8125 -70.3125 711
289.062 164.062 696
-367.188 39.0625 815
-148.438 -265.625 862
156.25 -109.375 747
39.0625 -218.75 896
-164.062 -171.875 719
398.438 -234.375 1016
-304.688 -218.75 1288
-367.188 203.125 738
156.25 -93.75 750
125 296.875 668
343.75 171.875 714
-359.375 -23.4375 851
250 406.25 741
179.688 -210.938 837
85.9375 -242.188 803
273.438 320.312 650
70.3125 289.062 675
148.438 -265.625 1063
-93.75 257.812 696
382.812 351.562 650
-296.875 23.4375 847
148.438 312.5 668
-195.312 -101.562 708
-148.438 -23.4375 749
-109.375 -320.312 833
-437.5 -289.062 2333
85.9375 460.938 757
-343.75 -351.562 3238
351.562 101.562 731
-7.8125 -46.875 727
78.125 -171.875 817
-23.4375 -148.438 691
93.75 304.688 678
-312.5 54.6875 815
-195.312 242.188 708
-164.062 -140.625 697
-375 54.6875 833
382.812 320.312 638
117.188 -187.5 802
-476.562 218.75 817
-31.25 -171.875 707
226.562 -179.688 805
0 445.312 767
203.125 460.938 741
226.562 171.875 680
351.562 164.062 698
-468.75 -414.062 2103
-148.438 -156.25 704
-156.25 -328.125 867
78.125 -15.625 843
281.25 140.625 697
296.875 101.562 714
-23.4375 -328.125 827
296.875 312.5 648
-148.438 15.625 778
-93.75 -31.25 741
-367.188 -7.8125 841
-335.938 46.875 984
-468.75 93.75 802
-382.812 101.562 809
-398.438 140.625 821
62.5 -210.938 819
296.875 85.9375 710
-15.625 70.3125 796
250 218.75 696
156.25 -171.875 864
242.188 125 747
-125 257.812 701
70.3125 -195.312 815
-210.938 250 717
-7.8125 -62.5 714
-468.75 351.562 940
-23.4375 -171.875 706
242.188 312.5 653
-93.75 -156.25 698
-7.8125 46.875 783
296.875 109.375 710
-164.062 -148.438 698
-117.188 351.562 809
-85.9375 -85.9375 707
23.4375 -335.938 839
0 15.625 762
-468.75 375 943
-218.75 -78.125 915
328.125 62.5 703
445.312 -226.562 1004
-78.125 31.25 781
375 320.312 640
109.375 -148.438 819
460.938 -203.125 978
-226.562 -367.188 3037
46.875 -257.812 815
85.9375 296.875 674
437.5 453.125 734
-218.75 242.188 714
218.75 304.688 657
-7.8125 289.062 690
-187.5 39.0625 827
-492.188 -39.0625 906
-156.25 -78.125 716
-39.0625 46.875 789
-7.8125 62.5 798
-23.4375 -93.75 698
117.188 -171.875 811
-140.625 445.312 1177
125 -109.375 754
-500 -453.125 2078
62.5 289.062 675
-210.938 -54.6875 734
414.062 328.125 634
375 335.938 640
62.5 -140.625 781
273.438 328.125 654
-31.25 -359.375 827
312.5 320.312 646
54.6875 -140.625 792
-359.375 62.5 851
-125 -312.5 837
85.9375 -164.062 841
-195.312 -171.875 723
234.375 171.875 680
-156.25 -140.625 696
-445.312 -234.375 1328
-398.438 62.5 805
484.375 343.75 624
132.812 296.875 667
140.625 312.5 672
-304.688 39.0625 825
367.188 335.938 642
-218.75 -289.062 3010
351.562 335.938 643
210.938 320.312 662
171.875 -156.25 841
226.562 117.188 723
148.438 -218.75 839
-367.188 15.625 825
54.6875 -148.438 792
-164.062 250 706
351.562 328.125 641
406.25 328.125 635
351.562 117.188 734
-414.062 109.375 794
-382.812 85.9375 811
78.125 -242.188 803
335.938 85.9375 701
-289.062 7.8125 849
296.875 148.438 696
-257.812 226.562 717
281.25 -250 1041
-390.625 93.75 805
257.812 226.562 678
-171.875 -54.6875 734
-343.75 0 835
476.562 343.75 625
476.562 335.938 625
437.5 328.125 632
-382.812 187.5 809
-343.75 109.375 858
289.062 109.375 708
117.188 -156.25 813
-109.375 -101.562 700
-382.812 117.188 811
242.188 156.25 704
109.375 -265.625 794
-54.6875 -375 825
273.438 171.875 698
-328.125 78.125 809
-132.812 -203.125 906
-492.188 234.375 837
70.3125 -265.625 800
203.125 320.312 664
54.6875 -156.25 798
-39.0625 -195.312 875
-23.4375 -390.625 827
304.688 85.9375 706
132.812 453.125 749
-85.9375 -148.438 694
-164.062 398.438 787
-85.9375 265.625 694
304.688 132.812 698
203.125 -257.812 1054
54.6875 -234.375 819
-117.188 7.8125 767
-101.562 7.8125 766
-85.9375 -171.875 708
-54.6875 -39.0625 733
-335.938 31.25 978
-500 218.75 833
132.812 460.938 749
281.25 54.6875 720
-15.625 -7.8125 750
-234.375 234.375 716
132.812 -304.688 2958
-85.9375 -117.188 691
242.188 -132.812 766
-54.6875 -117.188 687
359.375 328.125 641
273.438 117.188 706
-171.875 39.0625 796
242.188 171.875 698
-390.625 -117.188 962
328.125 343.75 657
250 187.5 676
-382.812 -70.3125 915
296.875 343.75 664
250 148.438 706
70.3125 -281.25 802
281.25 179.688 693
289.062 312.5 650
-171.875 257.812 708
312.5 93.75 704
-93.75 -93.75 703
70.3125 -132.812 774
-398.438 46.875 805
-437.5 101.562 796
335.938 78.125 701
-15.625 281.25 687
-414.062 257.812 823
328.125 156.25 704
54.6875 -171.875 807
-414.062 78.125 809
93.75 -140.625 759
304.688 320.312 647
-460.938 117.188 792
-500 78.125 790
-414.062 54.6875 803
-351.562 125 776
-218.75 -78.125 915
0 62.5 798
-453.125 -132.812 975
-148.438 257.812 704
203.125 210.938 704
-140.625 62.5 809
109.375 -250 813
-203.125 -23.4375 869
-367.188 242.188 825
-93.75 265.625 696
93.75 -117.188 762
125 -101.562 755
-437.5 93.75 800
390.625 -234.375 1016
-273.438 226.562 720
-54.6875 -296.875 823
-468.75 234.375 811
78.125 -125 769
39.0625 289.062 678
109.375 390.625 783
-39.0625 273.438 690
-203.125 -367.188 3010
-31.25 -31.25 738
328.125 -242.188 1028
328.125 -242.188 1028
-335.938 -367.188 3208
-23.4375 -78.125 710
-476.562 117.188 790
187.5 304.688 662
-156.25 0 767
265.625 320.312 652
343.75 187.5 706
-148.438 -70.3125 723
85.9375 -140.625 769
-117.188 62.5 809
468.75 -203.125 981
-468.75 382.812 1057
-23.4375 -289.062 829
289.062 62.5 717
-359.375 140.625 774
-54.6875 -304.688 821
-367.188 156.25 817
226.562 -171.875 807
-101.562 265.625 697
-335.938 93.75 796
-62.5 273.438 693
164.062 -117.188 749
281.25 312.5 650
-15.625 -62.5 716
492.188 15.625 796
-421.875 -328.125 2271
-218.75 -85.9375 920
164.062 -156.25 843
-195.312 15.625 785
218.75 203.125 707
226.562 101.562 728
-390.625 -54.6875 908
-93.75 85.9375 789
101.562 398.438 781
140.625 -117.188 747
54.6875 -242.188 817
-179.688 257.812 711
320.312 54.6875 707
31.25 453.125 767
23.4375 -296.875 839
85.9375 -132.812 766
109.375 -132.812 757
296.875 351.562 671
460.938 -218.75 998
-281.25 -7.8125 860
335.938 179.688 711
273.438 226.562 670
-140.625 351.562 809
242.188 250 682
398.438 328.125 636
-257.812 234.375 717
-375 171.875 811
70.3125 -312.5 878
-242.188 -78.125 906
-351.562 -23.4375 856
-39.0625 54.6875 796
-382.812 -78.125 923
140.625 -343.75 2883
-85.9375 -148.438 694
320.312 414.062 730
140.625 304.688 667
109.375 -257.812 798
-156.25 78.125 798
242.188 218.75 697
226.562 -148.438 762
-195.312 7.8125 783
117.188 -148.438 815
78.125 398.438 781
-203.125 -109.375 703
-460.938 375 946
234.375 218.75 697
484.375 375 643
-250 242.188 725
265.625 203.125 676
164.062 304.688 663
476.562 -93.75 878
273.438 -250 1041
-15.625 -242.188 841
54.6875 -250 807
62.5 -210.938 819
234.375 312.5 655
-125 -242.188 858
-375 203.125 738
296.875 54.6875 714
117.188 296.875 670
-148.438 -312.5 858
343.75 335.938 644
31.25 289.062 680
-320.312 -257.812 2958
187.5 -210.938 833
265.625 54.6875 771
70.3125 -31.25 851
-210.938 -46.875 746
320.312 140.625 704
460.938 335.938 629
-367.188 171.875 749
492.188 328.125 623
7.8125 281.25 683
-23.4375 289.062 693
320.312 93.75 703
281.25 85.9375 730
-343.75 218.75 738
-93.75 -218.75 860
-7.8125 -179.688 710
-109.375 -23.4375 746
-85.9375 -85.9375 707
-31.25 -117.188 688
367.188 164.062 696
-453.125 -226.562 1328
375 117.188 730
-250 -62.5 896
375 93.75 738
-117.188 -101.562 700
132.812 304.688 668
-335.938 23.4375 975
-421.875 93.75 802
31.25 -210.938 894
-187.5 234.375 708
109.375 296.875 671
-101.562 -328.125 829
-265.625 226.562 717
-132.812 -289.062 845
-148.438 429.688 794
195.312 -23.4375 831
335.938 78.125 701
-132.812 62.5 809
70.3125 -179.688 811
-85.9375 429.688 781
-351.562 132.812 776
296.875 234.375 668
-156.25 15.625 780
242.188 421.875 759
39.0625 296.875 684
328.125 171.875 716
257.812 320.312 652
195.312 312.5 661
468.75 343.75 628
85.9375 304.688 678
484.375 289.062 646
-406.25 125 796
62.5 281.25 675
-390.625 85.9375 809
-382.812 78.125 815
70.3125 289.062 675
335.938 93.75 703
250 -179.688 796
187.5 296.875 663
-460.938 -234.375 1328
-484.375 78.125 790
-343.75 -210.938 1288
-468.75 218.75 809
46.875 289.062 678
343.75 328.125 642
-406.25 -54.6875 998
-54.6875 281.25 696
-343.75 0 835
273.438 195.312 678
-132.812 265.625 704
-218.75 -78.125 915
70.3125 -257.812 802
-164.062 -140.625 697
62.5 -226.562 813
-343.75 109.375 858
101.562 -257.812 796
-390.625 39.0625 809
-132.812 257.812 703
-492.188 218.75 833
320.312 156.25 701
281.25 328.125 653
-15.625 -101.562 696
62.5 -203.125 819
-203.125 242.188 710
-421.875 -453.125 2170
-109.375 -257.812 841
-164.062 250 706
117.188 390.625 781
-429.688 -445.312 2156
-312.5 -367.188 2958
-453.125 -234.375 1328
140.625 -109.375 749
-492.188 226.562 835
-85.9375 39.0625 787
-148.438 7.8125 771
78.125 -148.438 774
101.562 -171.875 811
250 -117.188 766
289.062 62.5 717
140.625 -117.188 747
70.3125 -187.5 813
-93.75 265.625 696
289.062 101.562 716
304.688 54.6875 711
109.375 -226.562 821
109.375 -242.188 819
171.875 304.688 662
-359.375 140.625 774
-15.625 445.312 771
390.625 335.938 637
70.3125 -171.875 809
335.938 335.938 647
-125 -382.812 871
492.188 343.75 621
-476.562 242.188 843
-289.062 390.625 809
-78.125 46.875 792
125 296.875 668
109.375 -257.812 798
328.125 328.125 646
-164.062 54.6875 809
-101.562 -140.625 691
-328.125 93.75 796
-23.4375 -125 684
117.188 -109.375 754
117.188 -343.75 2908
335.938 328.125 643
-382.812 187.5 809
265.625 328.125 657
85.9375 -125 766
-476.562 -46.875 981
312.5 140.625 698
109.375 -250 813
242.188 -156.25 776
93.75 -257.812 802
-437.5 164.062 803
226.562 312.5 657
-70.3125 265.625 693
-62.5 -39.0625 733
-445.312 164.062 803
-367.188 164.062 755
-320.312 62.5 815
-187.5 46.875 821
218.75 -93.75 762
-390.625 -117.188 962
375 109.375 728
78.125 -242.188 803
234.375 242.188 686
460.938 343.75 629
-15.625 7.8125 759
-398.438 -140.625 975
62.5 453.125 757
125 -109.375 754
-187.5 54.6875 817
93.75 -117.188 762
171.875 296.875 663
-31.25 273.438 688
-7.8125 -23.4375 739
492.188 46.875 774
171.875 -210.938 839
109.375 -234.375 819
484.375 328.125 628
-390.625 -109.375 962
-351.562 125 776
281.25 187.5 687
101.562 296.875 671
-101.562 -164.062 703
-390.625 78.125 813
54.6875 -234.375 819
203.125 -257.812 1054
148.438 -265.625 1063
-218.75 -70.3125 908
85.9375 -156.25 776
304.688 414.062 759
-23.4375 -164.062 701
195.312 -257.812 1050
273.438 109.375 711
218.75 226.562 694
-335.938 54.6875 1001
-78.125 265.625 694
-23.4375 -85.9375 706
-382.812 70.3125 819
78.125 -164.062 835
484.375 -31.25 831
-304.688 -320.312 3120
-328.125 218.75 731
70.3125 -70.3125 823
-62.5 429.688 773
242.188 187.5 676
-187.5 250 708
250 257.812 675
-367.188 156.25 817
-421.875 242.188 809
-226.562 242.188 716
70.3125 -203.125 819
273.438 62.5 720
-15.625 -125 684
203.125 218.75 698
328.125 156.25 704
492.188 39.0625 778
23.4375 -382.812 860
-421.875 164.062 803
312.5 148.438 698
-328.125 78.125 809
54.6875 -226.562 901
-62.5 -382.812 823
476.562 -140.625 918
-109.375 -250 843
46.875 -312.5 851
195.312 320.312 666
-85.9375 437.5 787
492.188 54.6875 769
-382.812 54.6875 809
-117.188 -54.6875 728
-312.5 320.312 827
187.5 320.312 666
-375 31.25 815
-273.438 -23.4375 873
242.188 117.188 727
15.625 -359.375 843
-70.3125 -54.6875 723
-171.875 62.5 811
-195.312 -367.188 2984
187.5 312.5 662
-140.625 -210.938 903
-15.625 -109.375 693
-210.938 -367.188 3010
289.062 171.875 697
78.125 -125 769
359.375 320.312 641
-289.062 234.375 727
70.3125 -304.688 875
-460.938 -125 975
-335.938 46.875 984
-148.438 78.125 800
-15.625 -132.812 684
-296.875 23.4375 847
-492.188 242.188 843
70.3125 -7.8125 837
-203.125 -78.125 723
250 242.188 684
-320.312 226.562 733
-320.312 304.688 839
320.312 187.5 710
171.875 -109.375 747
320.312 54.6875 707
-195.312 15.625 785
382.812 328.125 637
70.3125 -320.312 878
312.5 179.688 713
250 156.25 704
-156.25 -296.875 864
195.312 226.562 696
109.375 -242.188 819
-156.25 62.5 811
70.3125 -289.062 873
31.25 296.875 688
-23.4375 -156.25 694
-203.125 -15.625 867
-210.938 -39.0625 885
-23.4375 -70.3125 713
-23.4375 -101.562 694
109.375 -78.125 790
-390.625 0 839
78.125 -234.375 803
250 203.125 676
-125 -39.0625 739
-140.625 -234.375 873
-304.688 218.75 728
-335.938 93.75 796
-148.438 23.4375 783
328.125 335.938 648
437.5 -226.562 1004
62.5 -70.3125 825
296.875 218.75 664
195.312 -203.125 831
109.375 -250 813
-390.625 70.3125 817
78.125 -179.688 819
-132.812 -218.75 878
-375 -23.4375 854
226.562 164.062 680
382.812 414.062 714
-242.188 234.375 716
-257.812 242.188 727
476.562 -132.812 910
70.3125 -257.812 802
281.25 78.125 716
-23.4375 -320.312 827
-23.4375 -117.188 687
125 -132.812 752
-375 62.5 833
-484.375 179.688 805
-500 -437.5 2103
-351.562 62.5 1010
-109.375 265.625 698
476.562 -85.9375 873
93.75 390.625 783
226.562 140.625 741
78.125 -132.812 769
-492.188 117.188 794
320.312 171.875 717
-156.25 -250 880
-39.0625 273.438 690
-132.812 257.812 703
-421.875 117.188 794
140.625 -109.375 749
-234.375 234.375 716
62.5 -335.938 869
-492.188 101.562 802
-70.3125 39.0625 787
250 328.125 661
265.625 -250 1041
-156.25 -218.75 1038
31.25 -375 860
-257.812 -367.188 3037
-46.875 -39.0625 734
70.3125 296.875 676
-437.5 -437.5 2129
281.25 218.75 666
476.562 328.125 628
312.5 93.75 704
62.5 -203.125 819
281.25 218.75 666
70.3125 -335.938 873
242.188 -179.688 796
312.5 398.438 714
257.812 148.438 704
320.312 328.125 647
468.75 328.125 630
-7.8125 -7.8125 750
78.125 304.688 679
-382.812 195.312 809
-15.625 -85.9375 701
-23.4375 -109.375 691
-31.25 -273.438 829
218.75 109.375 759
70.3125 -296.875 871
289.062 398.438 723
-445.312 171.875 802
-351.562 -23.4375 856
-101.562 -156.25 698
210.938 312.5 657
351.562 312.5 644
-234.375 -93.75 920
335.938 171.875 716
-117.188 -382.812 851
257.812 312.5 652
132.812 -218.75 841
-195.312 242.188 708
-500 -421.875 2103
-148.438 257.812 704
-23.4375 281.25 687
351.562 320.312 642
-179.688 429.688 1193
-7.8125 -46.875 727
-421.875 156.25 809
335.938 187.5 708
-343.75 7.8125 833
-406.25 101.562 800
54.6875 -164.062 803
-437.5 70.3125 796
273.438 312.5 650
109.375 -257.812 798
453.125 343.75 629
-23.4375 -148.438 691
-375 -46.875 894
-7.8125 39.0625 778
117.188 296.875 670
109.375 -234.375 819
54.6875 -179.688 807
-398.438 -93.75 943
-281.25 -7.8125 860
-375 -15.625 851
-15.625 0 755
273.438 148.438 698
164.062 -109.375 749
-101.562 15.625 774
-101.562 273.438 700
-132.812 -140.625 694
-492.188 93.75 794
-421.875 -140.625 978
-218.75 -70.3125 908
-70.3125 273.438 693
-312.5 312.5 835
109.375 -140.625 817
-101.562 -140.625 691
-375 125 819
-148.438 -226.562 889
46.875 -250 867
-375 171.875 811
-406.25 250 809
-429.688 -414.062 2116
132.812 -117.188 752
-476.562 -117.188 973
281.25 320.312 649
156.25 304.688 664
54.6875 -148.438 792
-296.875 -421.875 2883
226.562 -164.062 809
-46.875 382.812 792
-492.188 109.375 796
-93.75 -367.188 833
445.312 343.75 630
-445.312 343.75 843
289.062 85.9375 716
250 320.312 653
-148.438 62.5 811
-460.938 -421.875 2103
218.75 312.5 657
-500 117.188 796
54.6875 289.062 678
-390.625 -101.562 975
-320.312 62.5 815
-382.812 -62.5 913
-226.562 -367.188 3037
62.5 289.062 675
250 187.5 676
23.4375 289.062 682
132.812 312.5 674
218.75 -179.688 819
-179.688 -171.875 720
-23.4375 -304.688 827
-500 226.562 833
54.6875 -226.562 901
-250 226.562 717
-23.4375 31.25 776
179.688 -148.438 831
179.688 320.312 667
289.062 70.3125 714
23.4375 296.875 691
242.188 203.125 676
-218.75 234.375 714
-109.375 -375 841
343.75 164.062 700
320.312 -242.188 1028
-500 375 1054
-23.4375 -406.25 827
148.438 304.688 664
265.625 312.5 652
492.188 328.125 623
-15.625 -93.75 698
-289.062 7.8125 849
-414.062 156.25 807
-15.625 -398.438 829
109.375 -226.562 825
242.188 210.938 675
-289.062 218.75 725
453.125 328.125 630
-31.25 -109.375 690
296.875 117.188 707
195.312 304.688 659
109.375 -218.75 825
-265.625 -39.0625 885
-117.188 -117.188 691
117.188 -117.188 750
-312.5 46.875 825
257.812 328.125 654
218.75 179.688 679
-437.5 179.688 802
39.0625 -320.312 845
-23.4375 437.5 769
343.75 320.312 642
-140.625 437.5 1181
-46.875 273.438 688
359.375 414.062 716
-203.125 -7.8125 774
-70.3125 -406.25 817
289.062 320.312 647
-453.125 -140.625 984
-101.562 437.5 789
-351.562 -15.625 843
117.188 -156.25 811
476.562 -78.125 869
-335.938 39.0625 981
-445.312 70.3125 796
-445.312 -234.375 1328
-140.625 -226.562 875
109.375 -250 811
382.812 -15.625 827
304.688 93.75 704
-429.688 85.9375 807
-500 -31.25 894
-156.25 7.8125 771
-85.9375 15.625 773
-382.812 101.562 809
-15.625 46.875 783
414.062 335.938 632
445.312 414.062 688
-70.3125 -117.188 687
-203.125 242.188 710
-117.188 -31.25 742
312.5 164.062 700
101.562 -46.875 780
-164.062 -85.9375 713
-62.5 -117.188 687
-15.625 -101.562 693
-328.125 70.3125 811
-23.4375 -140.625 686
359.375 328.125 640
445.312 328.125 631
312.5 328.125 644
117.188 -109.375 752
-468.75 -132.812 975
-117.188 -101.562 698
-78.125 54.6875 800
367.188 328.125 638
250 109.375 725
-484.375 242.188 847
421.875 328.125 631
62.5 -62.5 821
85.9375 -210.938 807
429.688 335.938 630
109.375 -242.188 817
-414.062 -429.688 2241
-187.5 406.25 794
-218.75 250 717
234.375 234.375 690
-359.375 132.812 774
109.375 -250 811
-101.562 -93.75 703
273.438 101.562 719
-500 -367.188 2212
-15.625 23.4375 769
-7.8125 -15.625 744
-476.562 226.562 821
179.688 312.5 662
492.188 70.3125 762
242.188 320.312 653
-156.25 -54.6875 731
-476.562 -445.312 2156
-398.438 226.562 813
62.5 -78.125 835
-164.062 -78.125 716
-132.812 -31.25 744
-210.938 -39.0625 747
257.812 242.188 686
-171.875 250 707
-187.5 54.6875 817
164.062 304.688 663
54.6875 -351.562 867
-195.312 23.4375 785
226.562 125 749
-23.4375 -132.812 684
195.312 -257.812 1050
171.875 304.688 663
70.3125 -312.5 875
46.875 7.8125 829
78.125 -234.375 803
304.688 117.188 707
273.438 218.75 667
62.5 -195.312 813
-375 78.125 817
-304.688 31.25 829
-453.125 109.375 794
-156.25 257.812 704
-109.375 15.625 773
-179.688 -54.6875 734
-296.875 226.562 727
-460.938 257.812 869
429.688 343.75 631
-273.438 226.562 720
-460.938 -46.875 989
203.125 -54.6875 807
-382.812 -70.3125 915
-101.562 265.625 697
-93.75 -23.4375 744
-351.562 117.188 781
296.875 132.812 698
375 328.125 637
-23.4375 -156.25 694
-109.375 -273.438 835
-101.562 -156.25 698
281.25 78.125 714
78.125 -156.25 774
-226.562 -101.562 710
-429.688 78.125 802
148.438 -171.875 864
93.75 -7.8125 835
54.6875 23.4375 821
54.6875 7.8125 829
-375 -31.25 862
-421.875 234.375 809
-31.25 -140.625 686
-117.188 -140.625 693
-468.75 78.125 792
23.4375 -289.062 839
-203.125 414.062 800
-15.625 289.062 687
-62.5 281.25 693
-93.75 78.125 794
460.938 328.125 630
-500 -390.625 2156
492.188 62.5 766
218.75 101.562 728
210.938 125 750
-343.75 7.8125 833
-15.625 39.0625 778
-375 164.062 813
-125 -296.875 837
62.5 -210.938 821
109.375 -218.75 825
140.625 -218.75 839
-164.062 -312.5 875
140.625 -265.625 1060
140.625 398.438 781
-39.0625 -7.8125 750
-148.438 -257.812 862
328.125 140.625 708
-500 109.375 802
234.375 210.938 675
-257.812 -54.6875 891
62.5 23.4375 819
484.375 -54.6875 847
265.625 187.5 691
-203.125 -367.188 3010
-164.062 54.6875 809
93.75 296.875 671
-367.188 148.438 819
-70.3125 281.25 694
-132.812 39.0625 792
70.3125 296.875 675
218.75 125 749
-210.938 -31.25 754
-117.188 265.625 700
-296.875 218.75 727
-343.75 101.562 796
70.3125 375 761
-132.812 -273.438 847
-406.25 109.375 800
421.875 335.938 631
468.75 -132.812 910
312.5 335.938 647
328.125 78.125 700
148.438 -109.375 749
0 -328.125 829
-164.062 -304.688 871
109.375 -234.375 819
289.062 164.062 696
226.562 101.562 725
171.875 367.188 716
109.375 -148.438 815
-375 15.625 827
39.0625 289.062 678
-125 -101.562 700
-109.375 -132.812 688
421.875 343.75 631
70.3125 -257.812 798
203.125 117.188 755
429.688 -226.562 1004
0 281.25 683
7.8125 281.25 683
203.125 203.125 708
-31.25 390.625 789
265.625 218.75 670
-320.312 210.938 728
-218.75 -62.5 733
242.188 328.125 659
-468.75 164.062 807
-7.8125 -39.0625 730
-31.25 -257.812 833
-156.25 421.875 792
-382.812 179.688 809
62.5 -203.125 817
429.688 328.125 631
39.0625 -226.562 882
171.875 312.5 663
234.375 171.875 701
109.375 -109.375 755
-15.625 15.625 762
-375 -7.8125 843
-304.688 320.312 827
117.188 -140.625 813
-171.875 -140.625 697
85.9375 390.625 783
-359.375 210.938 738
54.6875 -226.562 813
226.562 156.25 733
-23.4375 70.3125 796
-195.312 -171.875 722
-492.188 101.562 803
70.3125 -250 800
101.562 -164.062 811
-375 -39.0625 878
-398.438 234.375 811
-117.188 -132.812 691
93.75 -187.5 811
328.125 101.562 706
93.75 -195.312 809
250 312.5 652
226.562 132.812 747
70.3125 -164.062 802
468.75 -187.5 964
-460.938 85.9375 796
-390.625 -101.562 948
-164.062 7.8125 771
242.188 218.75 680
85.9375 -148.438 769
62.5 -218.75 823
453.125 414.062 684
-382.812 -54.6875 903
-187.5 46.875 819
-382.812 226.562 815
476.562 -62.5 854
-351.562 203.125 736
351.562 -242.188 1025
-148.438 -343.75 862
335.938 320.312 643
-31.25 -414.062 860
-15.625 -78.125 708
93.75 -203.125 809
-390.625 195.312 809
492.188 -226.562 2598
218.75 195.312 678
109.375 296.875 670
437.5 328.125 631
-210.938 -109.375 703
-210.938 242.188 711
-390.625 -109.375 956
-382.812 31.25 815
-101.562 -78.125 713
-390.625 109.375 803
-203.125 0 774
-7.8125 281.25 684
70.3125 -15.625 843
-468.75 351.562 943
-375 23.4375 819
375 -234.375 1016
343.75 156.25 700
265.625 -250 1041
-406.25 156.25 807
-195.312 421.875 803
-296.875 15.625 843
-109.375 -46.875 731
328.125 164.062 722
-132.812 -23.4375 749
54.6875 -140.625 789
335.938 304.688 648
7.8125 296.875 690
-187.5 414.062 800
320.312 335.938 646
70.3125 304.688 678
-304.688 -375 2984
289.062 101.562 716
304.688 156.25 697
132.812 -109.375 750
304.688 328.125 646
351.562 328.125 640
46.875 289.062 676
-382.812 78.125 817
234.375 226.562 694
-15.625 -117.188 686
-421.875 78.125 809
210.938 -187.5 821
125 312.5 671
-164.062 250 704
164.062 -85.9375 746
-460.938 -218.75 1317
101.562 -203.125 809
85.9375 -117.188 764
-398.438 117.188 802
-421.875 140.625 819
-7.8125 -375 837
460.938 -218.75 998
-164.062 421.875 792
-453.125 85.9375 798
351.562 109.375 731
-359.375 -46.875 891
-140.625 -171.875 714
-156.25 -171.875 717
-375 140.625 821
-343.75 109.375 781
-39.0625 31.25 776
54.6875 -265.625 805
-140.625 257.812 703
-351.562 117.188 781
-187.5 257.812 711
304.688 78.125 704
-39.0625 -328.125 819
-125 257.812 701
234.375 -257.812 1050
101.562 296.875 671
437.5 343.75 630
468.75 320.312 632
109.375 -203.125 835
85.9375 -242.188 803
-226.562 -93.75 714
164.062 -265.625 1060
328.125 109.375 714
-445.312 -429.688 2103
273.438 320.312 650
187.5 -179.688 845
-453.125 -46.875 989
-382.812 195.312 747
476.562 -125 903
320.312 -242.188 1028
117.188 -171.875 811
-179.688 257.812 710
-468.75 257.812 869
-117.188 -226.562 860
-429.688 234.375 809
367.188 320.312 641
140.625 304.688 666
109.375 -218.75 825
78.125 -250 800
-429.688 148.438 815
-93.75 -54.6875 722
-414.062 250 825
-140.625 -203.125 896
250 117.188 723
109.375 -117.188 755
-453.125 359.375 943
257.812 -250 1041
-109.375 46.875 794
-468.75 140.625 787
164.062 -93.75 746
296.875 437.5 749
-429.688 62.5 798
140.625 -109.375 749
320.312 101.562 706
93.75 -109.375 762
281.25 179.688 694
140.625 0 827
414.062 343.75 632
-156.25 15.625 780
-429.688 101.562 798
-148.438 7.8125 771
-164.062 -140.625 697
-31.25 -101.562 693
429.688 437.5 742
210.938 312.5 657
148.438 -156.25 869
78.125 -257.812 798
226.562 -257.812 1054
62.5 -335.938 869
-476.562 234.375 825
-218.75 -54.6875 733
-101.562 -156.25 698
242.188 93.75 725
70.3125 -250 800
-93.75 265.625 694
-109.375 -93.75 703
-140.625 -132.812 693
-406.25 -117.188 978
-390.625 -132.812 973
109.375 -140.625 813
398.438 335.938 634
-156.25 -335.938 867
257.812 312.5 652
-23.4375 -164.062 701
-39.0625 -296.875 821
-335.938 31.25 978
-187.5 226.562 714
-93.75 -148.438 694
-117.188 15.625 774
-281.25 226.562 722
-171.875 -140.625 697
-62.5 -7.8125 752
-164.062 -117.188 696
250 250 682
242.188 109.375 723
101.562 -265.625 794
-445.312 -421.875 2103
-226.562 -93.75 714
62.5 -132.812 778
-39.0625 375 796
-460.938 140.625 787
296.875 320.312 647
-226.562 242.188 714
-289.062 0 860
-101.562 -93.75 703
93.75 23.4375 817
-460.938 -140.625 975
117.188 304.688 668
-351.562 -15.625 843
-453.125 -421.875 2103
125 -125 749
484.375 328.125 629
148.438 304.688 664
31.25 -375 860
296.875 328.125 647
-218.75 -62.5 733
62.5 -187.5 811
-39.0625 39.0625 783
328.125 320.312 644
-234.375 242.188 714
-382.812 93.75 811
273.438 171.875 698
54.6875 -218.75 823
-23.4375 390.625 787
289.062 62.5 714
85.9375 296.875 672
-429.688 242.188 813
15.625 296.875 688
-101.562 265.625 697
414.062 328.125 634
273.438 414.062 764
492.188 101.562 741
78.125 -242.188 802
257.812 195.312 690
-46.875 273.438 688
-164.062 -148.438 698
-335.938 85.9375 803
-156.25 -289.062 864
70.3125 -23.4375 849
476.562 -117.188 896
195.312 -257.812 1050
179.688 -117.188 749
109.375 -210.938 811
234.375 195.312 674
-492.188 -132.812 970
-343.75 101.562 796
-226.562 -85.9375 918
-31.25 -93.75 698
492.188 78.125 755
-31.25 -125 684
-375 148.438 817
-164.062 -171.875 717
468.75 -179.688 956
31.25 -234.375 864
476.562 -148.438 923
140.625 -117.188 749
257.812 257.812 676
468.75 -125 903
281.25 226.562 666
-46.875 70.3125 796
-359.375 132.812 774
-195.312 31.25 833
-78.125 78.125 794
296.875 140.625 697
7.8125 -289.062 835
46.875 -289.062 851
-101.562 70.3125 802
328.125 343.75 652
-242.188 234.375 716
101.562 -148.438 819
-101.562 -171.875 710
109.375 -148.438 815
-39.0625 273.438 688
242.188 85.9375 725
492.188 23.4375 792
-476.562 179.688 803
70.3125 -179.688 813
-398.438 -39.0625 987
328.125 179.688 713
-15.625 -70.3125 711
-382.812 179.688 809
-187.5 54.6875 817
-460.938 179.688 802
265.625 320.312 650
195.312 218.75 700
-78.125 273.438 693
242.188 242.188 686
109.375 304.688 670
-328.125 218.75 730
-171.875 250 707
-367.188 148.438 819
62.5 -179.688 809
-421.875 148.438 819
62.5 -101.562 845
-117.188 -304.688 835
39.0625 -265.625 854
-382.812 -46.875 896
242.188 78.125 776
468.75 -156.25 935
-140.625 -23.4375 749
-109.375 -328.125 831
-429.688 -132.812 975
-15.625 46.875 783
242.188 179.688 680
-210.938 -273.438 2933
-164.062 62.5 809
-7.8125 7.8125 755
-398.438 -78.125 989
85.9375 -117.188 764
234.375 320.312 654
-109.375 -265.625 839
-210.938 -31.25 754
265.625 226.562 670
492.188 343.75 622
-289.062 320.312 827
-484.375 -437.5 2129
-210.938 -23.4375 869
62.5 -195.312 813
-125 -132.812 691
-468.75 -421.875 2090
-398.438 242.188 811
273.438 234.375 670
-343.75 54.6875 1004
390.625 335.938 635
304.688 93.75 704
-500 54.6875 802
250 171.875 700
-171.875 -85.9375 714
-171.875 -85.9375 714
70.3125 -195.312 815
343.75 328.125 641
476.562 -109.375 891
-7.8125 0 754
296.875 187.5 698
117.188 312.5 674
-250 -70.3125 910
289.062 85.9375 710
164.062 -109.375 749
171.875 -109.375 747
-23.4375 -15.625 744
218.75 179.688 679
242.188 312.5 653
406.25 328.125 635
62.5 296.875 675
-148.438 -117.188 693
-101.562 -359.375 833
242.188 203.125 674
-15.625 54.6875 790
398.438 414.062 706
-382.812 203.125 739
-156.25 257.812 704
250 210.938 678
281.25 320.312 648
-140.625 257.812 703
-390.625 -93.75 946
-31.25 281.25 688
296.875 54.6875 713
304.688 343.75 655
-296.875 -218.75 1283
101.562 -156.25 807
-187.5 -54.6875 734
-148.438 -312.5 856
-93.75 -148.438 694
-375 39.0625 813
85.9375 -7.8125 837
-195.312 250 710
-414.062 70.3125 803
109.375 -218.75 825
93.75 296.875 671
-351.562 117.188 781
421.875 328.125 631
78.125 -250 800
85.9375 -156.25 805
-140.625 -218.75 889
460.938 335.938 628
-445.312 78.125 796
203.125 312.5 658
312.5 93.75 701
46.875 -296.875 851
-203.125 -101.562 707
-31.25 -109.375 690
-78.125 -62.5 719
101.562 -101.562 759
343.75 101.562 704
-156.25 -156.25 704
-7.8125 31.25 774
23.4375 -78.125 891
-265.625 226.562 717
-93.75 -85.9375 706
367.188 101.562 733
-492.188 117.188 792
132.812 -273.438 798
-156.25 265.625 707
-218.75 -54.6875 733
-15.625 -93.75 697
-203.125 0 774
15.625 289.062 682
492.188 85.9375 754
-132.812 -171.875 714
-109.375 -210.938 869
-328.125 70.3125 811
-109.375 -351.562 835
78.125 -226.562 805
-54.6875 31.25 776
304.688 335.938 649
-343.75 85.9375 987
-429.688 -54.6875 995
468.75 -195.312 970
140.625 -265.625 1060
-226.562 -85.9375 918
54.6875 453.125 757
-132.812 -132.812 691
-406.25 -359.375 3238
-101.562 -31.25 741
156.25 304.688 663
54.6875 289.062 676
-187.5 -171.875 722
265.625 132.812 700
179.688 -187.5 845
-242.188 437.5 1007
109.375 -226.562 825
195.312 312.5 659
-31.25 -140.625 686
-156.25 250 704
-132.812 -140.625 693
320.312 54.6875 707
406.25 343.75 634
101.562 -195.312 805
-367.188 -39.0625 873
109.375 -187.5 807
195.312 -156.25 849
164.062 -125 749
-109.375 -140.625 693
-359.375 7.8125 829
-453.125 171.875 803
250 328.125 657
109.375 -109.375 755
-156.25 -117.188 694
375 -234.375 1016
-164.062 414.062 792
-484.375 406.25 1410
-179.688 250 708
31.25 289.062 680
-273.438 406.25 951
-390.625 -85.9375 930
-23.4375 289.062 690
39.0625 289.062 678
-125 -234.375 860
-62.5 39.0625 781
-500 -242.188 1349
-460.938 -382.812 2143
-140.625 -140.625 696
-343.75 62.5 1004
320.312 156.25 703
-23.4375 -7.8125 749
218.75 210.938 703
54.6875 -218.75 823
335.938 101.562 706
-132.812 -250 854
132.812 398.438 781
164.062 312.5 663
23.4375 -195.312 896
-210.938 414.062 800
-117.188 -132.812 691
62.5 304.688 680
-164.062 -93.75 707
234.375 156.25 734
-203.125 7.8125 849
109.375 -257.812 807
-343.75 93.75 858
-7.8125 281.25 684
187.5 -203.125 835
-39.0625 289.062 697
164.062 -117.188 749
-23.4375 46.875 785
93.75 -250 803
-476.562 351.562 940
0 281.25 683
367.188 117.188 730
335.938 328.125 642
312.5 335.938 647
390.625 328.125 635
-359.375 203.125 738
85.9375 -226.562 803
-203.125 -54.6875 733
476.562 382.812 648
-54.6875 273.438 690
-93.75 -31.25 741
-234.375 234.375 714
320.312 320.312 644
-476.562 93.75 794
351.562 93.75 707
78.125 -242.188 802
226.562 320.312 654
-406.25 242.188 811
-250 -101.562 1145
-500 250 869
421.875 -226.562 1004
-148.438 -132.812 693
414.062 351.562 638
453.125 328.125 630
-500 -437.5 2116
-164.062 -132.812 693
-375 195.312 747
289.062 171.875 697
429.688 -226.562 1004
-304.688 31.25 829
-23.4375 -125 684
-109.375 265.625 698
-125 -257.812 847
312.5 54.6875 708
312.5 320.312 646
-476.562 242.188 847
-132.812 -101.562 701
289.062 328.125 647
-125 421.875 785
78.125 -234.375 803
-343.75 210.938 734
-375 0 839
7.8125 -351.562 835
-484.375 117.188 790
109.375 -203.125 835
-312.5 39.0625 829
-31.25 -85.9375 704
-164.062 -179.688 720
398.438 343.75 636
-46.875 -46.875 730
78.125 296.875 674
-375 164.062 813
23.4375 296.875 687
-93.75 -171.875 708
-453.125 101.562 796
-500 140.625 792
-85.9375 -406.25 819
382.812 335.938 636
-148.438 257.812 704
234.375 -125 762
226.562 148.438 738
234.375 164.062 703
476.562 335.938 627
-15.625 -54.6875 720
304.688 -281.25 2859
-398.438 164.062 805
-406.25 -54.6875 998
-257.812 -54.6875 891
-320.312 54.6875 825
375 335.938 636
-296.875 234.375 728
-109.375 -156.25 701
-406.25 62.5 805
-476.562 -234.375 1338
-351.562 -7.8125 843
-375 203.125 739
-195.312 -117.188 698
-304.688 -437.5 2812
429.688 453.125 734
367.188 -234.375 1016
242.188 187.5 676
328.125 78.125 700
242.188 210.938 675
-484.375 -125 970
-15.625 -62.5 714
-195.312 257.812 717
-343.75 15.625 831
-171.875 -140.625 697
187.5 312.5 661
70.3125 -140.625 774
-164.062 15.625 780
109.375 -242.188 817
-289.062 -218.75 1283
-242.188 -85.9375 918
-398.438 132.812 827
-210.938 -23.4375 869
453.125 -218.75 998
-39.0625 70.3125 798
85.9375 -148.438 769
101.562 -265.625 794
359.375 109.375 733
109.375 -179.688 809
-234.375 -109.375 943
70.3125 -125 774
-148.438 -15.625 757
265.625 62.5 766
101.562 -140.625 761
312.5 101.562 707
218.75 117.188 728
281.25 85.9375 716
-148.438 -140.625 696
-328.125 226.562 733
39.0625 -257.812 854
-250 234.375 717
242.188 117.188 728
-62.5 70.3125 798
-367.188 70.3125 858
62.5 -210.938 821
468.75 -171.875 948
-218.75 -46.875 889
-382.812 117.188 813
171.875 320.312 666
429.688 335.938 630
62.5 -15.625 845
-23.4375 -250 835
164.062 -109.375 749
164.062 -109.375 749
-109.375 7.8125 766
101.562 -109.375 755
-54.6875 -179.688 711
-375 257.812 867
218.75 320.312 657
257.812 320.312 652
335.938 320.312 643
-54.6875 -234.375 841
-15.625 -78.125 708
-85.9375 -39.0625 736
39.0625 -289.062 847
210.938 125 750
117.188 0 831
-210.938 242.188 711
273.438 148.438 697
242.188 195.312 675
187.5 320.312 662
203.125 226.562 696
-171.875 15.625 780
398.438 359.375 649
-187.5 -15.625 761
156.25 320.312 671
78.125 -148.438 774
226.562 226.562 696
320.312 101.562 706
-445.312 93.75 802
-31.25 70.3125 798
109.375 -195.312 839
-54.6875 382.812 790
367.188 335.938 638
-132.812 -210.938 896
296.875 54.6875 713
-375 7.8125 835
-375 7.8125 835
-421.875 -54.6875 998
-195.312 39.0625 827
70.3125 -296.875 871
140.625 -109.375 749
78.125 -234.375 803
140.625 304.688 666
-101.562 -117.188 691
367.188 109.375 730
109.375 -132.812 754
273.438 187.5 691
-54.6875 -54.6875 720
-367.188 62.5 858
70.3125 -156.25 802
93.75 -226.562 805
203.125 -125 752
-453.125 -359.375 2198
-117.188 -156.25 701
-23.4375 -62.5 717
-492.188 -421.875 2103
312.5 -242.188 1028
78.125 -242.188 802
-125 46.875 800
-62.5 -39.0625 733
-7.8125 15.625 762
-117.188 -375 849
375 437.5 747
218.75 125 749
-132.812 -234.375 867
257.812 -250 1041
-476.562 -359.375 3300
-390.625 210.938 813
476.562 -39.0625 837
109.375 312.5 676
-421.875 -359.375 2226
125 -343.75 2859
-125 -78.125 716
-148.438 -210.938 896
476.562 -46.875 843
-70.3125 -375 825
-468.75 -359.375 3238
-335.938 85.9375 803
320.312 140.625 704
-460.938 -46.875 989
304.688 148.438 697
335.938 195.312 704
-226.562 -78.125 915
304.688 85.9375 704
-406.25 54.6875 803
-406.25 93.75 803
382.812 343.75 637
-281.25 -15.625 873
-359.375 54.6875 1010
-31.25 289.062 694
328.125 171.875 717
70.3125 -31.25 851
226.562 -156.25 811
-273.438 -31.25 878
-31.25 -78.125 708
296.875 179.688 698
62.5 -23.4375 849
-164.062 -78.125 716
-218.75 -210.938 1268
-367.188 140.625 821
-179.688 421.875 800
-390.625 187.5 809
312.5 156.25 698
-140.625 62.5 809
-265.625 234.375 717
-39.0625 -23.4375 741
109.375 -171.875 811
-492.188 -398.438 2170
70.3125 -242.188 802
312.5 140.625 700
-15.625 62.5 796
328.125 132.812 711
-62.5 437.5 778
-328.125 210.938 731
101.562 -156.25 807
-15.625 281.25 686
281.25 328.125 648
-195.312 46.875 821
54.6875 296.875 676
460.938 -171.875 946
492.188 343.75 622
-453.125 -351.562 2198
351.562 421.875 723
7.8125 296.875 690
54.6875 -210.938 821
-148.438 351.562 811
-312.5 226.562 728
-132.812 -257.812 851
-101.562 -382.812 841
-70.3125 -382.812 823
296.875 93.75 708
-93.75 39.0625 787
453.125 -226.562 1001
250 140.625 708
0 -335.938 829
-46.875 351.562 773
-125 -101.562 700
242.188 132.812 744
-226.562 -85.9375 918
406.25 -304.688 2659
39.0625 -304.688 845
242.188 218.75 680
-132.812 414.062 781
148.438 304.688 664
156.25 312.5 664
-31.25 -132.812 684
250 320.312 652
101.562 -132.812 761
-351.562 109.375 847
117.188 -132.812 750
46.875 -156.25 800
281.25 -250 1041
-78.125 -54.6875 722
54.6875 -234.375 811
39.0625 -203.125 896
125 453.125 750
-164.062 -62.5 727
492.188 117.188 733
421.875 335.938 631
-62.5 273.438 691
62.5 -265.625 800
203.125 218.75 700
234.375 -132.812 761
-164.062 -281.25 878
109.375 -117.188 755
234.375 242.188 686
-148.438 -281.25 856
-234.375 -109.375 943
-46.875 -320.312 819
78.125 -226.562 805
-54.6875 70.3125 796
-132.812 421.875 789
-125 265.625 701
-289.062 -437.5 2835
289.062 234.375 670
281.25 78.125 714
304.688 164.062 697
54.6875 -187.5 811
218.75 203.125 678
312.5 148.438 700
359.375 -78.125 873
-484.375 -46.875 981
-265.625 -46.875 885
164.062 320.312 668
-93.75 -117.188 690
-335.938 78.125 995
62.5 -328.125 864
-218.75 -46.875 889
179.688 320.312 663
359.375 117.188 731
-148.438 23.4375 783
445.312 335.938 629
-101.562 -85.9375 707
-343.75 46.875 984
-62.5 23.4375 773
93.75 460.938 755
-390.625 -78.125 918
210.938 218.75 700
-382.812 125 827
-125 -367.188 854
-187.5 437.5 1185
-242.188 -117.188 1165
46.875 -234.375 878
328.125 328.125 642
-390.625 -85.9375 930
-382.812 171.875 809
171.875 -210.938 835
109.375 -210.938 811
265.625 148.438 700
351.562 117.188 731
70.3125 -171.875 811
476.562 351.562 627
54.6875 -171.875 805
242.188 257.812 678
-437.5 156.25 813
476.562 -117.188 896
-156.25 -132.812 693
-375 156.25 813
-429.688 156.25 811
-437.5 125 790
359.375 93.75 741
-312.5 39.0625 829
226.562 328.125 662
257.812 187.5 694
101.562 -265.625 794
-210.938 -15.625 867
484.375 7.8125 803
-312.5 218.75 727
-203.125 15.625 843
218.75 -140.625 762
-304.688 226.562 727
-492.188 234.375 841
-351.562 -7.8125 839
-390.625 101.562 809
39.0625 -296.875 845
-164.062 0 766
320.312 164.062 711
-492.188 164.062 807
62.5 -195.312 813
-484.375 -39.0625 984
-109.375 -93.75 701
-226.562 -78.125 723
-15.625 -46.875 722
468.75 -109.375 896
-93.75 -187.5 713
-351.562 -15.625 839
-359.375 125 778
-382.812 257.812 867
-468.75 -140.625 975
-203.125 -54.6875 738
218.75 140.625 744
54.6875 -218.75 815
273.438 218.75 666
304.688 320.312 646
-39.0625 -109.375 690
-39.0625 -109.375 690
7.8125 289.062 682
-62.5 -226.562 843
132.812 -210.938 841
382.812 328.125 636
328.125 140.625 706
-398.438 85.9375 807
367.188 343.75 638
492.188 140.625 720
-492.188 -359.375 3208
-54.6875 -187.5 711
23.4375 -359.375 845
-109.375 265.625 697
-390.625 242.188 811
-117.188 273.438 698
289.062 335.938 647
-226.562 -70.3125 728
-320.312 54.6875 817
-39.0625 281.25 688
-335.938 218.75 733
296.875 335.938 647
-226.562 250 716
85.9375 15.625 821
-148.438 -289.062 851
46.875 -242.188 811
-414.062 54.6875 803
210.938 187.5 691
203.125 125 752
-156.25 23.4375 781
-39.0625 -289.062 823
-109.375 -156.25 700
257.812 148.438 698
109.375 -156.25 811
-203.125 250 710
-320.312 -320.312 3120
-429.688 164.062 805
-109.375 -343.75 831
-390.625 164.062 809
-164.062 257.812 704
-375 15.625 825
164.062 -85.9375 742
476.562 -179.688 956
359.375 -234.375 1019
-125 -132.812 691
-367.188 140.625 774
492.188 156.25 711
210.938 320.312 657
54.6875 -210.938 819
46.875 -164.062 805
78.125 -234.375 803
54.6875 -343.75 867
-132.812 429.688 792
85.9375 -218.75 805
93.75 312.5 675
-117.188 15.625 773
250 62.5 776
-101.562 429.688 781
-437.5 148.438 815
-140.625 -132.812 691
460.938 -210.938 987
-78.125 -359.375 827
257.812 414.062 736
-117.188 -320.312 833
-492.188 226.562 829
-31.25 -85.9375 703
-414.062 93.75 802
78.125 -218.75 805
54.6875 -156.25 798
250 -250 1041
-171.875 -148.438 700
-156.25 -7.8125 759
54.6875 304.688 678
453.125 -218.75 998
195.312 203.125 710
468.75 328.125 631
109.375 -164.062 809
78.125 -250 798
46.875 -148.438 796
85.9375 23.4375 819
70.3125 296.875 674
7.8125 -187.5 896
-328.125 70.3125 805
-46.875 -296.875 821
62.5 -164.062 803
484.375 -7.8125 815
-62.5 -367.188 825
85.9375 -125 761
62.5 -117.188 776
218.75 -171.875 813
289.062 226.562 664
-406.25 -125 975
-296.875 7.8125 851
335.938 421.875 723
-15.625 -23.4375 736
-132.812 -132.812 691
-476.562 78.125 792
54.6875 421.875 769
-390.625 117.188 815
367.188 -234.375 1019
-296.875 320.312 829
-218.75 304.688 780
476.562 -54.6875 851
492.188 148.438 717
-31.25 -156.25 696
117.188 -132.812 811
-414.062 -437.5 2156
218.75 328.125 658
-406.25 234.375 811
132.812 -265.625 800
-179.688 437.5 1189
484.375 15.625 798
-351.562 109.375 858
-23.4375 281.25 684
-78.125 281.25 696
-117.188 -171.875 713
-93.75 15.625 771
367.188 -281.25 2767
-93.75 -140.625 690
242.188 210.938 676
-31.25 -117.188 686
-343.75 93.75 794
-179.688 62.5 813
-117.188 -218.75 864
-500 -421.875 2103
-445.312 62.5 796
-429.688 234.375 809
210.938 -335.938 2835
15.625 -273.438 843
-109.375 -78.125 711
281.25 226.562 664
-23.4375 -117.188 686
-148.438 -218.75 894
-117.188 -23.4375 744
-117.188 -328.125 833
-273.438 234.375 720
-421.875 54.6875 802
242.188 156.25 707
-203.125 -62.5 728
179.688 312.5 661
-500 210.938 833
39.0625 -242.188 869
414.062 -226.562 1010
-203.125 7.8125 774
-500 -359.375 3208
359.375 335.938 638
359.375 343.75 640
242.188 320.312 652
242.188 195.312 674
296.875 93.75 704
-468.75 343.75 956
-93.75 429.688 780
-195.312 -62.5 727
335.938 429.688 754
250 171.875 700
421.875 -226.562 1007
218.75 -296.875 2908
460.938 390.625 654
195.312 -39.0625 817
-23.4375 -93.75 694
-156.25 -93.75 703
-70.3125 46.875 787
273.438 -328.125 2789
-460.938 343.75 845
-132.812 -242.188 858
-31.25 -101.562 691
-328.125 62.5 817
468.75 382.812 644
484.375 39.0625 783
78.125 -117.188 764
-398.438 46.875 805
-257.812 -62.5 896
320.312 328.125 642
468.75 -164.062 940
109.375 -148.438 813
-85.9375 273.438 694
-492.188 62.5 809
-39.0625 -62.5 717
468.75 351.562 624
320.312 70.3125 704
-406.25 226.562 811
-234.375 242.188 716
296.875 148.438 697
-382.812 -359.375 3238
-164.062 265.625 708
78.125 -125 764
23.4375 289.062 679
414.062 335.938 632
-164.062 -132.812 693
460.938 -179.688 959
109.375 -179.688 809
-421.875 101.562 796
234.375 195.312 674
-125 -171.875 714
-390.625 85.9375 809
-54.6875 273.438 690
-328.125 -453.125 2789
-62.5 -375 821
296.875 320.312 647
312.5 406.25 713
-500 -242.188 1338
-265.625 242.188 722
31.25 289.062 678
-468.75 -429.688 2090
-7.8125 46.875 781
-445.312 101.562 796
140.625 -343.75 2835
-39.0625 -421.875 862
78.125 -226.562 803
187.5 -257.812 1050
328.125 78.125 701
-437.5 234.375 809
195.312 312.5 658
-210.938 406.25 796
-390.625 187.5 809
101.562 -109.375 755
-148.438 257.812 703
250 195.312 676
281.25 85.9375 711
-484.375 218.75 811
-31.25 62.5 796
-226.562 -70.3125 728
46.875 296.875 676
-414.062 125 796
328.125 85.9375 700
164.062 304.688 662
85.9375 296.875 671
117.188 -140.625 811
54.6875 -351.562 869
39.0625 -312.5 847
-289.062 398.438 938
-39.0625 -281.25 825
7.8125 -218.75 869
164.062 -218.75 835
-210.938 242.188 711
-70.3125 281.25 693
328.125 148.438 706
-15.625 429.688 767
117.188 304.688 668
-179.688 250 706
-414.062 -359.375 2256
289.062 109.375 714
476.562 390.625 650
335.938 156.25 701
-343.75 23.4375 975
375 343.75 636
-312.5 46.875 825
492.188 218.75 678
164.062 -109.375 747
62.5 -257.812 798
93.75 304.688 671
304.688 101.562 704
148.438 -210.938 839
343.75 93.75 706
226.562 101.562 725
328.125 93.75 700
-414.062 -460.938 2170
-132.812 -101.562 698
390.625 343.75 635
-195.312 46.875 823
-468.75 46.875 817
-46.875 31.25 774
-406.25 -445.312 2212
-500 101.562 789
296.875 343.75 657
-39.0625 -117.188 686
-414.062 132.812 827
39.0625 -164.062 805
-414.062 -226.562 1302
187.5 312.5 659
-390.625 -78.125 923
312.5 -242.188 1028
-140.625 -203.125 889
312.5 328.125 642
492.188 164.062 708
312.5 101.562 703
0 289.062 683
312.5 54.6875 710
-78.125 -23.4375 742
-148.438 -132.812 691
-398.438 -132.812 973
-414.062 234.375 811
375 328.125 637
132.812 -109.375 749
148.438 312.5 664
109.375 -171.875 809
-382.812 -62.5 908
-359.375 125 778
398.438 335.938 634
-492.188 109.375 796
-31.25 -312.5 823
-210.938 -15.625 761
54.6875 -179.688 805
-390.625 195.312 811
-109.375 -117.188 690
289.062 414.062 730
101.562 -257.812 803
-125 -312.5 835
328.125 187.5 711
46.875 -234.375 813
148.438 320.312 667
320.312 421.875 730
210.938 109.375 728
