ply
format ascii 1.0
comment Created by Open3D
element vertex 2415
property double x
property double y
property double z
end_header
-109.375 257.812 635
-31.25 281.25 796
23.4375 -85.9375 956
-453.125 -257.812 785
-15.625 226.562 817
-15.625 93.75 878
390.625 -281.25 707
-460.938 -312.5 975
-140.625 328.125 655
-15.625 -46.875 891
-382.812 398.438 774
-7.8125 171.875 837
23.4375 -78.125 956
-312.5 257.812 649
382.812 -54.6875 908
-398.438 -289.062 943
-281.25 -15.625 759
-257.812 7.8125 747
-7.8125 164.062 843
-468.75 234.375 674
-23.4375 -31.25 889
-304.688 70.3125 696
-320.312 23.4375 679
-39.0625 234.375 815
367.188 -289.062 704
-39.0625 -78.125 867
-351.562 257.812 654
7.8125 39.0625 896
15.625 -15.625 923
-382.812 -375 995
-398.438 156.25 668
-468.75 -445.312 2835
7.8125 -46.875 938
187.5 -375 684
-476.562 351.562 792
-15.625 210.938 823
-429.688 414.062 1307
179.688 -226.562 803
-46.875 304.688 785
15.625 -23.4375 925
195.312 -125 887
31.25 -148.438 995
-296.875 265.625 646
-484.375 -312.5 849
-7.8125 -101.562 925
218.75 -101.562 903
-476.562 -218.75 794
187.5 -437.5 643
-187.5 273.438 634
-117.188 281.25 629
-492.188 -257.812 771
203.125 -117.188 898
-265.625 78.125 717
117.188 -117.188 967
-453.125 -187.5 780
-15.625 -109.375 906
-484.375 -328.125 847
-484.375 -437.5 2859
-335.938 226.562 664
-23.4375 101.562 873
-210.938 273.438 636
-234.375 273.438 638
46.875 437.5 728
-7.8125 46.875 896
-31.25 187.5 835
-156.25 304.688 625
-164.062 281.25 629
-328.125 257.812 653
-414.062 -375 2701
-476.562 250 670
-460.938 -171.875 697
335.938 -78.125 894
-15.625 -101.562 869
-445.312 -93.75 761
-421.875 242.188 666
-304.688 257.812 649
148.438 -101.562 954
-46.875 -46.875 750
-15.625 218.75 821
-343.75 7.8125 680
-453.125 234.375 672
-445.312 -242.188 794
-257.812 -46.875 773
-265.625 265.625 644
-39.0625 -101.562 869
-390.625 46.875 704
242.188 -85.9375 908
492.188 -148.438 940
-265.625 -31.25 766
-359.375 -195.312 869
-367.188 117.188 680
-429.688 -210.938 787
-7.8125 -109.375 928
-265.625 -7.8125 754
-351.562 -203.125 871
-351.562 -203.125 871
195.312 -265.625 761
31.25 -140.625 989
-296.875 39.0625 697
-429.688 343.75 794
-437.5 -23.4375 785
-304.688 93.75 682
-453.125 -195.312 815
-335.938 132.812 683
-476.562 398.438 796
-70.3125 343.75 717
-429.688 -375 2744
-398.438 242.188 664
-117.188 273.438 630
7.8125 46.875 894
187.5 -125 891
156.25 453.125 717
-445.312 -250 789
-23.4375 210.938 825
-15.625 -289.062 889
234.375 -101.562 891
-429.688 367.188 785
0 101.562 871
476.562 -171.875 794
78.125 445.312 723
390.625 -70.3125 891
-484.375 234.375 676
-398.438 171.875 668
-390.625 125 686
-351.562 117.188 680
-437.5 242.188 668
-328.125 15.625 678
445.312 164.062 717
-265.625 101.562 707
-257.812 328.125 697
-359.375 398.438 771
-445.312 234.375 671
484.375 -132.812 938
-398.438 250 662
-351.562 23.4375 678
273.438 -93.75 889
187.5 -132.812 887
-156.25 281.25 629
-312.5 23.4375 682
210.938 -109.375 896
-468.75 -281.25 783
-343.75 54.6875 687
93.75 445.312 722
-445.312 382.812 780
-429.688 242.188 668
-23.4375 -234.375 841
-31.25 -195.312 817
-500 351.562 794
-296.875 62.5 700
445.312 437.5 693
343.75 -15.625 889
-289.062 265.625 646
406.25 -265.625 717
-7.8125 -273.438 908
265.625 -93.75 891
492.188 -187.5 962
-132.812 351.562 690
187.5 -359.375 698
-453.125 -382.812 2744
7.8125 54.6875 889
-312.5 -23.4375 767
15.625 -85.9375 959
-39.0625 328.125 776
31.25 -156.25 1001
-445.312 242.188 668
-445.312 -257.812 783
-78.125 335.938 697
156.25 -187.5 841
351.562 -320.312 684
-15.625 234.375 813
0 0 915
-460.938 -210.938 807
-460.938 -406.25 2789
-15.625 -54.6875 901
-367.188 187.5 655
-328.125 31.25 676
23.4375 -132.812 984
-351.562 187.5 682
-367.188 -218.75 749
-242.188 31.25 720
203.125 445.312 711
-109.375 281.25 629
-250 265.625 642
-468.75 -421.875 2883
164.062 -257.812 783
-171.875 -421.875 2723
304.688 -78.125 901
0 7.8125 913
7.8125 -39.0625 938
390.625 -312.5 683
-429.688 -453.125 2812
-320.312 -437.5 2859
-7.8125 54.6875 894
-500 226.562 680
-39.0625 -85.9375 869
-31.25 179.688 837
304.688 -85.9375 891
-437.5 -375 2744
-437.5 -39.0625 792
132.812 445.312 717
-273.438 70.3125 720
-179.688 179.688 668
-195.312 140.625 684
-187.5 281.25 631
-367.188 250 659
-492.188 -78.125 725
484.375 -148.438 948
23.4375 -101.562 967
-445.312 406.25 1278
-453.125 -453.125 2789
-500 -429.688 778
-7.8125 -85.9375 918
46.875 445.312 728
296.875 -70.3125 925
-453.125 -46.875 800
-476.562 -304.688 862
23.4375 -85.9375 956
-468.75 -218.75 802
-273.438 265.625 643
-421.875 414.062 794
-429.688 390.625 780
15.625 -23.4375 925
-23.4375 -257.812 862
-421.875 343.75 794
-421.875 -375 2723
476.562 -109.375 928
-296.875 85.9375 686
-476.562 -46.875 803
-125 281.25 628
-460.938 -218.75 807
-328.125 -140.625 829
-492.188 -164.062 764
-289.062 101.562 680
-171.875 -140.625 805
-265.625 -15.625 757
-7.8125 171.875 837
-484.375 359.375 790
359.375 -382.812 642
367.188 -70.3125 896
234.375 453.125 708
62.5 351.562 759
-289.062 46.875 706
-62.5 343.75 720
-312.5 7.8125 684
-15.625 -226.562 923
0 78.125 882
-476.562 -140.625 707
-23.4375 281.25 796
257.812 343.75 746
-7.8125 125 862
70.3125 -445.312 2659
-23.4375 289.062 789
-15.625 148.438 854
23.4375 -78.125 956
-15.625 -296.875 885
-382.812 343.75 792
-492.188 -445.312 815
-15.625 125 862
-54.6875 -46.875 750
31.25 -171.875 1007
23.4375 -93.75 962
-351.562 250 657
-109.375 296.875 629
-335.938 117.188 684
-15.625 226.562 817
-7.8125 -328.125 903
-7.8125 226.562 817
-359.375 70.3125 686
-390.625 250 661
15.625 -93.75 964
250 -70.3125 930
195.312 -429.688 648
39.0625 -203.125 1028
242.188 -70.3125 930
-468.75 -429.688 2883
-7.8125 429.688 736
-359.375 250 658
-148.438 296.875 624
117.188 445.312 722
203.125 -429.688 644
-23.4375 -179.688 903
-54.6875 296.875 787
-179.688 273.438 634
-390.625 -289.062 943
-281.25 85.9375 688
39.0625 -195.312 1022
-343.75 257.812 654
-234.375 265.625 641
375 -265.625 723
23.4375 -125 981
-7.8125 -320.312 901
-460.938 -273.438 780
-23.4375 148.438 851
195.312 -125 887
-335.938 -398.438 2767
195.312 -250 776
-304.688 23.4375 684
468.75 -179.688 789
-492.188 15.625 773
-335.938 78.125 686
-375 242.188 663
-335.938 15.625 678
257.812 -85.9375 906
-445.312 -375 2744
-343.75 -382.812 2723
218.75 -109.375 894
179.688 -132.812 889
-406.25 242.188 666
-31.25 289.062 790
-15.625 -93.75 910
0 -398.438 2579
-312.5 273.438 646
-7.8125 179.688 837
195.312 -234.375 789
484.375 -125 933
-257.812 78.125 717
-148.438 281.25 628
101.562 289.062 781
-484.375 226.562 679
7.8125 -31.25 930
-242.188 265.625 641
39.0625 -218.75 1038
-375 179.688 655
-46.875 -93.75 771
-257.812 23.4375 722
-453.125 -257.812 785
31.25 -132.812 984
-453.125 -328.125 989
31.25 445.312 730
0 -304.688 925
-257.812 265.625 643
-7.8125 -257.812 948
-7.8125 171.875 837
-468.75 -289.062 783
-375 23.4375 686
23.4375 -62.5 946
-15.625 93.75 878
0 70.3125 887
195.312 -289.062 742
296.875 -78.125 901
-281.25 54.6875 711
492.188 -148.438 940
-234.375 414.062 754
-406.25 -281.25 767
7.8125 54.6875 889
15.625 -7.8125 918
-296.875 -335.938 959
-46.875 -85.9375 767
-460.938 -414.062 2835
-335.938 -46.875 781
-343.75 46.875 679
203.125 -117.188 898
-15.625 101.562 873
15.625 429.688 733
46.875 -234.375 1047
320.312 -109.375 862
-382.812 156.25 670
-187.5 273.438 634
-492.188 -296.875 731
0 109.375 869
-109.375 250 638
-351.562 62.5 687
54.6875 -93.75 959
-31.25 187.5 835
-46.875 304.688 785
-492.188 226.562 680
-484.375 -234.375 787
195.312 -203.125 817
7.8125 46.875 894
-15.625 -39.0625 891
335.938 -85.9375 882
-437.5 234.375 671
281.25 -54.6875 918
156.25 -109.375 959
195.312 -226.562 794
-7.8125 -164.062 943
-171.875 273.438 632
-7.8125 117.188 864
23.4375 -117.188 975
-492.188 -445.312 815
0 -312.5 967
-414.062 242.188 666
-429.688 406.25 781
-218.75 273.438 636
-31.25 -429.688 2680
-429.688 -375 2744
15.625 -390.625 2579
23.4375 -70.3125 951
-390.625 -226.562 738
343.75 -273.438 719
101.562 445.312 722
39.0625 -187.5 1019
289.062 -85.9375 894
320.312 187.5 803
-31.25 -187.5 815
-289.062 273.438 643
-421.875 -218.75 805
7.8125 -398.438 2579
-437.5 273.438 662
195.312 -210.938 809
-359.375 125 682
-304.688 -460.938 2835
-250 281.25 636
15.625 -78.125 956
-351.562 -382.812 2744
296.875 -406.25 637
31.25 -140.625 989
7.8125 62.5 887
-109.375 281.25 629
-359.375 382.812 774
-429.688 242.188 668
39.0625 -195.312 1022
-242.188 281.25 636
-31.25 195.312 833
-273.438 -390.625 2723
-156.25 281.25 629
-375 171.875 655
-312.5 257.812 649
-15.625 234.375 813
7.8125 15.625 908
-195.312 265.625 637
-437.5 -242.188 794
-46.875 296.875 789
-218.75 289.062 631
-23.4375 -54.6875 862
0 7.8125 913
-476.562 -226.562 792
375 -273.438 713
101.562 234.375 803
195.312 -351.562 700
-171.875 296.875 627
-23.4375 226.562 817
195.312 -343.75 706
304.688 453.125 703
-7.8125 -265.625 948
398.438 -281.25 706
-296.875 257.812 649
-468.75 390.625 783
-289.062 -7.8125 755
70.3125 445.312 723
335.938 7.8125 880
-500 390.625 789
-257.812 0 749
-15.625 109.375 869
-445.312 234.375 671
-265.625 -390.625 2723
85.9375 445.312 722
-109.375 265.625 632
-46.875 -39.0625 847
-437.5 382.812 780
-250 398.438 761
187.5 445.312 711
320.312 -78.125 896
195.312 -281.25 750
54.6875 445.312 727
-367.188 242.188 662
0 -7.8125 920
-15.625 242.188 811
-164.062 273.438 632
484.375 -140.625 946
-421.875 390.625 780
281.25 445.312 706
-226.562 265.625 641
195.312 -296.875 738
-500 359.375 792
-265.625 39.0625 713
-312.5 39.0625 683
-289.062 257.812 648
195.312 -273.438 757
-250 -46.875 771
398.438 179.688 764
-398.438 187.5 686
-218.75 265.625 640
-265.625 -39.0625 769
23.4375 -187.5 1019
-7.8125 187.5 835
-15.625 -273.438 908
-54.6875 -39.0625 749
-7.8125 -117.188 935
-453.125 -390.625 2744
312.5 445.312 704
15.625 0 915
-250 257.812 646
15.625 -7.8125 918
0 125 862
-375 -265.625 920
-250 15.625 722
195.312 -320.312 720
15.625 -15.625 923
-39.0625 -46.875 854
-476.562 -320.312 858
195.312 -179.688 837
15.625 -85.9375 959
-273.438 -382.812 975
0 -296.875 930
-453.125 -398.438 2789
-39.0625 250 805
195.312 -156.25 854
195.312 -171.875 843
-437.5 -234.375 800
195.312 -195.312 823
-273.438 265.625 643
15.625 -382.812 2560
-343.75 15.625 678
-437.5 -453.125 2812
476.562 -101.562 920
0 15.625 908
484.375 -156.25 951
-320.312 46.875 682
7.8125 -398.438 2579
-453.125 -304.688 970
-250 265.625 642
-296.875 0 719
-226.562 -437.5 2812
-445.312 -250 789
-15.625 -218.75 896
-23.4375 -234.375 841
-39.0625 257.812 803
31.25 -132.812 984
-382.812 242.188 663
-476.562 -304.688 862
23.4375 -62.5 946
195.312 -289.062 742
195.312 -218.75 798
109.375 445.312 722
23.4375 -70.3125 951
195.312 -250 776
-7.8125 -78.125 915
195.312 -304.688 733
-70.3125 -414.062 2639
-289.062 265.625 646
-23.4375 296.875 789
7.8125 31.25 903
62.5 -93.75 959
343.75 -54.6875 910
195.312 -398.438 667
195.312 -70.3125 935
7.8125 -31.25 930
-445.312 -242.188 794
-7.8125 -312.5 928
-15.625 -31.25 894
-7.8125 -406.25 2618
359.375 -62.5 915
31.25 -101.562 967
-46.875 320.312 778
476.562 437.5 688
-351.562 398.438 771
7.8125 54.6875 889
0 132.812 858
-210.938 273.438 636
54.6875 437.5 727
-46.875 312.5 781
-335.938 148.438 696
-343.75 109.375 680
406.25 234.375 755
-343.75 -187.5 860
-257.812 15.625 722
-343.75 117.188 682
-46.875 226.562 819
-437.5 -289.062 776
23.4375 -78.125 956
-23.4375 156.25 849
15.625 7.8125 910
-15.625 164.062 843
-351.562 250 657
-23.4375 312.5 781
-414.062 -375 2701
-398.438 242.188 664
-320.312 62.5 694
-7.8125 179.688 837
-351.562 101.562 679
195.312 -140.625 871
-382.812 250 661
-445.312 -187.5 776
382.812 -31.25 896
23.4375 -117.188 975
-15.625 101.562 873
-273.438 -31.25 766
-351.562 70.3125 686
195.312 -234.375 789
-23.4375 304.688 787
-429.688 -195.312 714
-31.25 -406.25 2618
-23.4375 218.75 821
-7.8125 62.5 889
-453.125 375 783
-398.438 -281.25 764
-351.562 -210.938 878
-500 242.188 675
-289.062 0 750
-23.4375 -406.25 2618
242.188 -101.562 891
-500 -437.5 781
195.312 -328.125 717
23.4375 -54.6875 943
-171.875 375 764
429.688 -406.25 620
-468.75 -171.875 697
-54.6875 421.875 739
-187.5 -398.438 2680
7.8125 23.4375 906
195.312 -273.438 757
46.875 -226.562 1041
195.312 -226.562 794
-328.125 15.625 678
414.062 -85.9375 880
203.125 -375 682
-468.75 234.375 674
39.0625 453.125 730
-375 -257.812 915
7.8125 62.5 887
-375 125 686
-375 -273.438 925
31.25 -164.062 1001
-335.938 257.812 653
-468.75 -343.75 851
-46.875 -46.875 750
-296.875 70.3125 693
296.875 125 831
-328.125 148.438 696
-460.938 -226.562 805
39.0625 -187.5 1019
195.312 -382.812 678
-367.188 85.9375 680
0 -406.25 2598
-320.312 15.625 680
46.875 -234.375 1047
-46.875 421.875 739
-46.875 328.125 774
-500 -351.562 757
31.25 -93.75 962
7.8125 -23.4375 928
-328.125 257.812 653
-468.75 -460.938 2789
-429.688 234.375 671
195.312 -187.5 831
-7.8125 132.812 858
476.562 -93.75 918
-31.25 -234.375 841
-492.188 226.562 680
195.312 -289.062 742
-406.25 -375 2701
-492.188 -250 776
-468.75 -296.875 967
257.812 -93.75 896
195.312 -375 683
-476.562 -421.875 2859
23.4375 -125 981
-390.625 -250 750
195.312 -257.812 769
195.312 -164.062 849
195.312 -312.5 728
265.625 -70.3125 928
-437.5 234.375 671
-460.938 -218.75 807
46.875 -218.75 1038
-343.75 -156.25 843
-273.438 54.6875 711
-296.875 273.438 644
-445.312 234.375 671
-359.375 250 658
-453.125 390.625 783
-281.25 265.625 644
273.438 70.3125 858
-15.625 250 805
-234.375 265.625 641
195.312 -367.188 690
-390.625 257.812 658
-476.562 226.562 676
-195.312 414.062 752
-203.125 273.438 635
195.312 -359.375 694
140.625 437.5 719
375 210.938 785
-359.375 -171.875 854
-31.25 203.125 829
39.0625 437.5 728
-359.375 242.188 661
-429.688 -226.562 807
195.312 -148.438 864
-132.812 281.25 628
-492.188 -273.438 767
-375 93.75 680
-414.062 -203.125 725
-351.562 148.438 679
195.312 -242.188 781
-242.188 15.625 723
-23.4375 234.375 813
-257.812 -23.4375 761
31.25 -117.188 975
210.938 -109.375 896
195.312 -210.938 809
-335.938 -171.875 849
406.25 -23.4375 891
195.312 -265.625 761
-421.875 242.188 666
-390.625 -242.188 746
-210.938 15.625 738
-468.75 -328.125 854
203.125 460.938 713
343.75 -289.062 706
195.312 -203.125 817
-210.938 281.25 634
-421.875 234.375 670
39.0625 -179.688 1013
31.25 -125 981
-500 -203.125 754
-132.812 296.875 624
195.312 -218.75 798
-15.625 -85.9375 871
195.312 -390.625 672
-468.75 242.188 671
203.125 -421.875 648
492.188 -164.062 951
70.3125 437.5 723
7.8125 -390.625 2560
-7.8125 -70.3125 913
-23.4375 359.375 762
-500 -304.688 730
328.125 -85.9375 882
39.0625 -203.125 1028
-460.938 -273.438 780
39.0625 -171.875 1007
-179.688 273.438 634
-453.125 -226.562 807
195.312 -195.312 823
-289.062 -390.625 2723
406.25 437.5 700
195.312 -226.562 794
-460.938 -281.25 785
-468.75 367.188 787
-453.125 -265.625 780
-15.625 109.375 869
-148.438 281.25 628
31.25 -171.875 1007
-273.438 273.438 641
-476.562 -312.5 864
-343.75 31.25 676
-15.625 -265.625 873
0 125 862
195.312 -171.875 843
-31.25 429.688 736
195.312 -335.938 710
31.25 -156.25 1001
-390.625 242.188 663
0 140.625 854
-273.438 140.625 693
359.375 -281.25 711
15.625 46.875 891
164.062 -296.875 752
195.312 -234.375 789
-7.8125 140.625 854
-54.6875 -406.25 2618
93.75 242.188 802
-500 -171.875 733
171.875 453.125 714
281.25 -93.75 889
-7.8125 -320.312 901
-421.875 -195.312 719
-273.438 -382.812 975
-460.938 367.188 785
-390.625 62.5 703
-414.062 257.812 661
195.312 -296.875 738
-62.5 343.75 720
195.312 -273.438 757
-296.875 257.812 649
164.062 453.125 716
15.625 -70.3125 951
-31.25 304.688 783
-304.688 250 652
-476.562 -171.875 757
-429.688 -296.875 959
-23.4375 304.688 787
-273.438 265.625 643
-39.0625 265.625 802
-476.562 -437.5 2859
125 445.312 719
-406.25 -62.5 802
-484.375 -62.5 813
0 -289.062 938
117.188 453.125 720
218.75 -109.375 894
23.4375 -62.5 946
-242.188 257.812 644
390.625 -273.438 711
15.625 -375 2560
-7.8125 -109.375 928
195.312 -281.25 750
23.4375 -109.375 973
195.312 -187.5 831
-343.75 250 657
-398.438 148.438 670
-289.062 109.375 679
492.188 -140.625 938
-23.4375 164.062 845
-125 281.25 628
156.25 460.938 717
-429.688 -289.062 951
-421.875 -226.562 805
453.125 226.562 769
-54.6875 -31.25 746
23.4375 -54.6875 943
-304.688 101.562 680
-359.375 -382.812 2744
-296.875 0 719
-382.812 335.938 796
195.312 -179.688 837
-390.625 132.812 683
289.062 445.312 704
-15.625 257.812 803
429.688 445.312 693
-265.625 -23.4375 761
7.8125 70.3125 885
-437.5 328.125 761
453.125 437.5 691
-335.938 265.625 649
195.312 -250 776
-375 117.188 682
-140.625 281.25 628
-468.75 -226.562 800
-234.375 281.25 635
0 39.0625 898
195.312 -406.25 661
-7.8125 -257.812 948
31.25 -117.188 975
-406.25 242.188 666
-406.25 140.625 670
289.062 -39.0625 908
-164.062 375 762
-359.375 93.75 680
335.938 445.312 701
-117.188 281.25 629
250 -101.562 891
195.312 -101.562 918
-296.875 39.0625 697
-7.8125 -242.188 903
335.938 -273.438 722
-39.0625 328.125 776
195.312 -257.812 769
-7.8125 -250 956
-15.625 -406.25 2598
31.25 62.5 885
171.875 -296.875 747
-15.625 -93.75 910
195.312 -320.312 720
-273.438 109.375 679
0 -296.875 930
-296.875 93.75 682
-195.312 289.062 631
-164.062 273.438 632
-23.4375 -23.4375 887
-15.625 -54.6875 901
-492.188 -171.875 764
-445.312 359.375 787
117.188 156.25 835
-210.938 273.438 636
195.312 -140.625 871
195.312 -164.062 849
-31.25 195.312 833
-242.188 265.625 641
-398.438 -23.4375 780
-335.938 195.312 679
234.375 460.938 710
164.062 -242.188 802
-500 320.312 809
-226.562 265.625 641
-414.062 367.188 785
-46.875 -78.125 766
0 -398.438 2579
-351.562 390.625 773
31.25 -109.375 970
-359.375 -210.938 878
-7.8125 -304.688 925
39.0625 -179.688 1013
23.4375 -46.875 938
-484.375 -320.312 849
-164.062 265.625 635
273.438 -54.6875 918
-39.0625 -78.125 867
-7.8125 62.5 889
-429.688 -460.938 2789
195.312 -414.062 657
-23.4375 242.188 811
421.875 -85.9375 882
-289.062 78.125 690
-7.8125 -312.5 928
-484.375 226.562 679
-375 -250 910
-484.375 382.812 785
-476.562 359.375 789
-476.562 382.812 785
179.688 -289.062 749
-421.875 250 664
195.312 -328.125 717
-203.125 382.812 764
-242.188 359.375 774
351.562 -265.625 723
-453.125 398.438 783
187.5 -242.188 789
-406.25 367.188 785
0 132.812 858
335.938 -281.25 713
359.375 -289.062 707
-23.4375 -15.625 843
31.25 -312.5 2415
156.25 -78.125 940
195.312 -132.812 878
-367.188 -39.0625 781
437.5 453.125 690
195.312 -343.75 706
0 62.5 889
195.312 -289.062 742
-468.75 -429.688 2883
-281.25 257.812 646
-210.938 382.812 764
-7.8125 187.5 835
-31.25 -109.375 871
-468.75 -335.938 854
-15.625 -23.4375 887
-281.25 54.6875 711
-187.5 -23.4375 750
23.4375 -343.75 2485
-93.75 359.375 694
-382.812 -242.188 747
-460.938 398.438 783
-484.375 -445.312 2835
164.062 -46.875 923
-500 -226.562 752
203.125 -187.5 825
195.312 -265.625 761
78.125 453.125 725
-375 257.812 655
367.188 -265.625 723
-15.625 250 805
-117.188 343.75 676
23.4375 453.125 733
492.188 -156.25 946
140.625 445.312 717
-31.25 -250 845
-265.625 265.625 644
-500 375 792
-460.938 234.375 675
484.375 -125 930
39.0625 -156.25 995
-500 -453.125 789
-195.312 273.438 635
273.438 445.312 704
39.0625 -171.875 1004
-320.312 54.6875 694
210.938 453.125 708
-46.875 -54.6875 747
-382.812 39.0625 708
85.9375 296.875 776
-375 46.875 708
7.8125 -23.4375 925
46.875 -226.562 1041
-445.312 -265.625 787
0 -343.75 915
-484.375 -453.125 2812
-31.25 -171.875 803
-23.4375 312.5 781
-398.438 367.188 785
-414.062 242.188 668
195.312 -171.875 849
-46.875 -31.25 739
-39.0625 273.438 798
195.312 -218.75 807
195.312 -148.438 873
234.375 -93.75 913
-257.812 70.3125 720
-351.562 39.0625 684
328.125 -54.6875 908
-289.062 359.375 780
-31.25 -445.312 2701
0 15.625 867
351.562 453.125 698
203.125 453.125 711
-15.625 187.5 835
-437.5 234.375 672
195.312 -195.312 831
7.8125 -15.625 923
-46.875 328.125 776
195.312 -242.188 789
359.375 -265.625 725
-7.8125 -265.625 860
-218.75 273.438 636
23.4375 -39.0625 933
226.562 117.188 839
484.375 -117.188 925
-328.125 359.375 781
-218.75 265.625 640
-468.75 226.562 678
273.438 -85.9375 906
468.75 -125 837
-335.938 -23.4375 691
-164.062 -148.438 809
195.312 -382.812 683
-156.25 -125 794
-70.3125 39.0625 714
234.375 -62.5 925
0 23.4375 906
-484.375 -398.438 839
460.938 -93.75 873
15.625 23.4375 901
265.625 -85.9375 906
-257.812 156.25 686
312.5 -54.6875 913
382.812 -273.438 714
-453.125 -281.25 778
210.938 -62.5 925
-500 -382.812 759
-492.188 226.562 680
-398.438 320.312 803
-492.188 -382.812 759
351.562 -273.438 720
-335.938 250 657
31.25 -101.562 967
195.312 -117.188 908
210.938 -117.188 898
-320.312 -23.4375 769
-15.625 -101.562 873
15.625 -406.25 2598
-101.562 304.688 644
187.5 -195.312 833
62.5 -117.188 970
187.5 -296.875 749
-15.625 -273.438 860
-93.75 210.938 650
-46.875 -70.3125 757
-31.25 -195.312 815
304.688 -62.5 918
406.25 226.562 755
195.312 -375 688
210.938 -101.562 920
-250 -46.875 773
0 85.9375 878
-250 125 697
195.312 -203.125 821
-85.9375 312.5 667
343.75 351.562 733
-359.375 343.75 792
-289.062 257.812 649
-93.75 195.312 654
-406.25 414.062 1359
23.4375 46.875 889
-367.188 117.188 690
-242.188 406.25 761
39.0625 -195.312 1022
-445.312 -179.688 708
-351.562 -398.438 2789
195.312 -367.188 697
-359.375 31.25 710
54.6875 -257.812 1060
85.9375 171.875 829
359.375 335.938 736
-101.562 39.0625 714
195.312 -109.375 915
-421.875 -296.875 780
406.25 -85.9375 880
195.312 -437.5 644
-335.938 109.375 686
-453.125 234.375 674
320.312 -85.9375 885
7.8125 85.9375 878
78.125 171.875 829
-281.25 85.9375 686
375 -289.062 706
-367.188 250 661
312.5 -85.9375 889
46.875 -85.9375 956
-445.312 -250 798
296.875 132.812 827
-398.438 242.188 666
-7.8125 203.125 827
195.312 -335.938 716
195.312 -187.5 837
195.312 -398.438 674
296.875 -85.9375 896
-367.188 140.625 671
-429.688 234.375 672
-23.4375 156.25 847
-257.812 265.625 644
195.312 -304.688 741
0 -476.562 2744
-328.125 164.062 687
0 140.625 854
351.562 -85.9375 882
-359.375 140.625 667
-460.938 -453.125 2835
-468.75 -296.875 860
-468.75 -242.188 792
-7.8125 39.0625 898
226.562 -109.375 901
15.625 -31.25 928
195.312 -429.688 653
164.062 -210.938 829
-484.375 -171.875 767
0 31.25 903
195.312 -421.875 657
-492.188 -265.625 771
-476.562 -171.875 766
-328.125 156.25 693
-429.688 242.188 670
-445.312 -257.812 792
31.25 -109.375 970
-500 343.75 800
-445.312 -101.562 761
-382.812 109.375 691
-203.125 265.625 638
-468.75 -320.312 854
234.375 -78.125 933
23.4375 -31.25 925
-7.8125 -437.5 2659
-445.312 -195.312 819
-203.125 273.438 636
-476.562 -257.812 780
-460.938 -289.062 778
-367.188 46.875 708
179.688 -234.375 805
-414.062 335.938 800
-437.5 359.375 790
-109.375 289.062 625
296.875 -93.75 887
-265.625 164.062 684
7.8125 46.875 894
-250 93.75 710
-273.438 257.812 647
468.75 171.875 714
-421.875 -210.938 790
195.312 445.312 711
-15.625 125 862
-23.4375 257.812 805
382.812 -289.062 703
195.312 -296.875 747
-148.438 273.438 631
46.875 -218.75 1034
-140.625 273.438 630
-453.125 -289.062 778
195.312 -156.25 864
-281.25 273.438 643
-7.8125 -296.875 882
-351.562 31.25 684
132.812 445.312 720
7.8125 -328.125 951
-328.125 -23.4375 698
-328.125 70.3125 687
-320.312 257.812 653
476.562 -101.562 918
-78.125 109.375 686
-15.625 257.812 803
343.75 -85.9375 882
-273.438 23.4375 714
-210.938 265.625 640
-156.25 23.4375 727
-382.812 382.812 780
-468.75 -304.688 864
-23.4375 320.312 778
-453.125 -210.938 813
-7.8125 -117.188 903
-492.188 320.312 809
-265.625 257.812 647
-375 382.812 780
39.0625 -171.875 1004
-359.375 250 659
-62.5 335.938 714
-406.25 234.375 668
-476.562 226.562 679
-476.562 -335.938 841
195.312 -390.625 678
289.062 -93.75 891
23.4375 -109.375 970
-312.5 15.625 680
-492.188 109.375 733
-46.875 -62.5 755
-468.75 -171.875 764
-7.8125 78.125 880
23.4375 -101.562 967
54.6875 -265.625 1067
-500 234.375 679
-343.75 101.562 682
-85.9375 320.312 676
15.625 31.25 898
31.25 -101.562 967
-31.25 -187.5 813
-289.062 62.5 698
-492.188 -171.875 733
15.625 -54.6875 943
-328.125 7.8125 680
-421.875 234.375 671
-132.812 289.062 627
-234.375 257.812 644
-382.812 -273.438 755
-304.688 273.438 647
-437.5 -242.188 802
-328.125 250 655
-367.188 132.812 686
-476.562 -312.5 851
-492.188 351.562 798
-312.5 39.0625 686
-476.562 -234.375 790
-31.25 210.938 823
-343.75 242.188 661
-484.375 -445.312 2859
-15.625 -257.812 851
-265.625 -23.4375 762
-429.688 359.375 790
-445.312 -343.75 1004
46.875 -210.938 1028
-445.312 375 787
-429.688 -242.188 803
0 93.75 873
445.312 164.062 714
-7.8125 195.312 829
-382.812 242.188 664
39.0625 -148.438 992
31.25 -148.438 992
-429.688 -234.375 811
203.125 -125 894
-375 242.188 664
-226.562 257.812 644
-234.375 265.625 641
-359.375 257.812 657
125 -296.875 1067
-492.188 382.812 1185
-500 -453.125 789
-250 85.9375 714
-23.4375 164.062 845
39.0625 -187.5 1016
7.8125 -7.8125 918
117.188 445.312 722
-328.125 132.812 701
-15.625 265.625 800
406.25 -281.25 706
-39.0625 265.625 800
-179.688 289.062 631
-7.8125 -109.375 903
-15.625 -78.125 864
-39.0625 281.25 796
-195.312 281.25 632
15.625 -62.5 946
109.375 445.312 722
-218.75 31.25 733
15.625 -78.125 954
-39.0625 328.125 774
351.562 445.312 700
-460.938 -289.062 778
-421.875 367.188 787
0 -335.938 915
-460.938 226.562 678
0 -289.062 873
15.625 23.4375 901
-148.438 265.625 631
-304.688 78.125 696
0 -281.25 871
-468.75 226.562 678
-429.688 382.812 789
-367.188 265.625 654
-492.188 -187.5 769
148.438 257.812 787
-132.812 273.438 630
-218.75 39.0625 728
-390.625 234.375 666
-54.6875 -23.4375 734
-296.875 429.688 1404
-187.5 273.438 635
492.188 39.0625 841
-7.8125 -62.5 885
-15.625 203.125 827
0 148.438 849
-156.25 273.438 632
-351.562 265.625 652
304.688 460.938 698
-492.188 375 792
273.438 -93.75 898
-351.562 -187.5 862
-445.312 -312.5 975
-343.75 156.25 661
-39.0625 -23.4375 839
-7.8125 -234.375 843
242.188 -93.75 910
23.4375 -398.438 2579
195.312 -414.062 662
-382.812 375 781
0 -406.25 2639
460.938 179.688 714
7.8125 93.75 873
-164.062 351.562 774
179.688 460.938 704
-304.688 39.0625 687
-390.625 242.188 664
39.0625 -156.25 995
-265.625 -15.625 755
0 429.688 734
-265.625 62.5 725
-445.312 -398.438 2767
-15.625 -250 849
0 39.0625 898
-203.125 281.25 634
-312.5 250 654
132.812 257.812 789
-437.5 -101.562 762
265.625 -93.75 901
-273.438 -15.625 757
-7.8125 203.125 827
234.375 -101.562 908
-484.375 -328.125 835
-281.25 250 650
54.6875 -250 1054
351.562 39.0625 862
78.125 -93.75 956
-31.25 421.875 739
-414.062 -203.125 722
23.4375 -46.875 935
492.188 -132.812 928
-398.438 257.812 661
-85.9375 156.25 668
-343.75 398.438 774
-257.812 257.812 646
31.25 -140.625 989
-453.125 250 668
187.5 -390.625 679
54.6875 -296.875 1084
-23.4375 312.5 781
-7.8125 70.3125 885
31.25 -93.75 959
-437.5 -250 798
-250 265.625 642
-382.812 -289.062 943
46.875 -203.125 1025
-250 7.8125 727
-476.562 242.188 675
-226.562 265.625 641
-492.188 226.562 680
-414.062 234.375 671
-109.375 -437.5 2723
-351.562 -226.562 889
-421.875 -226.562 817
-492.188 -296.875 752
-15.625 125 862
-445.312 234.375 672
15.625 39.0625 896
-460.938 -328.125 851
78.125 437.5 725
0 140.625 854
-281.25 257.812 647
-375 398.438 780
0 -101.562 923
-7.8125 156.25 845
375 -281.25 711
-398.438 -296.875 956
-460.938 250 670
-351.562 242.188 661
-39.0625 -62.5 761
0 31.25 903
-7.8125 23.4375 858
351.562 -281.25 713
-445.312 -226.562 811
351.562 0 880
-445.312 226.562 675
-296.875 39.0625 691
-335.938 132.812 682
367.188 -289.062 704
-273.438 -23.4375 762
-7.8125 -242.188 847
-7.8125 -54.6875 887
-7.8125 -289.062 873
0 -273.438 860
-351.562 93.75 682
-351.562 117.188 686
-281.25 78.125 686
-281.25 78.125 686
-453.125 226.562 678
7.8125 -320.312 951
-351.562 101.562 682
-390.625 414.062 1392
-351.562 70.3125 686
-468.75 -140.625 708
-78.125 320.312 686
-343.75 265.625 650
109.375 437.5 722
210.938 -398.438 667
7.8125 85.9375 878
-7.8125 210.938 823
-437.5 -320.312 984
351.562 -54.6875 908
-328.125 23.4375 680
210.938 -117.188 898
375 -85.9375 882
-320.312 85.9375 688
-492.188 234.375 679
23.4375 -31.25 925
-335.938 343.75 790
0 78.125 880
-242.188 -46.875 769
46.875 -101.562 962
195.312 -179.688 843
-453.125 -273.438 783
-359.375 289.062 687
-7.8125 148.438 851
-484.375 351.562 796
-367.188 351.562 789
-15.625 117.188 864
31.25 -85.9375 956
46.875 -210.938 1028
210.938 -406.25 663
148.438 -210.938 1019
-70.3125 421.875 741
-359.375 -234.375 746
-335.938 382.812 773
-46.875 359.375 762
15.625 31.25 898
-453.125 -226.562 807
-23.4375 250 805
-70.3125 328.125 696
-242.188 31.25 714
-398.438 250 664
-445.312 -335.938 995
-218.75 265.625 640
-343.75 46.875 697
195.312 -132.812 887
0 156.25 845
7.8125 0 915
226.562 -140.625 864
-281.25 -7.8125 755
-289.062 54.6875 704
-15.625 -15.625 860
-437.5 -187.5 780
0 101.562 871
23.4375 -101.562 967
179.688 -296.875 752
-359.375 46.875 708
-453.125 351.562 794
-187.5 265.625 637
-445.312 -210.938 817
-265.625 31.25 717
-179.688 273.438 634
-304.688 257.812 650
-398.438 414.062 1381
-382.812 70.3125 698
-195.312 265.625 638
-210.938 265.625 640
31.25 -78.125 951
-367.188 257.812 658
-140.625 273.438 630
0 -109.375 923
-320.312 15.625 680
-468.75 -437.5 2835
-70.3125 54.6875 704
-476.562 -242.188 787
-250 0 749
-101.562 296.875 643
359.375 -85.9375 882
-445.312 -257.812 792
-31.25 312.5 781
-242.188 265.625 641
39.0625 -179.688 1010
195.312 -312.5 734
54.6875 -242.188 1054
15.625 -46.875 938
-484.375 226.562 680
382.812 -281.25 710
-15.625 273.438 796
-23.4375 171.875 841
-265.625 257.812 647
-31.25 -140.625 789
23.4375 -93.75 962
-375 117.188 688
-15.625 265.625 800
-328.125 101.562 686
492.188 -101.562 910
-273.438 257.812 647
-492.188 -328.125 759
-492.188 218.75 684
7.8125 93.75 873
-257.812 39.0625 714
39.0625 -164.062 1001
-359.375 250 659
-343.75 39.0625 682
-203.125 265.625 638
-367.188 171.875 659
-23.4375 320.312 778
-429.688 234.375 672
304.688 109.375 837
375 -289.062 706
-289.062 0 720
-7.8125 85.9375 878
7.8125 78.125 880
195.312 -164.062 854
23.4375 -54.6875 940
351.562 -273.438 720
-398.438 242.188 666
484.375 -109.375 920
-343.75 109.375 683
-484.375 -281.25 766
-492.188 390.625 1185
23.4375 -39.0625 933
382.812 445.312 697
203.125 -54.6875 920
-429.688 -203.125 783
148.438 445.312 717
437.5 445.312 690
-273.438 62.5 727
109.375 234.375 802
-453.125 -218.75 809
-500 -218.75 762
-296.875 62.5 700
101.562 437.5 722
62.5 -281.25 1080
-132.812 375 762
304.688 445.312 703
23.4375 -15.625 923
-31.25 250 805
-476.562 -171.875 766
-500 -445.312 789
-93.75 218.75 646
-265.625 109.375 686
-132.812 273.438 630
234.375 -109.375 894
7.8125 -15.625 923
242.188 312.5 755
15.625 0 915
-500 -312.5 734
187.5 -70.3125 930
-429.688 -187.5 714
-320.312 250 655
-429.688 -234.375 811
-7.8125 78.125 880
-7.8125 164.062 843
-351.562 250 658
453.125 445.312 687
0 -93.75 906
-484.375 -171.875 767
-289.062 78.125 690
-31.25 226.562 817
-437.5 398.438 1283
7.8125 -7.8125 918
-15.625 -54.6875 860
492.188 -140.625 933
-93.75 203.125 650
-125 289.062 627
-109.375 281.25 625
-15.625 -367.188 925
39.0625 -140.625 987
218.75 289.062 767
-351.562 -7.8125 691
-351.562 -250 906
-460.938 -429.688 2883
-468.75 359.375 792
-445.312 -390.625 2789
70.3125 -93.75 956
453.125 164.062 713
195.312 -210.938 817
-367.188 93.75 686
-171.875 273.438 634
-382.812 148.438 674
-484.375 -250 781
-421.875 234.375 671
195.312 -437.5 644
-62.5 421.875 741
-304.688 15.625 683
15.625 39.0625 896
-281.25 -15.625 759
-437.5 -250 798
-257.812 70.3125 720
398.438 195.312 762
250 445.312 707
-296.875 -7.8125 687
-460.938 -445.312 2835
0 39.0625 898
39.0625 -156.25 995
-359.375 335.938 796
-289.062 335.938 789
-367.188 78.125 687
46.875 -203.125 1025
0 109.375 867
7.8125 -320.312 951
39.0625 445.312 731
-359.375 382.812 778
31.25 -85.9375 956
-31.25 -203.125 819
-382.812 -250 747
-39.0625 -54.6875 762
39.0625 -148.438 992
46.875 -226.562 1041
0 148.438 849
-406.25 234.375 668
-23.4375 179.688 835
-320.312 70.3125 690
164.062 257.812 787
0 -117.188 925
320.312 -54.6875 913
406.25 -281.25 706
39.0625 -171.875 1004
-101.562 289.062 628
203.125 -117.188 903
460.938 437.5 690
-234.375 265.625 641
390.625 445.312 696
281.25 -85.9375 903
7.8125 70.3125 882
-257.812 -39.0625 767
0 -328.125 898
-15.625 -70.3125 862
312.5 -78.125 898
-125 367.188 766
15.625 -429.688 2659
492.188 -132.812 928
-445.312 -445.312 2859
-85.9375 164.062 666
226.562 -109.375 901
15.625 15.625 906
7.8125 62.5 887
-39.0625 -132.812 783
390.625 -85.9375 882
164.062 445.312 716
171.875 -234.375 805
-15.625 125 862
-7.8125 -281.25 871
-78.125 117.188 682
-375 242.188 664
-375 -289.062 943
-7.8125 -304.688 882
31.25 -101.562 967
-289.062 31.25 701
-31.25 265.625 800
-398.438 234.375 667
-445.312 -265.625 787
-273.438 125 698
414.062 445.312 693
-445.312 -203.125 819
-7.8125 218.75 819
-328.125 125 687
-39.0625 -70.3125 757
203.125 -218.75 805
-328.125 46.875 697
492.188 -218.75 750
-460.938 382.812 789
31.25 -132.812 981
476.562 -132.812 823
39.0625 -132.812 981
0 164.062 843
23.4375 -23.4375 925
23.4375 -31.25 925
187.5 -78.125 935
-343.75 140.625 680
31.25 -78.125 951
-250 78.125 716
-218.75 265.625 640
-250 -54.6875 774
-445.312 398.438 1259
-312.5 15.625 680
-125 265.625 630
-39.0625 289.062 790
-328.125 250 655
-421.875 335.938 800
-484.375 -78.125 738
7.8125 109.375 864
242.188 -78.125 930
-15.625 -242.188 847
31.25 -93.75 959
-375 39.0625 708
-320.312 125 703
-15.625 109.375 869
-382.812 210.938 675
351.562 -429.688 619
-15.625 132.812 856
-375 -242.188 744
-93.75 195.312 654
-398.438 156.25 668
-484.375 -70.3125 738
7.8125 54.6875 889
-31.25 328.125 776
-257.812 125 698
203.125 -281.25 755
203.125 328.125 754
195.312 -140.625 880
-492.188 -453.125 2835
-304.688 -31.25 769
-367.188 101.562 686
15.625 7.8125 908
156.25 -210.938 1016
328.125 445.312 701
-148.438 296.875 627
-375 234.375 666
-296.875 257.812 650
-500 -460.938 2767
-125 273.438 629
-7.8125 210.938 823
7.8125 0 915
7.8125 -304.688 951
23.4375 -85.9375 956
-390.625 242.188 664
31.25 -70.3125 948
-15.625 203.125 827
257.812 -101.562 889
-437.5 234.375 672
117.188 -78.125 943
-453.125 -421.875 2883
296.875 460.938 704
-343.75 203.125 675
-492.188 343.75 800
320.312 -78.125 896
-281.25 -7.8125 755
210.938 -101.562 920
203.125 -226.562 798
-468.75 -250 792
-31.25 -78.125 864
-460.938 -296.875 778
195.312 -296.875 747
-421.875 406.25 1317
406.25 -273.438 713
-445.312 -460.938 2789
-445.312 -406.25 2767
359.375 -273.438 719
0 -101.562 923
-31.25 296.875 789
382.812 -289.062 703
-453.125 226.562 678
-500 -281.25 738
-203.125 257.812 641
-476.562 226.562 679
-484.375 -273.438 767
351.562 -15.625 887
39.0625 -164.062 1001
-39.0625 281.25 796
-31.25 210.938 823
-23.4375 265.625 802
-226.562 15.625 728
-15.625 140.625 854
93.75 437.5 723
203.125 -343.75 710
-46.875 351.562 767
203.125 -250 778
-257.812 265.625 644
-445.312 226.562 675
-453.125 -281.25 778
15.625 46.875 891
398.438 -273.438 713
0 46.875 896
-7.8125 226.562 817
46.875 -195.312 1019
-164.062 -140.625 803
46.875 -179.688 1010
39.0625 -140.625 987
203.125 -132.812 885
54.6875 -242.188 1054
-414.062 234.375 671
-476.562 -328.125 843
-15.625 273.438 796
203.125 -320.312 723
-257.812 257.812 646
203.125 453.125 711
-476.562 -367.188 839
-132.812 265.625 631
-320.312 -390.625 2744
382.812 -78.125 887
46.875 -210.938 1028
-468.75 -312.5 860
-15.625 -62.5 862
187.5 -296.875 749
203.125 -289.062 749
-31.25 218.75 821
-15.625 281.25 792
-476.562 234.375 678
62.5 -289.062 1084
23.4375 -398.438 2579
335.938 -39.0625 901
-101.562 320.312 658
203.125 -273.438 761
-312.5 250 654
203.125 -382.812 680
-31.25 234.375 813
-156.25 359.375 771
203.125 -203.125 819
-320.312 132.812 701
203.125 -265.625 766
250 -93.75 908
0 132.812 856
-320.312 7.8125 682
-7.8125 -101.562 885
-46.875 -54.6875 747
-414.062 -31.25 789
-492.188 -296.875 752
54.6875 -234.375 1044
-500 218.75 686
-273.438 -234.375 878
15.625 -39.0625 935
476.562 171.875 713
-453.125 -304.688 973
0 -85.9375 908
-500 -265.625 746
-476.562 -445.312 2859
0 164.062 843
-304.688 250 653
0 -476.562 2744
-195.312 359.375 773
-304.688 39.0625 687
-250 257.812 646
-179.688 281.25 631
-343.75 15.625 682
-187.5 398.438 755
-78.125 320.312 686
-484.375 -453.125 2812
-421.875 -218.75 796
-500 -179.688 739
203.125 -210.938 813
203.125 -304.688 736
-7.8125 -46.875 894
312.5 460.938 697
-367.188 -273.438 925
-179.688 382.812 762
203.125 -257.812 773
-382.812 39.0625 708
7.8125 101.562 869
-445.312 -273.438 785
203.125 -398.438 670
-398.438 312.5 739
-273.438 0 752
-117.188 273.438 628
203.125 -234.375 790
39.0625 -156.25 995
343.75 -281.25 713
-39.0625 320.312 776
46.875 -187.5 1013
187.5 -343.75 713
39.0625 -171.875 1004
39.0625 437.5 730
31.25 -125 981
-421.875 -203.125 783
-437.5 -312.5 975
-445.312 -453.125 2789
-453.125 -93.75 773
-500 -187.5 757
-23.4375 187.5 833
31.25 -62.5 940
-460.938 328.125 807
382.812 -85.9375 882
-429.688 390.625 789
39.0625 -179.688 1010
-335.938 429.688 1410
273.438 -210.938 785
203.125 -390.625 676
39.0625 -164.062 1001
195.312 -234.375 796
-31.25 -31.25 843
-398.438 -203.125 722
-85.9375 312.5 667
-492.188 218.75 684
-429.688 234.375 672
-421.875 328.125 803
-187.5 265.625 637
335.938 -62.5 913
203.125 -281.25 755
46.875 -195.312 1019
0 -125 923
203.125 -195.312 823
203.125 -250 778
-445.312 -210.938 817
15.625 -54.6875 943
390.625 -289.062 703
203.125 -312.5 730
0 -320.312 889
15.625 54.6875 887
-359.375 140.625 667
23.4375 -78.125 954
203.125 -179.688 839
-7.8125 -273.438 860
-234.375 23.4375 722
23.4375 429.688 733
-218.75 257.812 642
492.188 -125 925
203.125 -289.062 749
-398.438 -210.938 728
46.875 437.5 730
-273.438 -398.438 2723
-359.375 242.188 662
-195.312 265.625 638
492.188 -109.375 915
296.875 -289.062 719
-242.188 265.625 641
-242.188 -54.6875 774
62.5 -125 973
453.125 164.062 713
23.4375 0 913
203.125 -296.875 739
-437.5 375 785
-476.562 351.562 796
289.062 460.938 706
203.125 -359.375 697
203.125 -265.625 766
0 54.6875 889
-343.75 375 778
-101.562 250 637
390.625 -78.125 887
203.125 -218.75 805
-132.812 281.25 628
-492.188 -164.062 713
-414.062 -421.875 2859
46.875 -218.75 1034
-367.188 242.188 663
-101.562 359.375 767
-406.25 250 664
-257.812 15.625 725
-23.4375 273.438 796
203.125 -242.188 785
-351.562 390.625 774
-492.188 -304.688 731
-117.188 265.625 630
484.375 -117.188 925
117.188 148.438 837
7.8125 109.375 864
-460.938 -304.688 864
-476.562 -250 783
-156.25 273.438 632
-460.938 -429.688 2883
-437.5 -296.875 964
117.188 437.5 722
-484.375 -257.812 778
0 117.188 862
226.562 -101.562 910
226.562 -242.188 774
39.0625 -132.812 981
-359.375 -117.188 803
-468.75 -234.375 794
85.9375 273.438 789
-437.5 -250 798
54.6875 -429.688 2659
23.4375 -15.625 923
-46.875 -437.5 2701
203.125 -187.5 833
70.3125 -390.625 2560
-328.125 7.8125 680
-406.25 -210.938 723
-39.0625 -46.875 747
-500 -257.812 746
15.625 -437.5 2680
-234.375 7.8125 727
203.125 -406.25 664
-46.875 -46.875 747
203.125 -437.5 643
-132.812 273.438 630
203.125 -273.438 761
-304.688 15.625 683
210.938 -390.625 672
203.125 -164.062 854
0 -78.125 869
-203.125 265.625 638
-429.688 -242.188 803
-406.25 406.25 781
-343.75 250 658
203.125 -234.375 790
-7.8125 85.9375 878
-15.625 281.25 792
15.625 46.875 891
203.125 -351.562 701
-320.312 250 655
-15.625 140.625 854
-304.688 265.625 648
140.625 445.312 719
-351.562 -234.375 896
156.25 445.312 717
-351.562 242.188 661
265.625 445.312 706
-242.188 257.812 644
273.438 -101.562 889
203.125 -281.25 755
468.75 445.312 683
203.125 -226.562 798
203.125 -257.812 773
210.938 -226.562 798
203.125 -210.938 813
-476.562 -320.312 845
148.438 39.0625 880
39.0625 -125 978
-359.375 132.812 679
312.5 -93.75 885
203.125 -296.875 739
-375 -242.188 744
-320.312 242.188 657
203.125 -156.25 862
31.25 -78.125 951
-437.5 226.562 675
-484.375 218.75 684
-156.25 289.062 627
-7.8125 164.062 843
-257.812 31.25 717
-367.188 -265.625 755
-320.312 23.4375 680
125 437.5 720
-242.188 273.438 640
-23.4375 -132.812 789
46.875 -171.875 1004
203.125 -171.875 849
-125 273.438 629
-78.125 414.062 744
-421.875 359.375 790
-406.25 234.375 668
-367.188 -257.812 746
-367.188 -195.312 741
304.688 -93.75 887
-398.438 234.375 667
-203.125 7.8125 741
-367.188 15.625 688
-453.125 226.562 678
-382.812 242.188 664
-335.938 -195.312 867
-406.25 -382.812 2767
-250 359.375 774
-70.3125 414.062 742
7.8125 117.188 862
-343.75 -218.75 885
-179.688 265.625 636
203.125 -242.188 785
-445.312 226.562 675
-257.812 250 648
0 -125 923
-453.125 -289.062 778
-250 70.3125 720
-70.3125 328.125 696
-218.75 265.625 640
-437.5 -257.812 792
-437.5 -226.562 813
0 -257.812 906
-257.812 273.438 641
203.125 -375 684
421.875 437.5 694
54.6875 -226.562 1038
203.125 -203.125 819
-289.062 54.6875 704
-382.812 -296.875 948
203.125 -250 778
265.625 -101.562 889
-281.25 257.812 647
-265.625 257.812 647
-484.375 234.375 679
203.125 -414.062 659
203.125 -289.062 749
-31.25 242.188 811
-23.4375 179.688 835
-218.75 15.625 736
164.062 460.938 701
-15.625 210.938 823
-414.062 281.25 687
7.8125 15.625 908
-7.8125 -39.0625 891
46.875 -179.688 1010
-39.0625 296.875 789
-39.0625 289.062 790
46.875 -187.5 1013
23.4375 7.8125 908
257.812 101.562 843
-445.312 382.812 785
-445.312 312.5 813
-7.8125 234.375 811
203.125 -148.438 871
-304.688 31.25 684
203.125 -179.688 839
203.125 -265.625 766
0 171.875 837
-367.188 -187.5 773
-15.625 148.438 851
-414.062 -234.375 813
-7.8125 101.562 871
-500 -250 750
7.8125 125 860
203.125 -140.625 875
-500 343.75 800
203.125 -234.375 790
-296.875 250 652
132.812 437.5 720
250 -140.625 858
-429.688 -250 800
0 -312.5 885
-281.25 70.3125 690
15.625 39.0625 896
203.125 -218.75 805
-335.938 46.875 696
-132.812 -406.25 2639
-335.938 257.812 654
-335.938 250 657
398.438 445.312 696
70.3125 429.688 728
343.75 -78.125 891
-328.125 101.562 686
218.75 -125 885
39.0625 -429.688 2659
39.0625 -101.562 964
-367.188 234.375 664
203.125 -312.5 730
-367.188 343.75 794
226.562 132.812 833
-328.125 -140.625 829
203.125 -328.125 717
23.4375 -7.8125 918
203.125 -335.938 713
31.25 -70.3125 948
-375 148.438 676
406.25 445.312 694
203.125 445.312 711
-7.8125 93.75 875
140.625 257.812 789
101.562 445.312 723
-7.8125 226.562 817
39.0625 -132.812 981
-468.75 218.75 682
-265.625 39.0625 716
-429.688 226.562 675
0 156.25 845
-31.25 226.562 817
-109.375 265.625 630
15.625 -31.25 928
-468.75 -226.562 800
-148.438 289.062 627
203.125 -367.188 690
375 -265.625 723
-289.062 265.625 646
273.438 -85.9375 906
187.5 265.625 781
15.625 54.6875 887
-289.062 -7.8125 687
-312.5 46.875 693
62.5 -273.438 1073
-328.125 -390.625 2767
-406.25 -296.875 776
7.8125 -296.875 951
-429.688 -273.438 780
62.5 -257.812 1060
0 179.688 835
-39.0625 -39.0625 746
-156.25 281.25 628
210.938 -421.875 650
203.125 -210.938 813
484.375 -101.562 915
-265.625 54.6875 722
-320.312 117.188 691
-7.8125 -93.75 882
-218.75 273.438 636
-398.438 281.25 678
0 -273.438 860
-421.875 -234.375 813
-171.875 265.625 636
-453.125 -179.688 711
-476.562 375 794
-359.375 85.9375 684
-320.312 85.9375 688
-460.938 359.375 792
-250 257.812 646
-414.062 -382.812 2767
156.25 -93.75 943
7.8125 7.8125 910
7.8125 109.375 864
23.4375 -23.4375 925
0 54.6875 889
-421.875 -382.812 2767
-281.25 -7.8125 755
-476.562 -265.625 774
-7.8125 -31.25 882
-312.5 0 684
-468.75 390.625 1214
-468.75 382.812 790
-500 382.812 1161
367.188 109.375 831
-382.812 234.375 666
-453.125 242.188 671
109.375 -453.125 2659
-414.062 -226.562 817
-23.4375 289.062 789
203.125 -164.062 854
-304.688 250 653
203.125 -281.25 755
203.125 -343.75 710
-7.8125 171.875 839
39.0625 -109.375 967
210.938 -125 894
-484.375 -281.25 766
203.125 -320.312 723
-15.625 289.062 790
-250 -7.8125 752
203.125 -195.312 823
-453.125 -226.562 807
398.438 218.75 759
-437.5 -382.812 2767
78.125 429.688 728
31.25 -54.6875 938
46.875 -179.688 1010
421.875 445.312 693
-484.375 343.75 800
-367.188 -281.25 933
-31.25 250 805
-320.312 140.625 698
203.125 -171.875 849
-453.125 -429.688 2883
-460.938 312.5 811
-195.312 367.188 769
46.875 -203.125 1025
-343.75 54.6875 691
476.562 -109.375 923
203.125 -296.875 739
-265.625 -39.0625 769
-140.625 289.062 627
23.4375 15.625 906
-492.188 -312.5 734
-125 -125 789
398.438 -281.25 707
-343.75 242.188 661
54.6875 437.5 728
23.4375 -476.562 2744
23.4375 -70.3125 948
-445.312 -179.688 708
23.4375 0 913
242.188 -109.375 891
-335.938 39.0625 682
-85.9375 -476.562 2789
203.125 -203.125 819
351.562 -281.25 713
-7.8125 179.688 837
-273.438 46.875 716
-15.625 218.75 821
0 125 860
-78.125 -476.562 2767
-500 218.75 686
7.8125 93.75 873
93.75 -117.188 967
-351.562 179.688 658
203.125 -359.375 697
203.125 -109.375 913
164.062 -93.75 943
-460.938 -93.75 773
195.312 -148.438 873
-492.188 -203.125 766
468.75 -93.75 915
171.875 -210.938 829
203.125 -226.562 798
15.625 23.4375 901
210.938 -148.438 864
171.875 445.312 716
-375 242.188 664
54.6875 -125 973
203.125 -304.688 736
-273.438 257.812 647
-445.312 -210.938 817
367.188 -273.438 717
-414.062 -203.125 722
-265.625 -23.4375 762
15.625 62.5 887
15.625 -23.4375 925
-320.312 7.8125 682
-117.188 273.438 628
203.125 -140.625 875
-312.5 54.6875 696
132.812 445.312 720
39.0625 -117.188 973
-453.125 312.5 813
203.125 -148.438 871
203.125 -179.688 839
46.875 -164.062 1001
-234.375 257.812 644
-500 -460.938 2767
-31.25 -85.9375 869
203.125 -382.812 680
31.25 -62.5 940
-500 -109.375 691
-367.188 179.688 659
-109.375 273.438 628
46.875 453.125 736
7.8125 117.188 862
54.6875 -218.75 1034
-398.438 125 672
-39.0625 -78.125 761
335.938 -85.9375 885
-492.188 -234.375 764
-476.562 390.625 1206
-359.375 171.875 658
250 -367.188 676
-281.25 351.562 783
382.812 -265.625 723
203.125 -242.188 785
-421.875 234.375 671
476.562 -85.9375 910
54.6875 117.188 856
-7.8125 234.375 811
31.25 -46.875 935
203.125 -257.812 773
-31.25 234.375 813
140.625 -85.9375 943
-460.938 -460.938 2812
-429.688 -382.812 2767
203.125 -234.375 790
-226.562 265.625 641
-257.812 54.6875 719
0 62.5 887
203.125 -390.625 676
-460.938 -296.875 778
54.6875 -210.938 1028
203.125 -187.5 833
-429.688 398.438 1297
-351.562 242.188 661
195.312 -125 894
-203.125 335.938 734
-281.25 335.938 789
7.8125 125 860
-429.688 304.688 766
492.188 -125 925
-500 -367.188 759
-320.312 132.812 701
203.125 -125 894
-164.062 281.25 630
242.188 343.75 746
-390.625 125 682
203.125 -218.75 805
0 -250 906
273.438 -210.938 785
-429.688 -218.75 821
62.5 437.5 728
-445.312 351.562 794
23.4375 7.8125 908
-445.312 304.688 776
-460.938 226.562 678
-335.938 7.8125 682
-390.625 234.375 666
0 -125 923
-468.75 296.875 771
-375 39.0625 708
390.625 -289.062 703
-335.938 70.3125 686
156.25 -242.188 1038
-179.688 -414.062 2701
-85.9375 171.875 664
-93.75 0 728
203.125 -398.438 670
-15.625 -429.688 2659
-273.438 -23.4375 762
203.125 -375 684
0 171.875 837
-218.75 265.625 640
414.062 -31.25 889
-460.938 -304.688 864
0 -343.75 915
-484.375 -195.312 769
-179.688 359.375 773
-15.625 281.25 792
-31.25 242.188 811
0 -70.3125 901
-390.625 -218.75 733
-468.75 -445.312 2859
-156.25 265.625 635
164.062 -234.375 805
-500 367.188 792
445.312 171.875 714
-281.25 -15.625 759
-328.125 250 655
203.125 -210.938 813
-281.25 117.188 703
-468.75 226.562 678
-15.625 -46.875 856
-164.062 265.625 635
-460.938 -437.5 2835
203.125 -406.25 664
-500 -359.375 759
-343.75 109.375 683
132.812 46.875 880
7.8125 132.812 854
-484.375 -453.125 2812
54.6875 -101.562 959
-257.812 -7.8125 755
-15.625 148.438 851
359.375 -273.438 719
234.375 -109.375 894
367.188 -85.9375 880
-429.688 -226.562 815
203.125 -429.688 649
-62.5 328.125 719
-210.938 -414.062 2723
203.125 -414.062 659
-500 -289.062 736
-257.812 257.812 646
382.812 398.438 713
-492.188 -390.625 761
-406.25 -382.812 2767
-46.875 -39.0625 746
39.0625 -109.375 967
-132.812 273.438 630
164.062 -148.438 975
-39.0625 304.688 783
-468.75 -320.312 854
273.438 -210.938 785
-414.062 -382.812 2767
-70.3125 -460.938 2744
-429.688 -257.812 792
-46.875 -62.5 755
-476.562 218.75 682
46.875 -171.875 1004
484.375 -109.375 920
-492.188 -179.688 771
-140.625 273.438 630
-453.125 296.875 717
-359.375 70.3125 687
359.375 -78.125 891
109.375 304.688 771
0 179.688 835
-250 -445.312 2835
195.312 -171.875 849
-218.75 296.875 640
203.125 -421.875 653
-250 398.438 762
15.625 -46.875 938
359.375 -296.875 701
-335.938 101.562 684
-460.938 -234.375 800
-476.562 304.688 771
210.938 -117.188 898
-445.312 367.188 789
-23.4375 -343.75 910
-7.8125 -265.625 860
