ply
format ascii 1.0
comment Created by Open3D
element vertex 2354
property double x
property double y
property double z
end_header
93.75 -179.688 906
375 218.75 869
171.875 -257.812 1031
375 -7.8125 891
460.938 218.75 862
-320.312 -359.375 3037
62.5 -343.75 1041
335.938 218.75 885
93.75 -242.188 875
93.75 -187.5 901
156.25 -234.375 970
23.4375 -257.812 882
-390.625 85.9375 956
85.9375 -78.125 959
-476.562 -328.125 2365
117.188 -281.25 1087
421.875 226.562 898
-132.812 -187.5 1464
-343.75 -429.688 2984
390.625 210.938 869
54.6875 -62.5 962
93.75 -78.125 956
-226.562 -93.75 981
-484.375 -398.438 2241
-171.875 -226.562 3300
-414.062 -398.438 2541
93.75 -218.75 887
-7.8125 -257.812 885
39.0625 437.5 1470
0 -335.938 1044
54.6875 -265.625 891
-289.062 93.75 930
-54.6875 -70.3125 981
-476.562 -367.188 2301
320.312 7.8125 845
93.75 -195.312 896
-406.25 -320.312 2381
15.625 -273.438 903
218.75 -250 1054
-312.5 -226.562 3238
-226.562 70.3125 954
-500 -437.5 2226
-203.125 62.5 878
-367.188 140.625 981
125 -289.062 1025
-414.062 -390.625 2541
23.4375 -390.625 1047
0 -148.438 923
-23.4375 -390.625 1080
-328.125 -468.75 2908
-164.062 406.25 1173
93.75 -234.375 878
-453.125 -312.5 2349
-398.438 -156.25 1108
484.375 101.562 794
242.188 -210.938 946
-210.938 101.562 896
242.188 -195.312 948
-328.125 -359.375 3010
382.812 93.75 805
-320.312 -351.562 3037
203.125 -218.75 948
179.688 -218.75 954
-62.5 -179.688 910
375 78.125 807
-187.5 78.125 882
-421.875 -31.25 1087
-421.875 -85.9375 1022
-421.875 -85.9375 1022
-226.562 62.5 954
-7.8125 -218.75 889
460.938 125 807
-429.688 -109.375 1050
218.75 359.375 1445
367.188 -78.125 885
15.625 -320.312 1041
414.062 93.75 800
242.188 359.375 1427
-328.125 -179.688 1145
304.688 -62.5 898
328.125 296.875 871
-171.875 -62.5 975
39.0625 -398.438 1044
-382.812 -335.938 2560
117.188 -312.5 1077
-414.062 -335.938 2398
46.875 -93.75 948
-328.125 -453.125 2908
-367.188 -335.938 2659
46.875 359.375 1579
93.75 -132.812 928
398.438 -54.6875 913
390.625 -242.188 1250
54.6875 -242.188 878
-179.688 -46.875 946
78.125 -54.6875 951
132.812 -242.188 1013
39.0625 -265.625 894
164.062 203.125 901
468.75 218.75 862
-343.75 -445.312 2908
-375 -23.4375 925
-492.188 -367.188 2286
93.75 -210.938 891
-304.688 -101.562 1149
437.5 226.562 898
-289.062 -101.562 1153
-242.188 -78.125 967
-414.062 -46.875 946
492.188 218.75 856
-492.188 -382.812 2271
70.3125 -156.25 918
54.6875 -109.375 943
70.3125 -7.8125 901
-343.75 -406.25 2859
7.8125 -164.062 915
31.25 -273.438 901
-335.938 -23.4375 938
-320.312 -296.875 3120
-429.688 -117.188 1063
-445.312 -281.25 2415
187.5 429.688 1333
375 210.938 871
195.312 367.188 1452
93.75 -226.562 882
-359.375 109.375 948
-421.875 -125 1063
414.062 312.5 864
93.75 -312.5 1054
93.75 -242.188 875
15.625 -171.875 910
85.9375 -195.312 898
359.375 210.938 873
359.375 210.938 873
-390.625 -250 3468
367.188 210.938 871
476.562 -179.688 2908
-195.312 296.875 1028
414.062 -242.188 1236
93.75 -257.812 880
210.938 242.188 894
93.75 -203.125 896
-203.125 0 908
-265.625 7.8125 998
62.5 -273.438 896
31.25 -296.875 1041
171.875 -234.375 1016
132.812 -250 1013
156.25 -296.875 1016
-242.188 109.375 951
-390.625 -15.625 992
62.5 -304.688 1041
-7.8125 -343.75 1047
-39.0625 -328.125 1063
-421.875 -437.5 2432
-54.6875 -62.5 970
-359.375 78.125 948
406.25 78.125 805
414.062 85.9375 802
-421.875 -445.312 2415
-312.5 -281.25 3149
484.375 -179.688 2908
218.75 281.25 875
-132.812 46.875 867
359.375 -85.9375 885
171.875 -242.188 1016
-328.125 -367.188 3010
304.688 7.8125 847
179.688 -210.938 954
101.562 281.25 894
-179.688 -226.562 3333
-62.5 -195.312 908
-320.312 -343.75 3037
-218.75 -226.562 3333
93.75 -195.312 896
257.812 70.3125 821
-62.5 -164.062 920
39.0625 -85.9375 956
-367.188 85.9375 951
-351.562 85.9375 946
148.438 -289.062 1016
234.375 -218.75 946
-187.5 -101.562 1307
-382.812 -39.0625 928
414.062 78.125 805
-406.25 -78.125 959
-406.25 15.625 1067
93.75 -218.75 887
171.875 367.188 1433
93.75 -234.375 878
375 296.875 860
-7.8125 -296.875 1047
-351.562 -398.438 2767
85.9375 -328.125 1050
-7.8125 -210.938 891
-312.5 -234.375 3178
382.812 85.9375 805
453.125 85.9375 798
-164.062 -226.562 3300
-406.25 23.4375 1115
-367.188 -15.625 992
-390.625 -335.938 2485
273.438 218.75 889
-15.625 335.938 1632
93.75 -101.562 946
-343.75 -460.938 2908
382.812 210.938 871
-257.812 -195.312 1483
7.8125 -187.5 903
117.188 -320.312 1073
375 -148.438 1080
-7.8125 367.188 1572
-195.312 -15.625 925
289.062 -15.625 845
85.9375 -187.5 903
226.562 367.188 1433
23.4375 -62.5 962
-375 62.5 967
46.875 -62.5 962
23.4375 62.5 845
351.562 -85.9375 887
-484.375 -429.688 2226
-320.312 -367.188 3010
492.188 -62.5 951
343.75 -62.5 896
-421.875 -140.625 1090
257.812 398.438 1381
406.25 -242.188 1236
257.812 414.062 1359
62.5 -335.938 1041
250 218.75 915
156.25 -226.562 962
484.375 218.75 858
195.312 429.688 1354
320.312 218.75 910
109.375 -273.438 887
93.75 -62.5 959
7.8125 -351.562 1041
109.375 -351.562 1080
-492.188 -406.25 2184
468.75 -125 1038
421.875 218.75 867
-15.625 -265.625 894
-257.812 -46.875 956
46.875 -218.75 887
476.562 210.938 858
-46.875 390.625 1536
117.188 -328.125 1073
273.438 164.062 860
265.625 375 1392
-62.5 -171.875 918
-304.688 85.9375 928
203.125 289.062 882
312.5 -85.9375 946
-421.875 -78.125 998
382.812 78.125 805
-210.938 273.438 1013
-390.625 93.75 935
78.125 -367.188 1054
-218.75 46.875 875
-335.938 54.6875 925
390.625 93.75 803
390.625 93.75 803
93.75 -226.562 882
-7.8125 -148.438 923
-156.25 -226.562 3333
250 367.188 1421
-382.812 117.188 954
-429.688 -453.125 2415
445.312 210.938 860
-226.562 -85.9375 975
93.75 -250 875
-210.938 234.375 925
93.75 -289.062 1060
-437.5 320.312 1141
-359.375 -382.812 2723
460.938 210.938 860
335.938 39.0625 845
-367.188 -382.812 2701
-375 335.938 1322
484.375 210.938 854
273.438 109.375 829
125 -312.5 1025
-421.875 -117.188 1054
-242.188 -15.625 951
335.938 296.875 869
-382.812 109.375 946
-101.562 -132.812 1067
-328.125 -429.688 2933
437.5 93.75 796
-484.375 -453.125 2212
-414.062 0 1063
328.125 -250 1264
-375 132.812 989
-234.375 101.562 948
-500 -414.062 2226
31.25 -398.438 1044
445.312 437.5 1004
375 265.625 867
-429.688 -109.375 1067
-320.312 -289.062 3149
-265.625 109.375 935
-320.312 109.375 928
-320.312 -304.688 3120
93.75 -187.5 901
-218.75 62.5 875
-281.25 -164.062 1138
-359.375 93.75 946
320.312 -31.25 875
406.25 210.938 864
-54.6875 -296.875 1073
-328.125 -437.5 2933
62.5 210.938 920
-367.188 78.125 948
335.938 -23.4375 867
-210.938 -226.562 3365
-7.8125 -140.625 928
-320.312 -398.438 2933
429.688 85.9375 798
54.6875 -335.938 1038
-335.938 -304.688 3120
70.3125 203.125 928
210.938 359.375 1452
-367.188 414.062 1477
-406.25 -70.3125 956
-382.812 367.188 1288
304.688 -85.9375 984
-406.25 328.125 1333
-367.188 70.3125 951
-281.25 -93.75 1138
-234.375 367.188 1292
-171.875 -226.562 3300
187.5 273.438 878
-390.625 -39.0625 925
-382.812 359.375 1288
203.125 70.3125 823
-226.562 -226.562 3365
492.188 101.562 787
-23.4375 -320.312 1047
-250 0 948
0 382.812 1557
164.062 -273.438 1019
-140.625 -226.562 3269
429.688 210.938 862
492.188 210.938 854
-39.0625 -78.125 962
171.875 375 1433
-304.688 117.188 930
-382.812 62.5 962
-265.625 398.438 1273
414.062 210.938 867
-468.75 312.5 1138
93.75 -218.75 887
-289.062 -39.0625 946
-78.125 398.438 1245
-15.625 -218.75 889
437.5 -203.125 1169
367.188 250 878
382.812 0 882
-23.4375 -328.125 1047
70.3125 -125 933
304.688 367.188 1529
367.188 -242.188 1250
375 -242.188 1245
421.875 93.75 800
-296.875 -171.875 1145
-468.75 234.375 1057
-382.812 0 1004
-296.875 93.75 928
179.688 421.875 1354
93.75 -242.188 873
-132.812 -164.062 1123
-484.375 -406.25 2271
398.438 93.75 802
-468.75 335.938 1292
-343.75 343.75 1302
203.125 296.875 882
-101.562 257.812 918
54.6875 421.875 1489
-375 140.625 981
-335.938 125 964
-312.5 109.375 928
-375 320.312 1119
-484.375 382.812 1317
-367.188 140.625 981
-257.812 -7.8125 938
-156.25 437.5 1210
-335.938 -15.625 928
437.5 78.125 802
-281.25 -23.4375 938
15.625 -367.188 1044
15.625 -367.188 1044
171.875 273.438 880
-312.5 359.375 1307
406.25 85.9375 802
-468.75 296.875 1134
-125 257.812 923
453.125 414.062 995
-39.0625 398.438 1523
39.0625 398.438 1523
23.4375 -273.438 898
382.812 -23.4375 878
187.5 -218.75 951
429.688 -218.75 1206
234.375 -195.312 943
-23.4375 375 1564
250 351.562 1445
-390.625 85.9375 935
-359.375 85.9375 946
93.75 -210.938 891
367.188 -23.4375 873
171.875 -304.688 1016
-15.625 375 1564
273.438 343.75 1579
-23.4375 375 1564
-484.375 -421.875 2226
-257.812 -132.812 1073
453.125 210.938 860
-343.75 -351.562 3037
156.25 398.438 1381
-476.562 -359.375 2301
-421.875 -460.938 2415
-7.8125 -382.812 1060
23.4375 359.375 1579
-429.688 -101.562 1050
335.938 -93.75 896
195.312 429.688 1349
-148.438 -187.5 1458
-437.5 -132.812 1077
-335.938 62.5 923
85.9375 -265.625 887
187.5 367.188 1445
-23.4375 -257.812 880
-148.438 -226.562 3300
-7.8125 -312.5 1041
-429.688 -437.5 2450
93.75 -117.188 935
-234.375 -226.562 3333
15.625 -257.812 878
0 -257.812 878
-15.625 -375 1054
343.75 -54.6875 880
156.25 -226.562 959
-328.125 109.375 928
-414.062 -375 2522
289.062 421.875 1421
-320.312 -414.062 2933
164.062 406.25 1354
453.125 -164.062 1094
312.5 406.25 1464
-414.062 -312.5 2365
-210.938 328.125 1067
-156.25 -187.5 1445
132.812 398.438 1458
109.375 -281.25 1080
257.812 398.438 1381
250 367.188 1421
164.062 -101.562 1004
15.625 343.75 1601
-171.875 367.188 1084
-273.438 -195.312 1477
179.688 421.875 1338
328.125 -62.5 889
234.375 429.688 1343
445.312 -195.312 1153
-54.6875 -304.688 1070
85.9375 406.25 1483
-132.812 -226.562 3269
-187.5 -226.562 3333
46.875 -359.375 1041
-164.062 -226.562 3333
-125 -226.562 3269
54.6875 -328.125 1038
-140.625 -226.562 3269
-335.938 -429.688 2933
23.4375 -320.312 1034
-23.4375 375 1550
312.5 -62.5 901
398.438 210.938 869
226.562 281.25 875
460.938 -148.438 1063
-54.6875 -312.5 1070
39.0625 -398.438 1044
-156.25 -226.562 3333
-421.875 -312.5 2365
-179.688 -226.562 3333
15.625 -62.5 959
281.25 312.5 1616
-265.625 -195.312 1483
-31.25 -343.75 1050
390.625 210.938 869
31.25 382.812 1543
132.812 -234.375 978
460.938 437.5 998
93.75 414.062 1398
-15.625 437.5 1464
492.188 78.125 792
-328.125 -445.312 2933
54.6875 359.375 1572
-31.25 -328.125 1050
343.75 -31.25 864
-296.875 359.375 1307
7.8125 359.375 1579
85.9375 -62.5 956
-359.375 140.625 978
31.25 -62.5 959
23.4375 -234.375 878
476.562 -109.375 1007
-257.812 -195.312 1477
117.188 -320.312 1010
7.8125 -257.812 878
-281.25 -195.312 1477
70.3125 -62.5 956
320.312 39.0625 843
-304.688 -23.4375 930
-85.9375 375 1452
54.6875 -296.875 1041
-328.125 -382.812 2958
-500 -406.25 2198
429.688 -226.562 1219
85.9375 -250 873
-54.6875 375 1557
-390.625 70.3125 956
101.562 445.312 1421
-7.8125 -257.812 878
289.062 429.688 1415
-7.8125 -226.562 885
156.25 -226.562 959
453.125 78.125 796
-195.312 296.875 1028
-335.938 -414.062 2883
-429.688 -148.438 1087
226.562 70.3125 821
62.5 -156.25 918
250 70.3125 819
398.438 78.125 802
-250 -195.312 1470
70.3125 -70.3125 962
-164.062 398.438 1161
164.062 -140.625 1007
187.5 -210.938 948
39.0625 -320.312 1038
226.562 -203.125 940
203.125 -218.75 943
218.75 -218.75 946
296.875 0 847
289.062 210.938 885
31.25 -85.9375 954
0 -62.5 962
-500 -343.75 2333
484.375 -179.688 2835
187.5 -195.312 954
54.6875 -335.938 1034
-421.875 -31.25 1073
-148.438 -187.5 1445
148.438 -85.9375 984
-406.25 -203.125 1503
-484.375 -328.125 2349
-31.25 -171.875 908
367.188 -7.8125 827
-234.375 -195.312 1470
140.625 -234.375 978
-156.25 437.5 1210
-195.312 375 1288
-242.188 -195.312 1477
-156.25 -101.562 1022
15.625 -273.438 894
-414.062 -203.125 1496
-242.188 390.625 1264
210.938 -218.75 943
234.375 359.375 1433
70.3125 -250 873
195.312 -218.75 948
-234.375 367.188 1292
70.3125 -328.125 1041
85.9375 -156.25 915
0 -382.812 1050
15.625 429.688 1470
226.562 -218.75 940
-210.938 46.875 871
437.5 -203.125 1165
-320.312 -320.312 3064
-15.625 -375 1054
62.5 -328.125 1038
390.625 218.75 869
179.688 421.875 1338
-257.812 -195.312 1477
0 -234.375 880
-265.625 -187.5 1470
39.0625 -351.562 1038
-375 117.188 943
445.312 93.75 794
453.125 -171.875 1105
242.188 367.188 1421
-250 367.188 1292
-7.8125 -62.5 962
195.312 429.688 1333
-15.625 367.188 1564
-15.625 359.375 1572
-273.438 -195.312 1477
-265.625 -195.312 1483
70.3125 -195.312 896
-343.75 343.75 1084
15.625 343.75 1601
-437.5 -359.375 2485
320.312 250 880
164.062 406.25 1354
62.5 -187.5 901
-179.688 406.25 1489
421.875 210.938 862
250 382.812 1410
-398.438 -31.25 925
101.562 398.438 1421
132.812 351.562 1489
-406.25 328.125 1333
62.5 -250 875
-31.25 359.375 1564
-273.438 -39.0625 948
62.5 359.375 1572
-7.8125 375 1557
-179.688 359.375 1084
312.5 70.3125 817
312.5 -39.0625 880
250 359.375 1427
78.125 -273.438 891
257.812 390.625 1392
-187.5 375 1288
-437.5 -320.312 2349
492.188 -70.3125 951
-234.375 390.625 1259
101.562 -156.25 915
39.0625 -78.125 959
-289.062 -234.375 3269
218.75 273.438 871
-273.438 -187.5 1126
-289.062 359.375 1307
-484.375 -312.5 2349
-15.625 -265.625 885
-296.875 382.812 1273
203.125 429.688 1338
171.875 414.062 1354
-46.875 -273.438 901
375 -93.75 885
-242.188 -195.312 1477
-320.312 351.562 1297
-273.438 367.188 1297
-382.812 359.375 1550
-218.75 351.562 1090
484.375 -85.9375 973
289.062 117.188 829
70.3125 -187.5 901
7.8125 -62.5 962
-93.75 382.812 1255
15.625 -250 875
-281.25 382.812 1273
187.5 -250 1054
-343.75 -390.625 2789
-335.938 -23.4375 933
39.0625 -250 875
46.875 -335.938 1034
-343.75 -429.688 2933
-476.562 -351.562 2286
-250 -195.312 1470
351.562 -15.625 867
-468.75 335.938 1317
70.3125 -171.875 908
85.9375 -78.125 956
-468.75 -109.375 1322
23.4375 -250 878
31.25 -250 875
210.938 -78.125 973
-312.5 375 1255
78.125 -250 873
-304.688 351.562 1108
335.938 -62.5 889
429.688 -234.375 1232
-31.25 -62.5 962
-484.375 -328.125 2349
-460.938 -328.125 2349
437.5 -210.938 1169
117.188 234.375 901
62.5 -398.438 1060
156.25 375 1398
-101.562 -195.312 1165
7.8125 375 1543
492.188 218.75 843
-15.625 445.312 1452
-257.812 390.625 1268
78.125 -171.875 910
23.4375 -156.25 918
46.875 -359.375 1041
-476.562 -328.125 2349
-312.5 -234.375 3238
15.625 -117.188 938
203.125 375 1433
-359.375 -195.312 1483
23.4375 -273.438 894
-234.375 -195.312 1470
242.188 70.3125 819
-320.312 -289.062 3149
-15.625 -195.312 898
-234.375 375 1292
-382.812 -398.438 2723
179.688 203.125 898
-7.8125 335.938 1609
-375 335.938 1322
85.9375 -218.75 885
-343.75 -195.312 1470
-359.375 343.75 1322
-39.0625 -195.312 901
-15.625 -62.5 962
179.688 359.375 1445
265.625 367.188 1415
406.25 234.375 889
54.6875 359.375 1572
46.875 -93.75 948
0 -210.938 889
234.375 429.688 1343
-164.062 -78.125 995
31.25 -117.188 938
437.5 210.938 860
234.375 -109.375 1016
78.125 -140.625 923
343.75 -93.75 887
-39.0625 -62.5 964
390.625 -54.6875 913
-23.4375 -62.5 959
-296.875 -234.375 3269
-54.6875 -359.375 1080
-132.812 375 1161
445.312 210.938 860
-265.625 359.375 1297
-398.438 359.375 1550
-226.562 367.188 1094
429.688 78.125 800
328.125 218.75 906
-15.625 375 1564
-335.938 -179.688 1138
7.8125 -273.438 894
-492.188 -328.125 2349
-312.5 359.375 1297
-445.312 -320.312 2349
460.938 210.938 860
-460.938 -335.938 2415
164.062 -234.375 964
7.8125 -359.375 1038
-296.875 78.125 923
460.938 78.125 796
-445.312 -218.75 2503
476.562 335.938 923
109.375 -273.438 885
31.25 390.625 1529
-453.125 -320.312 2349
406.25 218.75 869
-437.5 320.312 1134
-382.812 62.5 959
-351.562 -203.125 1477
7.8125 -414.062 1041
484.375 -93.75 978
54.6875 -250 871
-421.875 328.125 1328
210.938 93.75 827
-187.5 382.812 1283
281.25 -257.812 1016
109.375 62.5 829
62.5 -171.875 908
-203.125 375 1283
125 -312.5 1010
-23.4375 -328.125 1041
-7.8125 -343.75 1041
-265.625 382.812 1273
-125 -226.562 3238
-382.812 367.188 1292
-351.562 367.188 1283
203.125 -218.75 943
85.9375 429.688 1464
-328.125 -179.688 1138
140.625 -234.375 967
-46.875 -195.312 898
-406.25 328.125 1333
15.625 -234.375 878
-492.188 -312.5 2349
-234.375 -195.312 1470
164.062 -226.562 956
117.188 281.25 889
62.5 195.312 913
-218.75 398.438 1264
140.625 -273.438 1019
250 78.125 815
289.062 289.062 869
-54.6875 -351.562 1073
-484.375 -218.75 3539
-492.188 -218.75 3365
-328.125 343.75 1090
148.438 -125 1031
39.0625 -398.438 1041
-406.25 -203.125 1503
46.875 -250 871
-273.438 -234.375 3333
328.125 -70.3125 898
-281.25 -234.375 3333
70.3125 -265.625 878
-242.188 -195.312 1477
-328.125 -390.625 2958
-242.188 390.625 1264
-343.75 -101.562 1138
289.062 -46.875 903
-234.375 367.188 1297
367.188 -85.9375 878
-210.938 406.25 1255
-437.5 -218.75 2503
-304.688 -234.375 3269
-476.562 -289.062 2398
15.625 -273.438 891
-171.875 367.188 1084
312.5 -23.4375 873
-367.188 148.438 973
-398.438 -164.062 1108
-343.75 367.188 1288
-164.062 414.062 1181
-304.688 351.562 1108
445.312 -187.5 1138
320.312 -23.4375 869
-187.5 375 1283
-289.062 -234.375 3365
-265.625 343.75 1094
-257.812 -195.312 1470
-367.188 335.938 1112
171.875 203.125 896
171.875 414.062 1333
171.875 359.375 1433
-265.625 359.375 1297
226.562 429.688 1343
406.25 242.188 880
226.562 39.0625 845
-23.4375 -289.062 1050
289.062 218.75 906
117.188 273.438 885
46.875 -328.125 1031
-85.9375 406.25 1241
15.625 -62.5 959
7.8125 -234.375 878
-171.875 -226.562 3333
-140.625 -125 1054
343.75 -257.812 1250
-164.062 406.25 1165
7.8125 -250 875
218.75 351.562 1445
398.438 -54.6875 906
-15.625 -257.812 878
-296.875 375 1268
-304.688 359.375 1302
-335.938 -429.688 2958
468.75 210.938 858
54.6875 234.375 898
343.75 296.875 862
265.625 210.938 887
-312.5 375 1268
-289.062 390.625 1273
-406.25 -343.75 2485
-406.25 351.562 1297
-195.312 382.812 1278
70.3125 -101.562 940
-31.25 -23.4375 918
23.4375 -273.438 889
-398.438 -382.812 2618
117.188 -78.125 973
460.938 -148.438 1060
-328.125 109.375 925
7.8125 226.562 908
-312.5 -101.562 1145
46.875 -70.3125 959
-15.625 -367.188 1044
-312.5 -195.312 1477
-250 148.438 978
23.4375 -390.625 1041
-375 359.375 1288
476.562 -117.188 1016
-179.688 406.25 1250
-500 -171.875 1439
7.8125 -382.812 1044
-437.5 343.75 1292
-453.125 -218.75 3539
-78.125 -296.875 1097
148.438 -109.375 1010
312.5 210.938 880
-7.8125 54.6875 843
218.75 -218.75 940
-195.312 398.438 1245
85.9375 203.125 920
-414.062 375 1292
-281.25 359.375 1297
23.4375 -62.5 959
351.562 -257.812 1255
156.25 398.438 1370
132.812 437.5 1376
31.25 -273.438 889
54.6875 -195.312 894
39.0625 421.875 1477
203.125 429.688 1333
-484.375 -195.312 1483
7.8125 -320.312 1038
-7.8125 -210.938 889
265.625 78.125 813
-171.875 406.25 1165
156.25 -226.562 956
-351.562 -203.125 1477
-328.125 429.688 1464
281.25 70.3125 815
210.938 289.062 875
31.25 -234.375 878
468.75 -132.812 1038
-335.938 375 1283
31.25 -320.312 1034
148.438 210.938 918
296.875 31.25 849
273.438 210.938 887
-421.875 -304.688 2349
453.125 93.75 792
-484.375 -320.312 2349
164.062 289.062 885
-328.125 375 1268
-257.812 390.625 1268
-257.812 -39.0625 951
62.5 -218.75 882
-179.688 375 1134
-226.562 390.625 1259
-257.812 -234.375 3269
-375 320.312 1108
85.9375 62.5 833
203.125 -226.562 943
-234.375 -234.375 3333
156.25 -234.375 959
-265.625 -234.375 3269
-335.938 343.75 1090
-226.562 367.188 1090
-476.562 -203.125 1516
125 281.25 887
-265.625 -23.4375 938
476.562 -187.5 2908
328.125 -46.875 871
-406.25 -367.188 2522
164.062 406.25 1359
-31.25 187.5 920
-359.375 367.188 1288
-312.5 109.375 925
-265.625 -15.625 933
125 -320.312 1010
-250 -234.375 3333
-250 -70.3125 956
-500 -328.125 2349
-15.625 62.5 843
-289.062 54.6875 923
-242.188 -234.375 3333
390.625 -31.25 869
234.375 70.3125 819
140.625 -226.562 967
-304.688 335.938 1105
-15.625 -250 875
109.375 335.938 1609
-406.25 -54.6875 940
-468.75 -335.938 2381
-234.375 54.6875 946
39.0625 -273.438 891
-468.75 -218.75 3539
-31.25 -195.312 898
-414.062 -39.0625 925
-296.875 382.812 1273
398.438 296.875 854
-281.25 54.6875 928
0 -343.75 1038
437.5 85.9375 794
-414.062 -46.875 928
-226.562 375 1297
-390.625 31.25 1087
218.75 289.062 873
265.625 70.3125 815
-500 -218.75 3300
-15.625 -70.3125 964
-281.25 23.4375 948
421.875 78.125 800
-414.062 -343.75 2467
93.75 70.3125 831
-398.438 -218.75 2522
-382.812 -218.75 3503
-375 367.188 1288
218.75 359.375 1445
-468.75 296.875 1130
-335.938 328.125 1094
-234.375 -7.8125 948
476.562 210.938 856
46.875 437.5 1458
-398.438 328.125 1333
-273.438 382.812 1268
-460.938 -218.75 3539
210.938 -218.75 943
0 -265.625 882
429.688 210.938 860
289.062 -257.812 1268
0 -273.438 891
367.188 -62.5 887
234.375 273.438 869
-296.875 -234.375 3269
265.625 171.875 864
-320.312 382.812 1268
-468.75 -312.5 2349
0 -398.438 1050
-15.625 -226.562 882
-320.312 351.562 1307
164.062 -226.562 956
-359.375 -398.438 2744
-15.625 375 1564
-289.062 -46.875 940
-7.8125 -312.5 1041
-343.75 351.562 1312
-343.75 351.562 1312
359.375 -195.312 1149
-351.562 343.75 1317
148.438 -117.188 1022
93.75 445.312 1421
-15.625 54.6875 843
78.125 -187.5 898
164.062 -93.75 987
-312.5 -281.25 3178
-242.188 367.188 1297
15.625 -414.062 1038
39.0625 -62.5 954
210.938 429.688 1354
351.562 23.4375 835
-273.438 23.4375 948
179.688 421.875 1333
-226.562 -234.375 3333
-437.5 -140.625 1084
-257.812 109.375 933
421.875 242.188 878
-273.438 367.188 1302
-273.438 -234.375 3333
62.5 -93.75 946
453.125 -148.438 1063
62.5 359.375 1572
-351.562 -203.125 1477
-257.812 359.375 1101
234.375 -93.75 989
226.562 289.062 875
-421.875 -31.25 1067
382.812 218.75 869
-234.375 -195.312 1470
-15.625 195.312 935
-320.312 -179.688 1138
-453.125 -406.25 2365
-312.5 -179.688 1141
-218.75 351.562 1090
0 -195.312 896
-54.6875 -320.312 1063
-414.062 -23.4375 1063
328.125 46.875 835
-367.188 -218.75 3503
-195.312 398.438 1245
-39.0625 -195.312 898
-476.562 -218.75 3539
0 335.938 1616
-390.625 335.938 1328
101.562 -265.625 887
-382.812 62.5 959
320.312 23.4375 851
-468.75 234.375 1054
257.812 78.125 815
-312.5 -31.25 933
312.5 101.562 819
468.75 78.125 796
242.188 234.375 896
-312.5 382.812 1268
-203.125 375 1283
-289.062 -234.375 3365
-70.3125 335.938 1529
-429.688 -367.188 2522
-343.75 -179.688 1138
492.188 -179.688 2835
-7.8125 -62.5 959
-46.875 195.312 938
375 250 875
-351.562 -406.25 2789
296.875 -62.5 898
-296.875 351.562 1297
39.0625 -359.375 1038
23.4375 -234.375 878
31.25 351.562 1586
-273.438 -54.6875 946
-265.625 85.9375 933
-335.938 351.562 1312
39.0625 -265.625 887
-179.688 -101.562 1297
-31.25 406.25 1516
-39.0625 414.062 1503
-429.688 -148.438 1084
101.562 218.75 913
-343.75 367.188 1288
179.688 210.938 915
23.4375 -171.875 908
-476.562 -320.312 2349
-281.25 39.0625 930
-367.188 -171.875 1134
-367.188 93.75 943
-23.4375 -250 875
-210.938 398.438 1255
-304.688 375 1268
203.125 359.375 1452
226.562 273.438 869
257.812 70.3125 817
218.75 -101.562 1001
117.188 62.5 829
-375 -382.812 2659
31.25 -234.375 878
-70.3125 257.812 910
31.25 -265.625 887
-179.688 375 1134
-234.375 -234.375 3333
-335.938 -7.8125 920
-257.812 -234.375 3269
70.3125 -382.812 1057
-367.188 335.938 1112
-406.25 -351.562 2503
-460.938 -289.062 2398
-62.5 54.6875 851
-265.625 367.188 1302
0 62.5 841
-421.875 351.562 1302
-179.688 382.812 1112
62.5 -187.5 898
54.6875 -312.5 1038
-359.375 -7.8125 925
-218.75 367.188 1094
31.25 -273.438 889
-390.625 359.375 1292
-265.625 359.375 1297
109.375 -273.438 885
-281.25 -179.688 1130
-265.625 93.75 933
101.562 70.3125 829
-171.875 406.25 1165
179.688 -226.562 946
85.9375 70.3125 833
179.688 359.375 1439
-281.25 359.375 1297
164.062 -250 1013
46.875 273.438 894
-281.25 -234.375 3333
-429.688 320.312 1119
39.0625 -406.25 1041
375 -31.25 880
46.875 -195.312 894
-421.875 -289.062 2381
15.625 -234.375 878
-468.75 -320.312 2349
-242.188 -234.375 3333
148.438 -234.375 962
453.125 210.938 858
-437.5 343.75 1292
-406.25 351.562 1297
-375 -171.875 1119
15.625 -281.25 891
-109.375 179.688 938
367.188 -31.25 871
-375 -218.75 3503
-453.125 -343.75 2432
-351.562 -31.25 920
-398.438 -78.125 956
492.188 -78.125 959
335.938 -93.75 891
-210.938 -234.375 3333
70.3125 195.312 908
-406.25 -218.75 2522
54.6875 195.312 910
-250 117.188 940
265.625 335.938 1579
-226.562 -234.375 3333
-453.125 343.75 1297
-343.75 375 1283
70.3125 -187.5 898
85.9375 -335.938 1047
-359.375 23.4375 948
-164.062 -101.562 1010
-429.688 85.9375 1038
226.562 429.688 1343
-273.438 101.562 930
375 -46.875 887
234.375 210.938 915
-453.125 -343.75 2432
85.9375 -203.125 891
101.562 203.125 928
304.688 -46.875 898
250 234.375 896
-367.188 359.375 1288
78.125 195.312 908
-375 359.375 1288
-195.312 375 1283
-320.312 -31.25 930
-46.875 -62.5 964
7.8125 -234.375 878
-289.062 382.812 1273
250 421.875 1349
-453.125 -335.938 2415
445.312 218.75 860
-312.5 -46.875 930
93.75 203.125 925
148.438 -289.062 1010
-492.188 -328.125 2349
39.0625 382.812 1536
-468.75 312.5 1134
-250 -234.375 3333
-257.812 -70.3125 954
-31.25 -250 878
-351.562 -203.125 1477
-460.938 312.5 1123
-375 343.75 1328
-23.4375 265.625 906
429.688 -226.562 1210
445.312 226.562 891
335.938 -15.625 862
-273.438 7.8125 923
-335.938 343.75 1090
-359.375 140.625 962
-484.375 -195.312 1483
-39.0625 -171.875 908
-312.5 39.0625 928
15.625 -335.938 1031
7.8125 -39.0625 935
-476.562 -203.125 1516
-54.6875 -62.5 964
-320.312 -296.875 3149
132.812 -156.25 1007
390.625 -195.312 1145
-7.8125 195.312 935
171.875 414.062 1333
54.6875 -85.9375 954
54.6875 -85.9375 954
367.188 -85.9375 878
-23.4375 -367.188 1050
-414.062 -39.0625 925
437.5 -210.938 1169
-398.438 328.125 1333
375 -54.6875 891
-242.188 398.438 1259
0 -328.125 1034
-335.938 -218.75 3333
-343.75 -414.062 2835
125 62.5 829
-359.375 93.75 940
-289.062 62.5 923
-101.562 46.875 856
-296.875 351.562 1297
-156.25 203.125 928
85.9375 -351.562 1050
125 203.125 908
-109.375 46.875 858
-218.75 -234.375 3333
-335.938 367.188 1288
-203.125 -234.375 3333
70.3125 -328.125 1038
-335.938 -179.688 1138
195.312 -226.562 946
250 70.3125 815
484.375 78.125 794
226.562 -250 1041
-296.875 -39.0625 935
-390.625 273.438 1063
-7.8125 54.6875 841
273.438 70.3125 813
414.062 421.875 1010
-382.812 335.938 1328
-421.875 -70.3125 956
328.125 -31.25 864
203.125 429.688 1328
320.312 -70.3125 898
-429.688 -140.625 1080
46.875 -414.062 1041
0 218.75 913
-460.938 335.938 1302
218.75 351.562 1445
-125 54.6875 858
171.875 -242.188 1010
-429.688 351.562 1302
101.562 62.5 829
-289.062 0 920
-390.625 62.5 959
-23.4375 187.5 918
226.562 -195.312 938
-195.312 -234.375 3300
-7.8125 -250 873
-85.9375 429.688 1250
-304.688 -15.625 925
117.188 -296.875 1025
-375 -39.0625 920
-257.812 359.375 1087
-304.688 117.188 928
-390.625 -218.75 3503
-375 335.938 1328
-171.875 375 1134
-320.312 117.188 928
-296.875 335.938 1101
39.0625 -226.562 878
460.938 -156.25 1073
-328.125 375 1278
-281.25 93.75 928
171.875 -226.562 946
-351.562 -218.75 3503
-328.125 7.8125 913
-335.938 -23.4375 933
-437.5 328.125 1317
-289.062 -101.562 1149
-132.812 -140.625 1067
-265.625 343.75 1090
-304.688 -46.875 930
-281.25 125 938
-414.062 328.125 1105
-265.625 140.625 981
-257.812 398.438 1268
31.25 -398.438 1038
-226.562 367.188 1297
-187.5 -234.375 3300
-171.875 39.0625 864
-234.375 367.188 1297
0 -234.375 878
-218.75 375 1292
-273.438 382.812 1268
-390.625 -85.9375 1108
-179.688 359.375 1084
23.4375 -179.688 903
-218.75 351.562 1090
-359.375 367.188 1288
109.375 -70.3125 962
-234.375 390.625 1264
335.938 -70.3125 889
-382.812 0 995
195.312 203.125 894
453.125 -171.875 1094
-7.8125 -367.188 1038
-265.625 101.562 930
-304.688 359.375 1307
335.938 85.9375 805
-351.562 -101.562 1134
-312.5 351.562 1108
-460.938 -226.562 3539
226.562 -101.562 1001
250 -226.562 956
-218.75 367.188 1094
85.9375 -281.25 882
-187.5 -195.312 1470
218.75 429.688 1349
15.625 -273.438 889
242.188 351.562 1439
-132.812 -226.562 3269
-328.125 -31.25 930
-398.438 351.562 1292
-179.688 -234.375 3300
382.812 7.8125 869
-15.625 -203.125 891
-453.125 93.75 1028
-54.6875 -343.75 1063
-398.438 -343.75 2485
-304.688 375 1255
-359.375 31.25 943
414.062 210.938 862
70.3125 -78.125 956
-367.188 320.312 1115
304.688 -257.812 1259
-382.812 -375 2618
-390.625 -343.75 2485
210.938 359.375 1452
-343.75 93.75 928
-39.0625 -250 875
-78.125 257.812 913
-187.5 398.438 1250
54.6875 -62.5 951
148.438 -156.25 987
-320.312 -343.75 3064
210.938 429.688 1338
-7.8125 -273.438 889
-234.375 78.125 946
23.4375 -31.25 918
-375 320.312 1115
148.438 -234.375 962
-250 93.75 938
-257.812 414.062 1489
-250 70.3125 935
-218.75 23.4375 882
-250 15.625 954
-468.75 406.25 1349
-23.4375 -46.875 940
-250 -39.0625 951
23.4375 -117.188 935
-39.0625 -273.438 894
-164.062 406.25 1138
31.25 -195.312 891
-179.688 375 1134
-257.812 -132.812 1063
-382.812 70.3125 956
164.062 398.438 1387
-242.188 125 954
-210.938 398.438 1255
-460.938 -343.75 2398
398.438 218.75 864
-226.562 78.125 946
-132.812 250 918
23.4375 421.875 1477
382.812 78.125 802
187.5 421.875 1343
-7.8125 -148.438 920
-226.562 375 1292
-132.812 187.5 943
-7.8125 -195.312 896
39.0625 -265.625 878
62.5 -78.125 954
132.812 62.5 827
-148.438 210.938 918
-7.8125 -265.625 880
-85.9375 46.875 854
39.0625 -195.312 891
-289.062 351.562 1090
-179.688 -195.312 1458
-359.375 -429.688 2933
-78.125 390.625 1255
85.9375 -179.688 901
-78.125 -179.688 1130
-351.562 -171.875 1130
62.5 -171.875 906
54.6875 -195.312 891
23.4375 -195.312 894
39.0625 414.062 1489
-429.688 343.75 1302
-156.25 -93.75 1007
-210.938 46.875 869
351.562 -93.75 880
-320.312 367.188 1273
-46.875 -335.938 1054
-257.812 359.375 1087
-367.188 343.75 1322
-54.6875 54.6875 845
-304.688 -203.125 1477
-328.125 117.188 928
335.938 -78.125 891
-210.938 -234.375 3333
164.062 -242.188 956
-171.875 -234.375 3269
78.125 -78.125 954
226.562 351.562 1439
-210.938 351.562 1087
-390.625 -39.0625 923
39.0625 -273.438 887
-429.688 320.312 1119
-390.625 -265.625 3399
-335.938 85.9375 920
-7.8125 -304.688 1038
406.25 296.875 851
-195.312 375 1288
0 -273.438 889
117.188 -304.688 1025
39.0625 406.25 1503
-351.562 -179.688 1130
-398.438 335.938 1328
93.75 296.875 1671
7.8125 -343.75 1031
-273.438 -7.8125 923
-15.625 -265.625 880
-335.938 -164.062 1134
-23.4375 -265.625 880
203.125 359.375 1445
78.125 85.9375 837
-335.938 328.125 1105
492.188 85.9375 785
0 54.6875 841
-320.312 375 1273
117.188 70.3125 827
-179.688 382.812 1283
-406.25 -156.25 1105
250 375 1415
398.438 -23.4375 867
0 335.938 1616
304.688 -15.625 843
7.8125 195.312 930
367.188 -46.875 880
117.188 -312.5 1010
132.812 343.75 1489
39.0625 -101.562 943
-437.5 -320.312 2349
-335.938 -421.875 2908
93.75 85.9375 835
476.562 78.125 796
367.188 296.875 860
289.062 -62.5 898
-85.9375 257.812 913
15.625 -78.125 954
-273.438 125 935
-31.25 -62.5 959
-265.625 -234.375 3333
-273.438 117.188 930
-492.188 -320.312 2349
46.875 -351.562 1034
-179.688 -234.375 3300
-445.312 -320.312 2349
437.5 117.188 803
-468.75 -210.938 3539
-304.688 -234.375 3300
210.938 -210.938 940
-23.4375 -132.812 928
-296.875 359.375 1307
-382.812 -171.875 1115
-164.062 -234.375 3269
-445.312 -218.75 2467
31.25 -171.875 906
132.812 -296.875 1010
-187.5 -195.312 1470
-23.4375 328.125 1616
296.875 -46.875 898
-265.625 382.812 1268
23.4375 -218.75 880
-250 390.625 1264
-257.812 367.188 1302
-7.8125 -101.562 946
-328.125 328.125 1105
-195.312 406.25 1250
328.125 -15.625 862
-210.938 7.8125 891
0 -250 873
187.5 203.125 891
-85.9375 210.938 923
164.062 -250 1010
0 -218.75 882
-335.938 367.188 1283
117.188 203.125 908
187.5 359.375 1445
257.812 421.875 1349
-328.125 343.75 1108
-367.188 -218.75 3503
-398.438 -335.938 2450
289.062 -70.3125 898
484.375 -187.5 2835
-398.438 312.5 1115
-203.125 406.25 1250
-328.125 -218.75 3269
445.312 93.75 790
140.625 445.312 1365
-460.938 -210.938 1509
-367.188 -31.25 918
-234.375 -15.625 948
46.875 -195.312 891
93.75 351.562 1579
-234.375 398.438 1255
-382.812 -351.562 2522
-390.625 93.75 943
15.625 -210.938 887
46.875 257.812 889
-359.375 -31.25 918
-54.6875 -367.188 1077
-367.188 140.625 967
484.375 429.688 989
85.9375 195.312 903
-335.938 31.25 925
-210.938 367.188 1090
140.625 62.5 827
-242.188 62.5 938
-242.188 171.875 951
-296.875 93.75 923
125 -320.312 1001
304.688 -226.562 1202
-62.5 187.5 933
-351.562 -39.0625 920
-187.5 -234.375 3300
187.5 -179.688 962
328.125 31.25 845
367.188 -7.8125 827
-7.8125 -234.375 875
242.188 359.375 1427
359.375 -39.0625 869
-62.5 210.938 920
-484.375 328.125 1312
39.0625 -343.75 1028
78.125 -62.5 951
-312.5 -289.062 3178
234.375 289.062 878
-257.812 15.625 956
-7.8125 -328.125 1038
-304.688 -203.125 1477
-414.062 -367.188 2522
-343.75 -39.0625 923
156.25 -70.3125 959
-156.25 187.5 943
-23.4375 -351.562 1041
484.375 296.875 845
-406.25 359.375 1292
-390.625 359.375 1268
-343.75 -218.75 3503
-328.125 31.25 925
-281.25 390.625 1268
-367.188 359.375 1283
-421.875 -414.062 2522
39.0625 -359.375 1038
-429.688 328.125 1328
-164.062 359.375 1084
-476.562 -203.125 1509
125 -296.875 1019
85.9375 421.875 1470
-148.438 -109.375 1025
335.938 31.25 845
-335.938 125 938
257.812 210.938 887
171.875 -46.875 930
148.438 -234.375 962
-421.875 -39.0625 925
171.875 -226.562 946
210.938 46.875 837
304.688 421.875 1445
39.0625 -78.125 954
437.5 218.75 860
-31.25 -312.5 1047
312.5 15.625 845
-195.312 398.438 1250
-476.562 -203.125 1509
-132.812 -171.875 1119
312.5 -31.25 873
-93.75 421.875 1255
54.6875 -78.125 954
-453.125 -210.938 1509
-328.125 351.562 1302
140.625 210.938 915
39.0625 210.938 918
-85.9375 -179.688 1130
-445.312 -179.688 1464
-320.312 343.75 1105
367.188 -15.625 869
367.188 -54.6875 887
226.562 429.688 1343
23.4375 -210.938 885
-203.125 46.875 867
-281.25 351.562 1097
-437.5 -359.375 2503
-164.062 39.0625 864
-445.312 320.312 1338
-421.875 -156.25 1090
-31.25 398.438 1516
70.3125 -210.938 885
-296.875 335.938 1101
390.625 -54.6875 908
-148.438 -234.375 3300
-31.25 -187.5 901
312.5 343.75 1550
-257.812 343.75 1087
39.0625 -265.625 878
46.875 -429.688 1080
93.75 -257.812 869
125 -234.375 992
-140.625 -234.375 3269
-460.938 296.875 1126
-156.25 -234.375 3300
-390.625 -367.188 2560
78.125 -156.25 915
-171.875 375 1134
54.6875 -406.25 1044
-148.438 203.125 928
-398.438 -78.125 959
-218.75 367.188 1094
148.438 234.375 896
-398.438 328.125 1123
-226.562 390.625 1264
-320.312 109.375 925
-179.688 398.438 1255
257.812 390.625 1392
-445.312 -210.938 1509
-187.5 39.0625 867
156.25 -273.438 1010
359.375 78.125 802
70.3125 -179.688 901
-406.25 -164.062 1105
-437.5 -210.938 1509
-421.875 -23.4375 1070
-101.562 179.688 933
-421.875 -375 2541
-367.188 335.938 1115
-31.25 -320.312 1047
-398.438 398.438 1496
-375 359.375 1283
-148.438 179.688 946
195.312 359.375 1445
132.812 70.3125 825
-390.625 62.5 959
468.75 85.9375 790
-468.75 -210.938 3539
-289.062 382.812 1273
-257.812 132.812 992
-101.562 390.625 1255
78.125 -281.25 896
39.0625 -31.25 918
-23.4375 -203.125 891
-39.0625 -335.938 1050
62.5 -203.125 889
-250 359.375 1090
-273.438 359.375 1297
148.438 62.5 827
-234.375 -78.125 964
39.0625 351.562 1586
-343.75 -398.438 2835
54.6875 273.438 891
-93.75 46.875 854
-351.562 367.188 1288
-265.625 31.25 935
-234.375 85.9375 946
-23.4375 62.5 843
-39.0625 390.625 1529
-234.375 367.188 1297
-125 -234.375 3238
492.188 -187.5 2835
-203.125 -54.6875 1219
-226.562 -234.375 3333
-179.688 -195.312 1458
-296.875 -39.0625 935
-265.625 -62.5 946
-23.4375 -70.3125 964
31.25 -218.75 882
0 -164.062 908
304.688 -46.875 889
296.875 70.3125 813
-406.25 -46.875 928
-132.812 234.375 910
-257.812 -15.625 935
304.688 70.3125 811
351.562 250 871
-195.312 39.0625 867
484.375 234.375 882
7.8125 54.6875 841
-320.312 101.562 923
0 -93.75 948
-195.312 -234.375 3300
421.875 296.875 851
-15.625 265.625 903
-242.188 -70.3125 956
-78.125 242.188 903
-398.438 351.562 1292
54.6875 257.812 887
31.25 -273.438 887
-242.188 85.9375 938
-203.125 -7.8125 915
429.688 429.688 1001
-312.5 117.188 925
-304.688 -203.125 1477
-234.375 390.625 1264
-312.5 -15.625 923
-23.4375 226.562 906
-7.8125 -210.938 887
-187.5 398.438 1250
54.6875 -273.438 891
-320.312 39.0625 925
-414.062 7.8125 1063
-304.688 375 1255
-335.938 39.0625 925
164.062 -164.062 970
31.25 -15.625 906
-468.75 132.812 984
-179.688 359.375 1084
234.375 351.562 1439
164.062 210.938 915
-335.938 0 915
-23.4375 -335.938 1041
-281.25 -54.6875 943
109.375 -304.688 1025
-125 -171.875 1119
-234.375 70.3125 946
-46.875 -250 873
-281.25 31.25 930
-421.875 -203.125 1470
-359.375 85.9375 940
210.938 203.125 889
-328.125 39.0625 928
289.062 -46.875 898
-273.438 390.625 1264
70.3125 359.375 1572
31.25 351.562 1579
-46.875 -359.375 1067
-257.812 367.188 1302
-375 -406.25 2767
273.438 242.188 885
-359.375 -367.188 2701
-23.4375 -195.312 896
140.625 -257.812 1016
15.625 -195.312 896
-171.875 382.812 1134
-312.5 -39.0625 928
-335.938 351.562 1312
-257.812 382.812 1273
7.8125 -195.312 896
203.125 210.938 915
-218.75 375 1292
265.625 359.375 1415
-23.4375 -62.5 959
179.688 -226.562 938
-320.312 375 1273
-281.25 -39.0625 946
-296.875 375 1273
-187.5 -39.0625 940
85.9375 -148.438 918
0 -226.562 880
109.375 203.125 910
-406.25 -382.812 2579
359.375 -62.5 887
390.625 93.75 798
187.5 421.875 1343
-375 -359.375 2579
-367.188 -390.625 2659
-445.312 203.125 956
70.3125 -117.188 933
-328.125 343.75 1108
-296.875 171.875 951
-406.25 335.938 1333
140.625 335.938 1496
-296.875 -179.688 1141
-296.875 -179.688 1141
-265.625 -85.9375 978
343.75 -15.625 860
-367.188 101.562 943
-15.625 -351.562 1038
-148.438 -101.562 1016
140.625 281.25 887
-296.875 140.625 978
-460.938 -210.938 1509
-445.312 -210.938 1509
-390.625 -164.062 1115
-164.062 406.25 1138
-46.875 -367.188 1070
218.75 429.688 1349
101.562 234.375 896
-359.375 335.938 1115
164.062 406.25 1359
148.438 -296.875 1004
-132.812 -234.375 3269
-179.688 226.562 913
-414.062 -31.25 923
476.562 226.562 887
171.875 -234.375 946
335.938 46.875 833
132.812 -117.188 1022
-7.8125 -273.438 889
-195.312 -23.4375 925
85.9375 -132.812 923
-429.688 343.75 1302
-304.688 0 915
-304.688 382.812 1273
429.688 -171.875 1097
-70.3125 187.5 938
-390.625 328.125 1119
-265.625 148.438 975
-156.25 359.375 1115
445.312 -195.312 1134
140.625 -156.25 1001
-210.938 367.188 1090
-335.938 367.188 1283
-328.125 -429.688 2933
-289.062 359.375 1307
-257.812 359.375 1087
-15.625 -367.188 1041
296.875 218.75 903
-218.75 23.4375 882
-156.25 15.625 887
-46.875 -375 1077
-7.8125 -54.6875 946
-289.062 351.562 1090
62.5 -62.5 954
78.125 -164.062 908
-226.562 -85.9375 970
484.375 -62.5 938
46.875 -179.688 901
-304.688 171.875 948
-23.4375 382.812 1536
343.75 -62.5 880
-351.562 164.062 956
-31.25 414.062 1496
351.562 -62.5 882
187.5 359.375 1445
-210.938 101.562 894
-414.062 -39.0625 925
15.625 -179.688 903
-484.375 -351.562 2317
492.188 78.125 789
-31.25 -273.438 894
289.062 78.125 811
-39.0625 -85.9375 956
-484.375 -320.312 2349
-187.5 375 1288
-203.125 398.438 1255
281.25 398.438 1410
-375 -31.25 918
54.6875 -359.375 1038
-335.938 46.875 925
-351.562 46.875 928
281.25 70.3125 813
-367.188 367.188 1283
351.562 -93.75 880
85.9375 -164.062 908
-359.375 343.75 1322
39.0625 437.5 1464
-78.125 46.875 854
-382.812 46.875 1080
62.5 -179.688 901
62.5 -179.688 901
-7.8125 375 1557
62.5 -195.312 891
-7.8125 -281.25 889
-234.375 93.75 946
-31.25 -351.562 1047
-289.062 335.938 1090
-273.438 -203.125 1470
-226.562 390.625 1264
-265.625 382.812 1268
343.75 101.562 807
148.438 -234.375 962
-15.625 -265.625 880
-210.938 375 1292
-343.75 343.75 1094
289.062 70.3125 813
-171.875 -234.375 3269
296.875 78.125 809
-421.875 -39.0625 925
15.625 62.5 839
-234.375 39.0625 946
390.625 -39.0625 867
265.625 70.3125 813
-375 70.3125 956
39.0625 -218.75 882
31.25 -85.9375 948
-460.938 335.938 1302
7.8125 -218.75 882
-46.875 -78.125 959
-250 -78.125 959
-125 179.688 938
78.125 -148.438 918
484.375 93.75 789
62.5 -328.125 1034
-39.0625 -312.5 1050
-453.125 -210.938 1509
-281.25 125 938
-7.8125 78.125 845
453.125 78.125 796
23.4375 -171.875 906
-335.938 -117.188 1138
7.8125 -210.938 887
343.75 70.3125 811
-351.562 -179.688 1130
15.625 -265.625 882
78.125 -296.875 1044
62.5 273.438 891
-414.062 -343.75 2467
296.875 109.375 825
-250 359.375 1090
-398.438 359.375 1292
-226.562 367.188 1297
273.438 289.062 871
-296.875 0 915
-335.938 -437.5 2958
-421.875 -312.5 2381
-23.4375 -390.625 1057
-335.938 375 1273
281.25 -62.5 898
-140.625 -234.375 3269
-476.562 -179.688 1458
-367.188 320.312 1108
-351.562 257.812 1038
-265.625 421.875 1470
23.4375 -218.75 880
31.25 -101.562 946
-445.312 312.5 1130
-335.938 125 940
-328.125 328.125 1105
-390.625 -39.0625 920
-328.125 367.188 1278
-242.188 -78.125 956
39.0625 -273.438 885
-414.062 -7.8125 1060
-265.625 -46.875 948
7.8125 335.938 1609
-171.875 375 1134
7.8125 -85.9375 954
-101.562 54.6875 851
-390.625 -382.812 2579
312.5 414.062 1452
320.312 -257.812 1250
-429.688 -328.125 2365
-296.875 -46.875 933
-210.938 351.562 1087
-257.812 117.188 938
-46.875 0 894
-492.188 289.062 1134
0 -218.75 882
-296.875 62.5 918
210.938 429.688 1328
-23.4375 406.25 1496
453.125 296.875 847
-54.6875 -85.9375 959
-312.5 -46.875 928
-367.188 359.375 1288
226.562 351.562 1439
-375 367.188 1288
-382.812 367.188 1288
78.125 390.625 1516
-101.562 46.875 854
-312.5 -179.688 1138
-328.125 -109.375 1138
171.875 -250 1007
-148.438 7.8125 889
-375 140.625 978
-398.438 335.938 1328
78.125 -93.75 943
23.4375 429.688 1464
62.5 -250 869
-15.625 187.5 918
-437.5 -367.188 2485
85.9375 -31.25 915
-304.688 -39.0625 928
390.625 -257.812 1241
39.0625 -179.688 901
-234.375 101.562 946
-335.938 -31.25 925
125 31.25 851
23.4375 -265.625 875
-7.8125 -117.188 935
-250 343.75 1087
-289.062 31.25 933
-31.25 195.312 933
-250 85.9375 935
-70.3125 195.312 933
140.625 -312.5 995
-296.875 375 1268
-132.812 -15.625 915
-382.812 359.375 1288
179.688 -226.562 946
-15.625 -390.625 1050
-39.0625 -296.875 1050
-226.562 398.438 1264
-359.375 -171.875 1126
101.562 -265.625 875
-203.125 39.0625 864
257.812 382.812 1398
-281.25 382.812 1268
257.812 414.062 1343
-359.375 335.938 1317
-265.625 -101.562 1041
156.25 62.5 823
-468.75 -335.938 2333
-23.4375 -320.312 1041
85.9375 -382.812 1063
242.188 351.562 1433
-218.75 218.75 915
-375 335.938 1328
250 390.625 1392
-390.625 -203.125 1483
-101.562 -203.125 1165
23.4375 -156.25 913
257.812 351.562 1427
-242.188 390.625 1255
-476.562 -320.312 2349
484.375 -101.562 973
-187.5 421.875 1477
-289.062 -39.0625 940
-359.375 -15.625 930
0 414.062 1489
-421.875 320.312 1115
62.5 257.812 887
476.562 218.75 856
-289.062 351.562 1101
335.938 210.938 875
-85.9375 203.125 925
-320.312 132.812 933
195.312 210.938 915
203.125 70.3125 817
156.25 359.375 1421
250 429.688 1338
31.25 -195.312 889
-7.8125 359.375 1572
-414.062 -156.25 1105
7.8125 -390.625 1041
-312.5 375 1273
-460.938 312.5 1134
-289.062 375 1268
273.438 70.3125 811
-125 70.3125 860
23.4375 -195.312 891
23.4375 -281.25 887
-210.938 367.188 1288
0 -62.5 954
-445.312 -117.188 1322
-203.125 367.188 1283
-398.438 -359.375 2503
226.562 -109.375 1004
-351.562 273.438 1022
-179.688 398.438 1259
101.562 -343.75 1057
-187.5 406.25 1255
23.4375 -304.688 1031
-250 -62.5 948
-54.6875 -320.312 1060
7.8125 -320.312 1028
23.4375 62.5 837
-359.375 -179.688 1126
195.312 -187.5 951
-343.75 -179.688 1134
-382.812 398.438 1496
382.812 -62.5 885
-250 382.812 1268
-335.938 -15.625 920
-234.375 -15.625 948
-85.9375 46.875 851
-281.25 46.875 925
-125 -234.375 3269
-203.125 -234.375 3333
-46.875 -70.3125 964
-343.75 -437.5 2958
-429.688 304.688 1115
320.312 210.938 878
171.875 -273.438 1028
257.812 289.062 871
359.375 7.8125 825
-70.3125 46.875 851
-304.688 31.25 923
-398.438 -164.062 1108
-476.562 -335.938 2333
414.062 218.75 858
-234.375 -78.125 962
-148.438 -234.375 3269
-250 367.188 1288
31.25 390.625 1523
7.8125 54.6875 837
-250 54.6875 935
15.625 54.6875 837
250 273.438 867
-109.375 54.6875 854
93.75 195.312 903
-7.8125 62.5 841
-312.5 -187.5 1138
148.438 -226.562 959
-406.25 -328.125 2415
242.188 421.875 1349
-359.375 359.375 1288
-335.938 62.5 918
-203.125 398.438 1255
-156.25 179.688 946
-328.125 101.562 923
-273.438 70.3125 925
-15.625 -273.438 887
-257.812 23.4375 943
-171.875 398.438 1165
421.875 281.25 849
273.438 296.875 873
-242.188 359.375 1097
-218.75 281.25 1016
39.0625 -195.312 889
-117.188 70.3125 858
7.8125 -265.625 878
-39.0625 -359.375 1050
-421.875 -367.188 2503
46.875 -187.5 896
23.4375 -78.125 954
-398.438 351.562 1292
367.188 -85.9375 875
140.625 203.125 901
-54.6875 -328.125 1060
-218.75 390.625 1264
-421.875 328.125 1328
-453.125 312.5 1130
23.4375 195.312 918
132.812 242.188 887
234.375 351.562 1439
-132.812 46.875 858
-31.25 -312.5 1044
-429.688 -101.562 1031
-265.625 359.375 1292
39.0625 -359.375 1028
46.875 -367.188 1034
-46.875 -265.625 880
-250 359.375 1087
171.875 -226.562 946
-273.438 85.9375 928
250 343.75 1439
-437.5 -148.438 1387
179.688 359.375 1433
-421.875 351.562 1302
-421.875 -421.875 2503
-328.125 -421.875 2883
-320.312 -39.0625 925
-234.375 -234.375 3333
382.812 -31.25 871
460.938 296.875 845
-7.8125 187.5 915
-304.688 -187.5 1138
-382.812 62.5 959
-187.5 -195.312 1470
-289.062 -203.125 1477
-390.625 -171.875 1108
-85.9375 187.5 938
-179.688 39.0625 864
-39.0625 -101.562 946
164.062 367.188 1415
-250 -70.3125 951
-257.812 -23.4375 938
-304.688 351.562 1297
-296.875 -242.188 3238
-23.4375 -351.562 1038
-23.4375 328.125 1609
343.75 234.375 887
-296.875 -187.5 1138
-328.125 351.562 1302
-7.8125 265.625 901
-195.312 367.188 1090
-234.375 109.375 956
-93.75 179.688 933
-414.062 -382.812 2579
-164.062 -85.9375 1001
-500 -320.312 2349
-460.938 -210.938 1503
85.9375 -109.375 935
-335.938 -117.188 1138
-390.625 23.4375 1077
7.8125 -187.5 896
-437.5 351.562 1439
242.188 289.062 873
-289.062 359.375 1288
46.875 -328.125 1028
140.625 62.5 823
-257.812 -93.75 978
-7.8125 250 889
-7.8125 250 889
-15.625 -265.625 875
-476.562 320.312 1333
85.9375 -156.25 913
-39.0625 -335.938 1047
-460.938 -320.312 2333
-390.625 62.5 959
-125 250 915
54.6875 -54.6875 940
-15.625 -195.312 896
62.5 -156.25 913
-156.25 -234.375 3269
-281.25 375 1273
31.25 -234.375 873
-265.625 367.188 1292
-210.938 -203.125 1458
-70.3125 -335.938 1080
-140.625 179.688 946
54.6875 7.8125 878
484.375 179.688 831
78.125 -23.4375 906
468.75 -132.812 1028
-281.25 179.688 940
-242.188 -195.312 1464
-265.625 390.625 1268
15.625 195.312 933
23.4375 -179.688 901
-281.25 15.625 940
-320.312 203.125 928
-226.562 367.188 1292
39.0625 351.562 1579
-398.438 312.5 1112
15.625 -265.625 875
-179.688 -234.375 3300
31.25 429.688 1464
-375 -93.75 1119
85.9375 -62.5 946
-351.562 367.188 1278
-203.125 351.562 1087
101.562 195.312 903
-46.875 187.5 923
-62.5 257.812 906
156.25 -234.375 954
-414.062 -210.938 1496
-54.6875 367.188 1557
-398.438 -46.875 923
-164.062 -234.375 3300
-320.312 343.75 1101
23.4375 -23.4375 906
-367.188 343.75 1312
125 -328.125 1004
15.625 -242.188 871
31.25 -265.625 875
-390.625 328.125 1115
-226.562 132.812 989
46.875 390.625 1523
39.0625 -234.375 871
-210.938 132.812 918
-351.562 335.938 1105
382.812 210.938 867
312.5 421.875 1439
273.438 -218.75 959
39.0625 -281.25 885
31.25 414.062 1483
398.438 93.75 796
54.6875 -31.25 913
414.062 210.938 860
-218.75 179.688 946
-390.625 335.938 1317
101.562 375 1445
343.75 210.938 873
-62.5 -218.75 889
132.812 -242.188 992
-156.25 -101.562 1016
125 -109.375 1007
351.562 -93.75 878
-242.188 -117.188 1004
-382.812 -39.0625 920
101.562 -78.125 956
-195.312 398.438 1255
-382.812 70.3125 956
-257.812 382.812 1273
429.688 242.188 875
-164.062 179.688 948
-375 23.4375 948
476.562 -187.5 2908
109.375 -281.25 1077
-390.625 351.562 1292
-226.562 390.625 1264
242.188 203.125 885
-7.8125 -218.75 882
179.688 414.062 1349
46.875 351.562 1579
195.312 421.875 1343
-335.938 -437.5 2958
132.812 367.188 1477
-7.8125 -367.188 1038
390.625 210.938 864
85.9375 390.625 1516
289.062 414.062 1404
171.875 62.5 821
281.25 -54.6875 898
-421.875 -210.938 1516
234.375 -226.562 935
-242.188 39.0625 935
70.3125 -203.125 887
-320.312 -187.5 1134
421.875 78.125 796
328.125 -70.3125 894
-421.875 343.75 1312
-320.312 -304.688 3120
-437.5 -335.938 2381
7.8125 -132.812 925
-62.5 -320.312 1067
23.4375 -265.625 875
-62.5 -281.25 889
171.875 -281.25 1022
406.25 70.3125 803
-179.688 -54.6875 959
-265.625 54.6875 928
-359.375 335.938 1317
-179.688 375 1134
328.125 70.3125 809
148.438 62.5 823
85.9375 -78.125 951
15.625 -218.75 880
-93.75 54.6875 851
-281.25 101.562 925
