ply
format ascii 1.0
comment Created by Open3D
element vertex 2438
property double x
property double y
property double z
end_header
-226.562 367.188 796
179.688 437.5 754
-101.562 54.6875 805
-85.9375 -39.0625 762
-31.25 257.812 707
-343.75 -445.312 2744
-406.25 171.875 796
-218.75 218.75 720
-31.25 -320.312 839
-429.688 218.75 800
203.125 437.5 749
-445.312 -210.938 1328
382.812 -250 1050
-7.8125 -187.5 710
289.062 93.75 720
-132.812 -320.312 867
-406.25 93.75 794
492.188 281.25 641
-39.0625 -328.125 837
46.875 265.625 698
218.75 -265.625 1077
15.625 15.625 790
-70.3125 -187.5 713
-125 54.6875 809
-85.9375 -375 849
-312.5 -343.75 3037
109.375 0 829
-257.812 210.938 727
-375 343.75 819
-335.938 23.4375 823
367.188 453.125 734
390.625 273.438 653
-117.188 54.6875 809
54.6875 -250 896
-343.75 203.125 738
-187.5 -93.75 733
-328.125 -421.875 2835
-375 156.25 805
-414.062 70.3125 796
242.188 85.9375 766
257.812 273.438 668
-7.8125 250 697
359.375 273.438 657
15.625 54.6875 798
-390.625 -46.875 989
359.375 39.0625 719
-93.75 54.6875 807
-85.9375 250 710
132.812 -132.812 774
-257.812 429.688 987
460.938 281.25 647
-62.5 -375 845
210.938 -257.812 1063
148.438 -265.625 829
-445.312 242.188 809
140.625 -265.625 829
-23.4375 -39.0625 761
273.438 171.875 694
320.312 281.25 663
-210.938 226.562 722
-453.125 -210.938 1328
-31.25 54.6875 803
-320.312 -382.812 2908
-476.562 257.812 864
257.812 93.75 761
-101.562 242.188 710
-62.5 -406.25 833
-39.0625 250 703
179.688 265.625 676
-382.812 93.75 800
70.3125 257.812 688
-179.688 -62.5 752
78.125 257.812 687
218.75 -257.812 1063
179.688 375 781
7.8125 -101.562 725
109.375 265.625 688
-468.75 101.562 794
-203.125 234.375 727
-62.5 -187.5 711
0 54.6875 800
-320.312 -390.625 2908
46.875 -257.812 882
320.312 -250 1050
406.25 289.062 654
-23.4375 -257.812 854
-195.312 -125 720
-93.75 351.562 803
-289.062 367.188 809
-421.875 335.938 829
-132.812 437.5 1177
390.625 70.3125 749
0 -257.812 860
-15.625 -187.5 711
-492.188 -445.312 2040
-164.062 39.0625 823
-257.812 218.75 730
328.125 -250 1050
-78.125 -187.5 714
-328.125 -429.688 2812
195.312 273.438 678
140.625 445.312 766
-164.062 226.562 714
-93.75 -187.5 717
-78.125 242.188 704
-296.875 203.125 731
7.8125 -132.812 707
78.125 -218.75 827
203.125 273.438 676
-70.3125 242.188 703
-117.188 -328.125 858
304.688 148.438 696
335.938 23.4375 723
-406.25 -125 978
-156.25 -179.688 717
-70.3125 -367.188 843
367.188 273.438 657
-15.625 -273.438 851
-164.062 398.438 794
-93.75 -156.25 704
-421.875 -46.875 989
-343.75 -468.75 2723
-351.562 -15.625 845
-250 226.562 733
7.8125 250 694
-460.938 54.6875 805
-484.375 250 869
-164.062 15.625 839
335.938 54.6875 723
335.938 109.375 714
23.4375 -390.625 875
281.25 109.375 723
-156.25 46.875 817
-375 62.5 815
-78.125 70.3125 796
414.062 281.25 652
250 273.438 668
-62.5 -328.125 841
437.5 -242.188 1038
101.562 265.625 688
164.062 265.625 678
-500 0 867
156.25 265.625 678
31.25 257.812 696
148.438 335.938 742
85.9375 -31.25 854
-343.75 62.5 854
296.875 148.438 703
101.562 -226.562 827
-250 335.938 811
-70.3125 62.5 802
484.375 281.25 646
-179.688 -101.562 731
281.25 210.938 694
-62.5 54.6875 803
195.312 281.25 684
140.625 265.625 683
0 250 696
-164.062 335.938 809
-62.5 15.625 798
-117.188 234.375 708
-281.25 351.562 803
195.312 -132.812 767
-445.312 257.812 815
-101.562 -210.938 731
195.312 375 781
335.938 289.062 664
109.375 -210.938 827
351.562 289.062 663
132.812 -93.75 809
-7.8125 -210.938 734
296.875 382.812 771
85.9375 -46.875 862
-406.25 85.9375 796
-23.4375 -93.75 730
476.562 -156.25 935
484.375 -85.9375 875
-7.8125 -101.562 727
-54.6875 -164.062 700
179.688 -101.562 767
-31.25 -78.125 741
-62.5 -78.125 739
132.812 265.625 682
-210.938 273.438 774
125 -132.812 776
312.5 273.438 663
-304.688 265.625 787
85.9375 257.812 686
445.312 -242.188 1038
101.562 -140.625 783
23.4375 375 787
-468.75 109.375 789
-93.75 -375 854
-46.875 -117.188 717
85.9375 -265.625 821
31.25 265.625 700
-179.688 226.562 716
281.25 195.312 703
171.875 265.625 678
-140.625 46.875 813
164.062 -265.625 1077
-304.688 210.938 734
-70.3125 -93.75 730
-398.438 187.5 796
429.688 281.25 650
-382.812 289.062 839
226.562 -257.812 1063
-437.5 117.188 787
382.812 453.125 734
-500 117.188 964
-78.125 -117.188 717
-70.3125 -171.875 704
-289.062 312.5 825
312.5 46.875 733
320.312 273.438 662
-460.938 226.562 819
367.188 289.062 662
-46.875 250 703
-140.625 31.25 813
-414.062 -125 978
0 -187.5 710
382.812 265.625 655
-117.188 -117.188 720
-500 -437.5 2053
-7.8125 -375 851
-101.562 -242.188 871
-429.688 93.75 794
-453.125 93.75 796
70.3125 -273.438 829
171.875 -265.625 1077
-476.562 -210.938 1328
-109.375 -54.6875 754
101.562 -54.6875 813
-117.188 -312.5 856
281.25 -257.812 1063
-265.625 296.875 813
-242.188 296.875 805
242.188 273.438 670
7.8125 15.625 790
218.75 -312.5 2835
375 -250 1047
-195.312 -132.812 716
-70.3125 -85.9375 734
0 62.5 796
-367.188 414.062 1016
-125 -85.9375 738
-85.9375 54.6875 807
-148.438 54.6875 811
-460.938 -210.938 1322
-31.25 359.375 800
-78.125 54.6875 807
-476.562 -335.938 2198
7.8125 54.6875 798
-156.25 234.375 713
-398.438 -132.812 978
-70.3125 -281.25 849
-437.5 78.125 792
-148.438 242.188 722
164.062 -226.562 864
-468.75 -210.938 1328
-468.75 -54.6875 978
164.062 390.625 774
343.75 109.375 717
15.625 -85.9375 731
-421.875 250 817
-85.9375 242.188 706
-125 -156.25 706
-132.812 -164.062 708
-39.0625 367.188 792
406.25 281.25 652
382.812 398.438 759
-54.6875 -304.688 841
-273.438 320.312 821
-187.5 -109.375 733
179.688 -140.625 767
210.938 398.438 767
-375 234.375 807
-109.375 -117.188 719
-117.188 -78.125 741
-31.25 7.8125 789
242.188 445.312 747
-460.938 -23.4375 975
78.125 -296.875 823
78.125 -226.562 841
-335.938 62.5 1007
296.875 437.5 742
296.875 281.25 668
-406.25 156.25 803
-273.438 312.5 827
-367.188 -226.562 2933
335.938 70.3125 728
39.0625 265.625 698
-421.875 -132.812 978
-468.75 179.688 802
148.438 265.625 682
234.375 273.438 672
-54.6875 -281.25 843
-476.562 -125 973
210.938 445.312 749
7.8125 -148.438 698
-484.375 312.5 833
-367.188 -62.5 908
328.125 289.062 667
312.5 289.062 670
210.938 281.25 682
-109.375 -265.625 862
-320.312 296.875 835
-132.812 54.6875 809
125 -242.188 843
328.125 54.6875 727
429.688 289.062 652
-109.375 242.188 711
-109.375 -382.812 867
-132.812 234.375 710
-437.5 -429.688 2212
-93.75 -46.875 759
398.438 -242.188 1041
203.125 281.25 682
-335.938 70.3125 854
-320.312 54.6875 1004
-320.312 -343.75 3010
101.562 -156.25 776
117.188 -187.5 831
273.438 187.5 706
187.5 273.438 680
335.938 273.438 661
-109.375 -171.875 710
-85.9375 -15.625 776
-382.812 -242.188 2958
85.9375 -179.688 819
-476.562 85.9375 787
195.312 367.188 787
-31.25 -54.6875 752
-312.5 -242.188 2984
234.375 -257.812 1063
-46.875 7.8125 790
-460.938 125 785
-226.562 218.75 722
-70.3125 54.6875 805
265.625 -257.812 1063
-46.875 54.6875 803
62.5 257.812 688
375 382.812 766
-492.188 101.562 781
-117.188 -7.8125 783
101.562 351.562 773
-437.5 101.562 789
39.0625 -328.125 860
-109.375 250 720
-78.125 -39.0625 762
-125 -70.3125 746
-31.25 -406.25 839
15.625 250 693
375 70.3125 750
-398.438 -226.562 1328
-445.312 101.562 792
-265.625 210.938 727
-125 234.375 710
-171.875 -70.3125 749
-187.5 -93.75 733
15.625 382.812 783
-54.6875 429.688 785
343.75 46.875 719
-15.625 250 698
343.75 273.438 661
242.188 78.125 771
289.062 187.5 704
148.438 -15.625 839
273.438 273.438 667
-335.938 195.312 736
265.625 437.5 744
226.562 265.625 672
-125 -93.75 731
-187.5 226.562 717
-429.688 179.688 794
-335.938 -7.8125 835
-281.25 210.938 730
-320.312 359.375 813
273.438 195.312 703
-460.938 171.875 798
281.25 453.125 744
-398.438 -39.0625 987
-234.375 218.75 723
-7.8125 -46.875 755
-460.938 -125 967
421.875 281.25 650
453.125 281.25 648
-46.875 414.062 780
-93.75 -125 711
-382.812 54.6875 802
93.75 -54.6875 869
328.125 179.688 676
359.375 46.875 720
187.5 281.25 684
7.8125 -125 711
-210.938 234.375 728
226.562 -203.125 839
-78.125 -62.5 747
398.438 281.25 653
296.875 109.375 716
-351.562 -7.8125 839
179.688 -226.562 860
0 -328.125 845
85.9375 -218.75 841
-234.375 382.812 802
-78.125 414.062 787
23.4375 257.812 698
-500 281.25 843
-164.062 234.375 716
289.062 289.062 675
257.812 187.5 706
-31.25 421.875 783
-39.0625 54.6875 805
-7.8125 250 697
-101.562 -382.812 860
-156.25 -132.812 711
226.562 273.438 674
0 46.875 805
-351.562 -15.625 845
-164.062 -179.688 719
-164.062 7.8125 798
109.375 273.438 693
15.625 23.4375 798
-171.875 -179.688 719
218.75 453.125 754
171.875 -226.562 862
-7.8125 445.312 1410
-398.438 296.875 835
359.375 453.125 736
-117.188 -148.438 704
117.188 -453.125 2639
15.625 265.625 703
-390.625 382.812 978
164.062 445.312 761
484.375 375 716
343.75 62.5 727
343.75 375 741
-304.688 -23.4375 1084
-62.5 -15.625 776
-125 406.25 792
-195.312 -125 720
-7.8125 23.4375 800
-31.25 -46.875 755
-117.188 -171.875 710
-148.438 -132.812 711
-140.625 54.6875 811
-265.625 218.75 731
-54.6875 -156.25 700
101.562 -132.812 789
398.438 273.438 652
93.75 265.625 690
101.562 -140.625 783
-398.438 -125 978
148.438 -226.562 864
351.562 85.9375 730
-39.0625 257.812 708
203.125 -226.562 851
-54.6875 257.812 713
-101.562 -117.188 719
375 281.25 655
312.5 78.125 717
125 -148.438 774
7.8125 -140.625 703
-171.875 -125 719
-101.562 250 719
226.562 -140.625 773
-468.75 85.9375 787
226.562 453.125 754
-484.375 85.9375 787
62.5 -265.625 835
234.375 -156.25 776
-257.812 226.562 734
-453.125 179.688 796
31.25 -273.438 864
-132.812 -296.875 867
320.312 -257.812 1060
-31.25 -70.3125 742
-382.812 242.188 807
-429.688 -125 978
-54.6875 -164.062 700
289.062 273.438 664
328.125 273.438 661
-125 -148.438 706
-335.938 -460.938 2789
304.688 78.125 719
-93.75 -148.438 704
-468.75 257.812 862
-148.438 -70.3125 747
210.938 -257.812 1063
-117.188 -257.812 869
218.75 -140.625 771
-117.188 -203.125 731
-453.125 195.312 798
-140.625 234.375 713
93.75 -179.688 790
-117.188 -156.25 704
-54.6875 250 704
-351.562 351.562 819
281.25 117.188 722
78.125 -156.25 798
-476.562 -132.812 967
179.688 273.438 680
-93.75 -93.75 731
320.312 289.062 668
15.625 359.375 796
46.875 -226.562 915
-101.562 -148.438 704
85.9375 273.438 698
93.75 -273.438 821
289.062 281.25 670
187.5 -164.062 843
-54.6875 54.6875 802
359.375 281.25 657
-23.4375 54.6875 803
234.375 -125 778
-101.562 -343.75 849
-125 54.6875 809
-125 54.6875 809
140.625 -265.625 829
-70.3125 -171.875 704
-62.5 429.688 785
-171.875 -23.4375 774
31.25 -382.812 873
-78.125 -117.188 717
-476.562 -31.25 975
101.562 -46.875 862
-218.75 226.562 725
382.812 -242.188 1034
-421.875 -125 978
-492.188 226.562 823
-398.438 62.5 798
382.812 85.9375 716
179.688 -132.812 767
-289.062 218.75 738
-500 62.5 794
140.625 265.625 683
54.6875 257.812 690
320.312 382.812 767
31.25 367.188 794
-226.562 328.125 817
429.688 367.188 720
328.125 85.9375 716
-117.188 242.188 713
-187.5 -85.9375 746
7.8125 46.875 805
-156.25 -31.25 771
-203.125 328.125 817
-125 351.562 802
203.125 -132.812 767
-343.75 -15.625 843
-117.188 54.6875 809
-117.188 -46.875 761
437.5 367.188 719
304.688 273.438 663
171.875 375 781
-7.8125 -398.438 856
-148.438 -179.688 716
492.188 -125 908
445.312 367.188 719
-289.062 39.0625 825
0 -23.4375 769
156.25 -15.625 837
164.062 265.625 678
-398.438 -46.875 989
-484.375 -117.188 967
-101.562 -156.25 704
-304.688 296.875 835
-492.188 296.875 835
-62.5 -109.375 720
-109.375 -156.25 704
343.75 132.812 731
-414.062 101.562 792
-242.188 218.75 723
70.3125 257.812 688
0 -39.0625 761
-85.9375 -429.688 875
23.4375 414.062 769
-468.75 414.062 1404
-85.9375 414.062 787
-23.4375 250 698
257.812 117.188 749
343.75 101.562 717
-109.375 -242.188 875
-7.8125 -78.125 739
265.625 93.75 759
-70.3125 -156.25 703
132.812 265.625 682
304.688 289.062 672
156.25 265.625 678
289.062 203.125 698
304.688 -257.812 1060
367.188 281.25 657
-39.0625 -109.375 722
-7.8125 375 789
-164.062 23.4375 833
-289.062 273.438 796
351.562 62.5 725
-179.688 226.562 716
273.438 203.125 698
132.812 -179.688 833
-156.25 54.6875 811
-70.3125 -54.6875 752
-85.9375 -328.125 843
-156.25 -312.5 896
226.562 359.375 752
117.188 -132.812 781
125 -226.562 854
78.125 -218.75 827
70.3125 375 783
109.375 -156.25 774
-414.062 -132.812 978
-140.625 -179.688 716
-7.8125 54.6875 802
-148.438 414.062 787
242.188 187.5 708
15.625 -7.8125 776
-171.875 -39.0625 766
351.562 281.25 659
-500 195.312 829
-23.4375 -429.688 882
-109.375 -148.438 704
15.625 257.812 698
101.562 273.438 694
85.9375 -273.438 821
85.9375 359.375 796
257.812 195.312 703
281.25 78.125 733
-328.125 359.375 813
-132.812 343.75 805
-109.375 -117.188 719
-468.75 -117.188 970
-273.438 23.4375 839
257.812 85.9375 747
-62.5 -54.6875 752
-85.9375 -117.188 717
210.938 273.438 674
-421.875 179.688 796
-234.375 -195.312 1273
195.312 281.25 684
85.9375 -265.625 821
328.125 93.75 714
85.9375 -70.3125 833
-195.312 328.125 815
-257.812 210.938 727
148.438 265.625 682
-460.938 -281.25 2301
437.5 -281.25 2723
-195.312 335.938 811
-476.562 257.812 864
-187.5 -101.562 731
375 85.9375 716
46.875 359.375 796
-203.125 234.375 727
7.8125 -23.4375 767
179.688 281.25 687
-484.375 -15.625 967
273.438 164.062 691
-164.062 -23.4375 774
-312.5 -296.875 3092
-195.312 -117.188 722
351.562 148.438 722
46.875 257.812 693
23.4375 367.188 794
-39.0625 -273.438 845
-125 -210.938 738
-93.75 -117.188 719
-453.125 -125 975
-179.688 -93.75 733
-460.938 -117.188 973
125 -234.375 849
250 70.3125 744
0 -101.562 727
-312.5 218.75 742
-312.5 210.938 736
0 -15.625 773
-101.562 62.5 802
429.688 -242.188 1038
-156.25 -179.688 717
210.938 -265.625 1073
-429.688 281.25 845
-453.125 250 802
93.75 -242.188 825
-46.875 273.438 727
-109.375 250 720
-117.188 -289.062 858
-390.625 -46.875 989
-101.562 -171.875 708
257.812 359.375 747
-429.688 335.938 833
-171.875 -15.625 781
23.4375 265.625 703
-195.312 -125 720
0 -78.125 738
-328.125 -15.625 843
-179.688 -164.062 710
-132.812 -156.25 706
273.438 281.25 671
-476.562 101.562 798
367.188 367.188 734
289.062 156.25 691
70.3125 -234.375 839
-85.9375 -320.312 843
273.438 148.438 690
203.125 -257.812 1063
62.5 257.812 688
78.125 -101.562 849
-101.562 343.75 805
-93.75 343.75 805
7.8125 359.375 796
-257.812 335.938 811
-218.75 437.5 1001
-23.4375 15.625 794
-132.812 -289.062 869
-218.75 234.375 731
-7.8125 -195.312 716
-359.375 132.812 817
-367.188 93.75 802
398.438 -296.875 2744
15.625 46.875 803
-304.688 -296.875 3092
-15.625 250 698
-195.312 226.562 719
-148.438 234.375 713
140.625 -226.562 860
-117.188 -148.438 704
-375 70.3125 811
15.625 -93.75 728
-125 -109.375 723
-93.75 359.375 796
-390.625 -109.375 981
304.688 382.812 769
-414.062 93.75 796
320.312 453.125 738
335.938 54.6875 723
250 93.75 762
-218.75 218.75 720
-156.25 -85.9375 739
-375 46.875 803
171.875 273.438 683
265.625 359.375 746
39.0625 257.812 694
-125 382.812 785
-70.3125 -171.875 704
242.188 273.438 670
265.625 281.25 672
281.25 273.438 666
-171.875 -179.688 719
78.125 265.625 691
-85.9375 0 787
492.188 -250 2680
109.375 -257.812 825
-132.812 -93.75 731
-484.375 -250 3064
-117.188 -23.4375 773
250 273.438 668
-437.5 281.25 847
-304.688 218.75 741
0 250 696
-359.375 -234.375 2933
-273.438 210.938 727
296.875 289.062 674
445.312 250 661
218.75 -265.625 1077
7.8125 257.812 700
-171.875 -93.75 733
125 -156.25 776
-460.938 187.5 798
281.25 289.062 676
-187.5 226.562 717
-31.25 -429.688 889
-93.75 -148.438 704
125 265.625 683
-46.875 257.812 710
-328.125 23.4375 823
187.5 265.625 676
-468.75 -445.312 2256
-46.875 -54.6875 752
39.0625 414.062 767
-304.688 203.125 731
-296.875 304.688 831
382.812 382.812 766
117.188 -328.125 2908
-203.125 382.812 794
-484.375 257.812 864
0 7.8125 787
484.375 -250 2680
-70.3125 -335.938 841
-93.75 54.6875 807
-476.562 234.375 829
132.812 -265.625 829
312.5 273.438 663
-140.625 234.375 713
-125 7.8125 794
171.875 281.25 687
-164.062 -179.688 719
85.9375 -54.6875 871
203.125 -218.75 854
437.5 382.812 762
117.188 -210.938 827
-101.562 -148.438 704
-164.062 -93.75 734
-421.875 257.812 817
-398.438 125 790
-328.125 -382.812 2908
0 -7.8125 780
-429.688 414.062 1223
-85.9375 -148.438 704
-93.75 -351.562 849
203.125 273.438 676
234.375 -195.312 829
-320.312 -335.938 2984
-312.5 -343.75 3037
234.375 273.438 672
-226.562 218.75 722
218.75 273.438 674
265.625 85.9375 749
343.75 281.25 661
-437.5 -39.0625 987
-328.125 -390.625 2908
-54.6875 -398.438 839
-453.125 -210.938 1328
-476.562 226.562 825
140.625 -132.812 771
-359.375 421.875 1016
-437.5 -398.438 2226
-343.75 359.375 821
-453.125 -39.0625 987
359.375 273.438 657
-421.875 85.9375 800
250 85.9375 766
-312.5 -304.688 3092
-406.25 -46.875 989
70.3125 -257.812 831
-23.4375 -328.125 841
-171.875 -62.5 752
-109.375 54.6875 807
-468.75 -31.25 978
62.5 437.5 773
320.312 273.438 662
-328.125 -375 2908
7.8125 265.625 704
7.8125 445.312 1398
-23.4375 39.0625 811
156.25 -78.125 778
117.188 265.625 683
15.625 -195.312 713
-39.0625 -257.812 851
-132.812 -179.688 716
265.625 289.062 678
-93.75 414.062 789
85.9375 -148.438 792
312.5 445.312 741
-156.25 398.438 796
117.188 437.5 761
-359.375 93.75 805
-390.625 109.375 790
-109.375 -171.875 710
-78.125 -31.25 766
7.8125 -39.0625 761
-62.5 -164.062 701
-31.25 250 701
-78.125 -78.125 739
-78.125 -148.438 703
-23.4375 -31.25 764
226.562 273.438 674
-187.5 -85.9375 746
-93.75 242.188 707
-265.625 226.562 738
-500 226.562 823
-101.562 -117.188 719
304.688 -250 1050
164.062 273.438 686
164.062 -125 771
359.375 54.6875 720
312.5 54.6875 738
70.3125 -242.188 837
-226.562 226.562 728
-343.75 210.938 741
-468.75 242.188 833
-460.938 242.188 809
-437.5 -398.438 2226
109.375 265.625 688
-132.812 -62.5 750
-437.5 70.3125 790
0 -187.5 710
375 273.438 655
304.688 140.625 706
-289.062 203.125 730
-304.688 -304.688 3092
-406.25 -125 978
-101.562 -234.375 878
-421.875 70.3125 794
-179.688 437.5 1145
-171.875 226.562 716
85.9375 -164.062 792
85.9375 273.438 698
-468.75 148.438 792
289.062 101.562 717
-132.812 -70.3125 747
-46.875 -132.812 708
-296.875 218.75 738
265.625 70.3125 742
0 -132.812 707
-23.4375 -250 856
-109.375 421.875 790
-421.875 -273.438 2333
-31.25 -281.25 845
-125 -179.688 716
445.312 281.25 648
-62.5 -156.25 701
312.5 281.25 666
-23.4375 -132.812 707
-39.0625 -132.812 708
62.5 -273.438 825
-101.562 234.375 707
-460.938 179.688 798
85.9375 234.375 693
-78.125 -171.875 706
468.75 281.25 647
234.375 453.125 754
140.625 -218.75 860
-453.125 234.375 813
-85.9375 -93.75 730
-273.438 218.75 731
320.312 23.4375 728
-445.312 -226.562 2398
-281.25 210.938 730
375 -242.188 1038
328.125 54.6875 727
-46.875 250 703
390.625 281.25 653
304.688 179.688 683
148.438 -125 773
-343.75 195.312 736
117.188 -125 781
-382.812 -125 967
164.062 -265.625 1077
-7.8125 250 697
62.5 -257.812 898
-54.6875 -328.125 839
-101.562 -101.562 727
-39.0625 -39.0625 762
476.562 273.438 646
-140.625 -179.688 716
171.875 -93.75 773
242.188 93.75 762
101.562 -164.062 776
140.625 -148.438 773
0 257.812 701
171.875 -125 769
-312.5 -351.562 2984
31.25 257.812 696
304.688 265.625 663
-109.375 -148.438 704
125 -210.938 829
-78.125 -93.75 730
156.25 -273.438 1090
320.312 281.25 663
289.062 273.438 664
-437.5 -125 978
-437.5 109.375 789
-62.5 414.062 785
-468.75 -312.5 2241
210.938 -257.812 1063
328.125 281.25 662
257.812 281.25 672
335.938 375 746
-265.625 210.938 727
460.938 289.062 648
-125 242.188 716
78.125 273.438 698
203.125 398.438 769
421.875 289.062 652
140.625 265.625 683
351.562 265.625 658
468.75 289.062 648
-218.75 -195.312 1268
-226.562 234.375 733
7.8125 437.5 780
289.062 289.062 675
320.312 54.6875 731
250 187.5 707
-335.938 203.125 738
-437.5 117.188 787
343.75 382.812 769
-85.9375 -171.875 707
-132.812 406.25 787
328.125 46.875 722
132.812 -226.562 854
304.688 46.875 734
-70.3125 -414.062 839
164.062 281.25 690
-85.9375 -132.812 708
-70.3125 -148.438 703
-101.562 242.188 710
-125 398.438 787
-375 234.375 807
234.375 359.375 752
-492.188 195.312 827
-335.938 -328.125 3010
-179.688 234.375 722
-226.562 -93.75 925
335.938 367.188 739
-382.812 265.625 856
-85.9375 -117.188 717
-359.375 140.625 815
-23.4375 -195.312 717
-7.8125 -70.3125 742
125 -242.188 843
-23.4375 250 698
-171.875 234.375 720
203.125 -265.625 1073
-93.75 -70.3125 744
23.4375 -273.438 862
-242.188 -195.312 1273
-328.125 429.688 1013
-375 -85.9375 933
-140.625 -54.6875 757
-406.25 -85.9375 989
-109.375 -320.312 851
-39.0625 -320.312 839
-31.25 -23.4375 769
-93.75 -171.875 707
-15.625 -304.688 843
-7.8125 265.625 710
296.875 210.938 693
476.562 281.25 646
-468.75 265.625 858
-445.312 -39.0625 987
312.5 140.625 704
-335.938 0 833
70.3125 -234.375 839
78.125 -171.875 800
-500 234.375 875
-109.375 -70.3125 744
312.5 164.062 682
304.688 101.562 713
406.25 296.875 664
242.188 171.875 717
484.375 296.875 650
437.5 289.062 650
-70.3125 -429.688 885
273.438 273.438 667
-171.875 242.188 727
-117.188 -304.688 858
-46.875 -70.3125 742
15.625 -78.125 736
-117.188 46.875 813
-46.875 -78.125 739
257.812 148.438 696
-289.062 289.062 811
-117.188 15.625 802
-148.438 -179.688 716
54.6875 257.812 690
-62.5 -70.3125 742
156.25 281.25 690
406.25 289.062 654
62.5 -250 910
148.438 -156.25 769
-85.9375 -70.3125 744
296.875 -250 1050
-484.375 101.562 800
-492.188 -218.75 1343
-117.188 -109.375 722
-195.312 -117.188 722
93.75 -242.188 825
492.188 289.062 641
-468.75 226.562 823
-125 0 789
-492.188 85.9375 785
195.312 -265.625 1077
148.438 273.438 688
-460.938 -210.938 1322
-390.625 414.062 1025
476.562 289.062 647
-429.688 257.812 815
-148.438 414.062 787
-257.812 328.125 817
289.062 31.25 781
156.25 -93.75 778
101.562 -31.25 854
-117.188 -93.75 731
156.25 273.438 686
-398.438 -93.75 989
-101.562 -93.75 731
-460.938 257.812 807
-78.125 -70.3125 744
-460.938 320.312 829
-437.5 31.25 815
296.875 179.688 687
-93.75 31.25 809
-85.9375 -234.375 869
-367.188 46.875 807
7.8125 62.5 796
-242.188 320.312 821
-242.188 382.812 803
-148.438 234.375 713
-156.25 234.375 713
273.438 125 714
281.25 382.812 769
289.062 210.938 694
164.062 -15.625 837
-250 -195.312 1278
-54.6875 351.562 800
-492.188 351.562 987
-23.4375 -179.688 707
78.125 -234.375 839
-93.75 -148.438 704
484.375 289.062 646
-70.3125 -93.75 730
367.188 -250 1047
-54.6875 -62.5 747
382.812 -242.188 1034
23.4375 257.812 698
-31.25 -328.125 839
-195.312 -125 720
-85.9375 -148.438 704
-437.5 93.75 794
-164.062 31.25 831
429.688 289.062 652
109.375 -281.25 817
132.812 265.625 682
-359.375 -31.25 862
328.125 445.312 738
-445.312 109.375 789
-156.25 46.875 817
-390.625 242.188 809
312.5 46.875 733
453.125 296.875 653
-46.875 -343.75 839
-101.562 -210.938 731
-54.6875 250 704
312.5 382.812 767
-398.438 250 811
296.875 203.125 697
398.438 289.062 655
335.938 23.4375 723
-39.0625 250 703
289.062 -250 1054
-179.688 -46.875 766
-54.6875 257.812 713
-289.062 296.875 821
195.312 273.438 678
445.312 296.875 657
-351.562 304.688 833
-375 265.625 856
468.75 296.875 652
242.188 85.9375 766
-78.125 -148.438 703
-234.375 218.75 723
31.25 265.625 700
-70.3125 -70.3125 742
-171.875 -15.625 781
-406.25 125 790
-328.125 312.5 827
-101.562 -70.3125 744
70.3125 273.438 700
-132.812 -132.812 710
437.5 281.25 649
-15.625 -273.438 851
-359.375 101.562 803
351.562 140.625 728
-203.125 226.562 720
148.438 375 783
-445.312 171.875 796
-500 -15.625 875
70.3125 265.625 694
390.625 367.188 728
-273.438 226.562 738
-445.312 78.125 790
-359.375 -23.4375 851
46.875 -62.5 878
-164.062 15.625 839
-296.875 296.875 835
-492.188 250 867
-93.75 -117.188 719
46.875 257.812 693
257.812 -257.812 1063
-453.125 101.562 792
62.5 265.625 694
39.0625 257.812 694
304.688 281.25 667
-187.5 -93.75 733
343.75 62.5 727
-328.125 -289.062 3120
23.4375 429.688 776
-101.562 -171.875 708
-117.188 -85.9375 738
-335.938 -421.875 2835
265.625 273.438 667
-62.5 -93.75 730
250 281.25 674
-484.375 257.812 864
-359.375 70.3125 815
62.5 273.438 701
-46.875 250 703
-62.5 257.812 714
-31.25 -335.938 839
132.812 -132.812 774
117.188 -164.062 774
187.5 273.438 680
476.562 296.875 652
257.812 382.812 774
-453.125 390.625 933
-242.188 218.75 723
-203.125 398.438 802
390.625 382.812 766
476.562 375 717
-70.3125 -132.812 708
-343.75 -15.625 843
-320.312 203.125 734
218.75 -132.812 771
-492.188 203.125 827
367.188 148.438 720
164.062 -125 771
281.25 -257.812 1063
328.125 351.562 723
-31.25 -257.812 854
171.875 390.625 774
-398.438 54.6875 798
-328.125 -421.875 2835
125 -226.562 854
23.4375 -343.75 854
289.062 132.812 711
0 54.6875 800
460.938 -195.312 981
93.75 -265.625 821
-476.562 -343.75 2198
-453.125 54.6875 805
195.312 -218.75 860
125 265.625 683
-351.562 -7.8125 839
-328.125 -7.8125 833
-296.875 367.188 811
257.812 289.062 680
125 -234.375 849
-31.25 250 701
-328.125 203.125 734
203.125 -257.812 1063
93.75 265.625 690
-148.438 -93.75 733
-54.6875 421.875 785
-85.9375 -187.5 716
-54.6875 -187.5 711
70.3125 0 833
-421.875 -421.875 2317
-375 117.188 835
156.25 375 783
-70.3125 -109.375 720
-359.375 117.188 803
429.688 281.25 650
296.875 -257.812 1060
-78.125 -171.875 706
-460.938 125 785
-328.125 23.4375 823
125 -164.062 774
-210.938 234.375 728
343.75 453.125 736
-101.562 242.188 710
93.75 -140.625 790
250 289.062 680
351.562 101.562 723
-70.3125 -148.438 703
-148.438 -343.75 894
320.312 101.562 711
421.875 453.125 728
-164.062 242.188 727
-492.188 -312.5 3178
101.562 265.625 688
484.375 281.25 646
109.375 265.625 688
-156.25 -179.688 717
109.375 -132.812 783
54.6875 -234.375 918
-171.875 -132.812 713
-109.375 -93.75 731
-132.812 -179.688 716
-140.625 -70.3125 747
-23.4375 -304.688 843
-367.188 101.562 800
-484.375 117.188 796
218.75 -203.125 849
-351.562 195.312 811
203.125 273.438 676
78.125 -210.938 827
250 195.312 703
484.375 382.812 722
148.438 281.25 690
-351.562 210.938 811
-101.562 -187.5 719
-289.062 210.938 731
-70.3125 39.0625 811
492.188 281.25 641
453.125 281.25 648
-312.5 218.75 742
-109.375 -328.125 851
140.625 273.438 688
-179.688 398.438 800
-125 445.312 1169
257.812 156.25 694
-195.312 226.562 719
-85.9375 -171.875 707
257.812 273.438 668
-109.375 -156.25 704
-54.6875 250 704
406.25 273.438 652
93.75 -195.312 847
437.5 296.875 657
234.375 382.812 774
398.438 296.875 664
375 140.625 725
179.688 273.438 680
-367.188 -62.5 908
-187.5 -78.125 913
-101.562 -117.188 719
117.188 265.625 683
-109.375 242.188 711
-328.125 -414.062 2835
-320.312 -398.438 2883
312.5 70.3125 727
-328.125 296.875 837
218.75 273.438 674
-164.062 -85.9375 741
-54.6875 250 704
-476.562 257.812 864
304.688 -250 1050
148.438 -125 773
171.875 -125 769
-78.125 250 710
-320.312 218.75 746
-390.625 257.812 813
-70.3125 257.812 716
-62.5 -148.438 701
-320.312 -367.188 2933
359.375 -250 1047
-31.25 -367.188 843
468.75 281.25 647
85.9375 -148.438 792
273.438 78.125 742
-78.125 257.812 717
-335.938 -15.625 843
-125 -179.688 716
273.438 289.062 676
15.625 0 781
0 -242.188 869
-328.125 -429.688 2812
367.188 289.062 662
-500 359.375 1001
-359.375 171.875 805
-468.75 273.438 851
-351.562 0 835
210.938 273.438 674
265.625 187.5 706
-156.25 54.6875 811
484.375 312.5 662
7.8125 -132.812 707
296.875 257.812 666
39.0625 -375 875
-125 250 722
-335.938 -468.75 2723
242.188 453.125 750
-140.625 -179.688 716
179.688 -164.062 843
460.938 296.875 653
257.812 453.125 749
-468.75 140.625 787
125 429.688 759
-421.875 117.188 787
0 265.625 708
-500 93.75 781
-70.3125 -398.438 841
273.438 93.75 759
-156.25 414.062 1227
-429.688 117.188 787
289.062 281.25 670
273.438 117.188 720
-156.25 234.375 713
-476.562 234.375 829
31.25 257.812 696
-281.25 -304.688 3149
382.812 289.062 658
-101.562 23.4375 802
85.9375 -265.625 821
382.812 296.875 666
0 -304.688 847
-296.875 210.938 733
-78.125 -367.188 845
140.625 -125 774
-148.438 234.375 713
-15.625 15.625 794
-132.812 250 723
320.312 148.438 686
15.625 -320.312 849
-187.5 234.375 723
-93.75 -171.875 707
-390.625 62.5 803
-62.5 0 787
492.188 -125 908
210.938 -210.938 851
15.625 257.812 698
156.25 437.5 754
-23.4375 -414.062 843
-78.125 -46.875 759
-320.312 -343.75 3010
-15.625 46.875 807
-54.6875 62.5 800
-7.8125 257.812 704
93.75 437.5 767
132.812 -62.5 792
-453.125 171.875 798
359.375 46.875 720
171.875 273.438 683
335.938 281.25 661
335.938 453.125 736
-367.188 78.125 809
70.3125 -234.375 835
-101.562 -406.25 851
-492.188 179.688 835
226.562 281.25 670
492.188 359.375 680
-23.4375 -328.125 841
125 -156.25 774
367.188 -242.188 1044
-250 218.75 723
-187.5 390.625 790
195.312 -257.812 1067
-132.812 242.188 710
-109.375 -312.5 849
382.812 125 708
-406.25 343.75 825
-46.875 46.875 809
289.062 -257.812 1063
359.375 39.0625 717
429.688 445.312 731
-156.25 406.25 796
335.938 62.5 722
125 -218.75 854
-453.125 250 837
-39.0625 250 698
125 -265.625 827
-429.688 -265.625 2349
187.5 -234.375 854
109.375 -273.438 817
179.688 453.125 754
-62.5 -164.062 703
-273.438 210.938 727
-62.5 429.688 787
-70.3125 -93.75 727
375 148.438 723
-195.312 -109.375 725
-148.438 -85.9375 734
7.8125 -117.188 710
-335.938 0 835
-453.125 -62.5 984
-109.375 414.062 789
-70.3125 429.688 787
-70.3125 -85.9375 731
-343.75 23.4375 823
-320.312 210.938 734
-93.75 -85.9375 731
-140.625 -62.5 746
-140.625 343.75 809
-132.812 -62.5 746
421.875 281.25 649
-500 234.375 825
-132.812 0 783
-15.625 -39.0625 755
-31.25 -46.875 750
-484.375 -210.938 1333
-164.062 234.375 713
93.75 -242.188 823
-437.5 -210.938 1328
421.875 -242.188 1041
-132.812 -148.438 704
-62.5 -195.312 720
406.25 281.25 650
281.25 273.438 664
-39.0625 -70.3125 739
-93.75 -62.5 742
445.312 -234.375 1028
-148.438 -335.938 887
7.8125 367.188 794
-140.625 23.4375 800
-328.125 -453.125 2812
-328.125 23.4375 825
-304.688 367.188 809
289.062 140.625 714
242.188 289.062 672
23.4375 257.812 693
-257.812 382.812 805
257.812 70.3125 741
140.625 375 783
-476.562 93.75 785
414.062 281.25 649
257.812 125 716
-218.75 328.125 819
101.562 -171.875 785
359.375 289.062 657
390.625 296.875 655
117.188 -179.688 831
-23.4375 437.5 785
-234.375 226.562 722
-218.75 -93.75 928
-234.375 234.375 730
203.125 460.938 754
-375 -93.75 943
85.9375 -257.812 821
351.562 289.062 657
375 289.062 653
0 359.375 800
109.375 -132.812 778
15.625 31.25 798
-484.375 226.562 825
23.4375 445.312 773
-500 125 964
46.875 273.438 697
-343.75 257.812 864
226.562 382.812 776
-93.75 -132.812 706
54.6875 273.438 694
-273.438 375 803
-187.5 -78.125 741
-195.312 -117.188 719
-125 7.8125 789
132.812 273.438 680
-7.8125 46.875 805
484.375 265.625 650
-312.5 203.125 733
429.688 296.875 648
70.3125 -171.875 817
-164.062 -70.3125 742
-187.5 -70.3125 744
85.9375 -210.938 835
-109.375 242.188 706
-328.125 210.938 734
492.188 312.5 644
85.9375 -195.312 827
406.25 296.875 652
164.062 -7.8125 835
-101.562 -335.938 847
-54.6875 -273.438 845
187.5 -265.625 1077
-117.188 -195.312 728
-460.938 93.75 790
-460.938 101.562 794
-484.375 85.9375 787
-31.25 46.875 809
-367.188 -54.6875 906
93.75 367.188 790
445.312 281.25 648
-179.688 -39.0625 759
-125 -109.375 719
-453.125 78.125 790
382.812 281.25 652
375 296.875 657
0 46.875 807
-203.125 226.562 717
-312.5 -335.938 2984
132.812 281.25 684
164.062 -210.938 869
195.312 273.438 672
-156.25 343.75 809
296.875 -250 1054
273.438 281.25 666
-164.062 23.4375 835
484.375 -125 908
-375 351.562 821
-62.5 -85.9375 730
-85.9375 -273.438 849
23.4375 -78.125 730
-429.688 78.125 794
-453.125 85.9375 790
-468.75 85.9375 789
15.625 -312.5 851
15.625 -257.812 862
-132.812 70.3125 802
7.8125 31.25 798
164.062 273.438 678
226.562 273.438 670
-140.625 406.25 792
-335.938 273.438 851
125 -226.562 843
-15.625 257.812 698
-85.9375 -62.5 741
15.625 -62.5 741
-62.5 250 700
-117.188 -218.75 898
-132.812 -93.75 727
-31.25 15.625 789
250 101.562 761
7.8125 265.625 697
23.4375 7.8125 781
-257.812 218.75 727
289.062 382.812 774
-320.312 -382.812 2908
296.875 218.75 691
-31.25 -179.688 713
140.625 281.25 683
-23.4375 -54.6875 747
93.75 265.625 683
195.312 -265.625 1080
320.312 203.125 697
-351.562 218.75 741
-375 78.125 809
85.9375 -39.0625 862
-210.938 226.562 719
-265.625 226.562 731
-62.5 359.375 800
-226.562 -195.312 1273
328.125 -250 1054
93.75 -140.625 783
226.562 289.062 675
93.75 -171.875 787
-312.5 -234.375 2958
250 382.812 776
-132.812 -218.75 913
351.562 125 738
437.5 281.25 647
-179.688 242.188 720
125 -164.062 829
-195.312 375 792
-343.75 203.125 739
-70.3125 -109.375 714
-328.125 -437.5 2789
-359.375 -23.4375 858
335.938 445.312 738
78.125 -218.75 841
-492.188 250 869
-171.875 -179.688 723
-117.188 242.188 707
7.8125 257.812 693
-421.875 101.562 794
-23.4375 -257.812 849
-437.5 250 809
164.062 460.938 761
125 281.25 688
-101.562 -195.312 727
15.625 257.812 693
-78.125 -85.9375 731
-281.25 210.938 727
-343.75 421.875 1013
-85.9375 54.6875 811
-476.562 250 833
-164.062 -289.062 906
218.75 281.25 671
-156.25 31.25 811
-62.5 -109.375 714
320.312 54.6875 723
-320.312 46.875 987
132.812 375 785
15.625 375 789
-54.6875 -70.3125 738
296.875 281.25 663
-195.312 -109.375 725
101.562 -218.75 827
-265.625 414.062 948
-140.625 250 720
101.562 382.812 783
156.25 -226.562 862
484.375 289.062 642
-117.188 -156.25 704
-226.562 390.625 794
-234.375 -195.312 1278
-335.938 296.875 839
-85.9375 250 703
-101.562 -78.125 734
70.3125 -179.688 821
-31.25 -54.6875 747
125 -148.438 774
-171.875 242.188 719
46.875 265.625 690
-140.625 -359.375 894
-117.188 15.625 794
-226.562 234.375 727
85.9375 265.625 683
-78.125 62.5 803
-93.75 0 781
281.25 281.25 664
187.5 273.438 674
179.688 273.438 675
23.4375 281.25 707
125 273.438 680
-414.062 109.375 789
-468.75 320.312 831
-312.5 23.4375 978
328.125 23.4375 725
-328.125 218.75 742
-85.9375 -171.875 710
-132.812 46.875 817
210.938 281.25 674
-476.562 164.062 803
101.562 265.625 683
93.75 -257.812 821
273.438 195.312 706
171.875 -15.625 839
-171.875 -117.188 717
-359.375 164.062 809
-492.188 312.5 835
437.5 453.125 728
187.5 437.5 749
-421.875 390.625 1004
468.75 289.062 646
140.625 390.625 776
-390.625 78.125 809
-39.0625 250 698
-382.812 -117.188 967
-445.312 93.75 798
-15.625 265.625 701
-343.75 171.875 749
367.188 296.875 657
375 281.25 653
-226.562 265.625 757
78.125 265.625 684
289.062 -250 1057
164.062 -226.562 860
367.188 281.25 655
-359.375 335.938 817
156.25 281.25 680
125 -257.812 831
390.625 78.125 746
-367.188 421.875 1016
-351.562 187.5 741
484.375 -234.375 2744
382.812 312.5 667
343.75 289.062 657
289.062 148.438 710
-23.4375 -296.875 843
273.438 148.438 690
-281.25 226.562 734
62.5 -289.062 825
273.438 203.125 701
-62.5 -164.062 703
-242.188 226.562 723
-109.375 -195.312 727
-484.375 257.812 867
359.375 125 722
289.062 70.3125 736
0 -132.812 703
125 -195.312 827
-117.188 -281.25 858
-23.4375 257.812 698
304.688 31.25 733
-414.062 -125 978
-54.6875 250 700
-476.562 156.25 798
15.625 -304.688 849
-78.125 -187.5 717
-437.5 328.125 827
398.438 296.875 655
296.875 78.125 725
476.562 289.062 644
-460.938 328.125 833
109.375 265.625 683
15.625 -54.6875 744
62.5 -257.812 835
93.75 -265.625 819
-453.125 125 785
250 257.812 672
257.812 187.5 708
-132.812 -148.438 704
-218.75 226.562 720
-117.188 -179.688 717
-351.562 421.875 1013
70.3125 265.625 686
257.812 281.25 666
-421.875 179.688 796
78.125 -85.9375 841
-382.812 -468.75 2522
7.8125 -375 860
312.5 281.25 661
-492.188 187.5 833
492.188 289.062 640
437.5 -234.375 1031
382.812 78.125 749
-437.5 -31.25 981
382.812 281.25 652
-171.875 234.375 714
-85.9375 257.812 710
250 281.25 667
-109.375 -375 864
7.8125 -101.562 720
328.125 54.6875 720
437.5 289.062 647
335.938 62.5 722
203.125 273.438 672
335.938 289.062 658
-156.25 -70.3125 742
-289.062 218.75 730
320.312 289.062 661
7.8125 -85.9375 727
-320.312 218.75 739
-171.875 -7.8125 778
289.062 101.562 716
-343.75 203.125 739
-460.938 -289.062 2286
-179.688 343.75 809
-398.438 -132.812 978
-31.25 -421.875 887
-156.25 234.375 710
-15.625 -54.6875 747
-101.562 414.062 789
109.375 -46.875 805
-62.5 -398.438 835
320.312 445.312 739
-7.8125 -31.25 761
328.125 101.562 713
351.562 296.875 661
257.812 101.562 759
125 -117.188 776
164.062 273.438 678
-93.75 -367.188 849
-203.125 390.625 796
-406.25 -125 978
476.562 281.25 646
351.562 281.25 657
203.125 281.25 675
7.8125 -109.375 716
-85.9375 -39.0625 757
-320.312 281.25 849
359.375 132.812 734
312.5 54.6875 728
85.9375 -257.812 821
-351.562 0 835
-351.562 0 835
-70.3125 250 703
85.9375 -273.438 819
-445.312 -218.75 1322
-335.938 -414.062 2812
328.125 289.062 659
429.688 289.062 647
156.25 273.438 678
-320.312 -351.562 2958
281.25 164.062 688
-54.6875 23.4375 794
-7.8125 265.625 700
-23.4375 265.625 706
-125 -218.75 903
23.4375 -234.375 878
-62.5 -101.562 720
78.125 -210.938 829
-164.062 234.375 713
-23.4375 -62.5 742
-414.062 78.125 794
132.812 -125 771
-140.625 242.188 710
-320.312 203.125 734
-117.188 343.75 809
-382.812 78.125 809
125 -203.125 827
281.25 -250 1054
-70.3125 -54.6875 747
-453.125 -257.812 2349
296.875 156.25 697
-359.375 78.125 815
-195.312 -101.562 728
-414.062 156.25 807
-328.125 273.438 851
156.25 -164.062 821
-101.562 -367.188 854
-281.25 328.125 819
265.625 367.188 741
-187.5 -70.3125 744
476.562 -250 2744
-31.25 257.812 700
-93.75 -250 860
476.562 382.812 711
265.625 382.812 774
296.875 140.625 710
101.562 7.8125 829
171.875 273.438 676
0 -156.25 698
117.188 -156.25 781
-187.5 242.188 722
-164.062 351.562 805
93.75 -164.062 787
-375 273.438 854
109.375 351.562 762
460.938 289.062 646
-54.6875 -179.688 711
-281.25 296.875 811
-390.625 85.9375 803
187.5 -257.812 1067
343.75 62.5 720
-31.25 -132.812 704
257.812 203.125 701
304.688 187.5 679
0 257.812 696
-484.375 179.688 833
-304.688 210.938 731
7.8125 257.812 693
-101.562 -171.875 711
328.125 62.5 723
-406.25 398.438 1010
-23.4375 367.188 796
-460.938 109.375 789
-7.8125 -15.625 767
-117.188 242.188 707
39.0625 265.625 693
15.625 445.312 776
-7.8125 257.812 698
-281.25 398.438 930
148.438 390.625 776
70.3125 -234.375 835
-109.375 78.125 796
0 367.188 794
-62.5 46.875 809
195.312 281.25 676
46.875 273.438 697
-335.938 -445.312 2789
367.188 156.25 717
-179.688 -46.875 757
-70.3125 351.562 803
-93.75 -273.438 851
351.562 70.3125 723
109.375 429.688 759
-85.9375 39.0625 807
367.188 390.625 764
-39.0625 -273.438 843
125 -218.75 854
-382.812 -234.375 2933
-312.5 -312.5 3010
109.375 -218.75 827
-335.938 -429.688 2812
343.75 140.625 730
343.75 296.875 661
203.125 289.062 680
-70.3125 -62.5 741
226.562 -312.5 2859
218.75 289.062 676
-62.5 421.875 783
-93.75 -171.875 710
-195.312 234.375 717
-125 -203.125 738
101.562 0 831
-500 234.375 825
109.375 273.438 684
62.5 -7.8125 841
187.5 -125 764
335.938 312.5 678
-78.125 -31.25 762
-31.25 -93.75 725
101.562 -148.438 781
265.625 62.5 741
-70.3125 257.812 710
-234.375 -242.188 2984
23.4375 257.812 693
-273.438 226.562 733
-179.688 -39.0625 759
-414.062 226.562 802
-359.375 -15.625 851
195.312 -257.812 1067
-101.562 -39.0625 759
-62.5 -367.188 843
-70.3125 7.8125 785
-15.625 -328.125 843
367.188 -242.188 1044
-31.25 250 698
-70.3125 -148.438 700
265.625 281.25 666
93.75 -257.812 821
-78.125 -398.438 839
421.875 289.062 648
-148.438 242.188 714
-195.312 -109.375 725
-78.125 -109.375 717
70.3125 -226.562 841
242.188 101.562 761
-367.188 109.375 802
-15.625 -132.812 704
-492.188 -242.188 3037
-101.562 -320.312 847
-453.125 242.188 813
359.375 296.875 659
335.938 296.875 664
-203.125 234.375 719
39.0625 273.438 697
125 -210.938 854
-445.312 -234.375 2381
468.75 351.562 686
-476.562 265.625 860
-468.75 257.812 869
-78.125 257.812 710
132.812 281.25 684
-156.25 54.6875 815
335.938 31.25 720
39.0625 -250 880
359.375 281.25 657
-492.188 242.188 825
117.188 -171.875 831
-390.625 343.75 821
93.75 -187.5 849
-85.9375 -281.25 847
-257.812 320.312 823
210.938 289.062 678
351.562 101.562 727
101.562 -156.25 783
281.25 140.625 711
320.312 70.3125 730
-195.312 -101.562 728
78.125 265.625 684
445.312 289.062 647
242.188 382.812 776
109.375 -203.125 827
-70.3125 -203.125 722
70.3125 265.625 686
-125 -70.3125 741
125 -140.625 773
0 -140.625 697
367.188 304.688 667
15.625 429.688 771
-312.5 -359.375 2933
-468.75 156.25 798
-132.812 7.8125 790
-500 226.562 825
398.438 289.062 652
54.6875 367.188 794
414.062 289.062 649
-335.938 218.75 741
203.125 359.375 747
-335.938 156.25 755
-398.438 -78.125 989
-312.5 -351.562 2958
-23.4375 250 697
-39.0625 -179.688 711
-296.875 70.3125 809
343.75 281.25 657
343.75 148.438 727
-62.5 250 700
359.375 46.875 716
343.75 125 717
-335.938 359.375 813
-195.312 242.188 723
468.75 -179.688 967
148.438 273.438 678
0 -125 707
304.688 54.6875 731
-125 -164.062 708
140.625 -125 769
85.9375 265.625 683
-289.062 359.375 805
-164.062 31.25 833
351.562 39.0625 717
375 125 711
-335.938 -437.5 2789
-421.875 148.438 843
210.938 -218.75 845
-468.75 109.375 790
-328.125 31.25 975
15.625 39.0625 800
195.312 289.062 682
7.8125 -31.25 759
39.0625 281.25 704
70.3125 -156.25 803
-320.312 -390.625 2883
429.688 304.688 653
328.125 281.25 658
-46.875 -7.8125 774
-148.438 -62.5 746
-132.812 -62.5 746
-85.9375 7.8125 787
-210.938 226.562 719
234.375 93.75 766
304.688 289.062 663
406.25 289.062 650
-203.125 421.875 1054
-179.688 -31.25 759
-234.375 234.375 730
-93.75 398.438 780
15.625 257.812 693
-140.625 250 720
-351.562 187.5 741
-62.5 -156.25 700
93.75 -250 821
-85.9375 351.562 805
109.375 281.25 691
-187.5 -62.5 903
101.562 -125 783
-437.5 -437.5 2226
62.5 265.625 687
382.812 289.062 652
31.25 -382.812 880
296.875 289.062 666
109.375 375 789
-23.4375 -382.812 851
265.625 164.062 688
289.062 289.062 667
54.6875 273.438 694
7.8125 -23.4375 762
-62.5 -101.562 720
-171.875 0 789
-375 -78.125 923
179.688 273.438 675
-359.375 109.375 809
187.5 281.25 676
-484.375 226.562 825
-328.125 -296.875 3092
351.562 62.5 719
-242.188 218.75 722
-187.5 351.562 803
312.5 296.875 670
-335.938 0 835
-398.438 93.75 796
-78.125 250 703
-335.938 148.438 755
-367.188 54.6875 809
140.625 273.438 679
-195.312 -93.75 925
-39.0625 62.5 802
-367.188 85.9375 807
164.062 375 785
-125 242.188 708
117.188 375 787
93.75 -15.625 845
250 203.125 701
46.875 382.812 785
265.625 195.312 706
-132.812 -203.125 738
-445.312 351.562 940
-445.312 367.188 940
101.562 273.438 684
140.625 -85.9375 781
351.562 281.25 657
-195.312 -101.562 728
296.875 101.562 714
320.312 281.25 661
273.438 375 747
-70.3125 250 703
93.75 -31.25 858
-109.375 62.5 807
-117.188 -382.812 875
125 -125 774
343.75 70.3125 723
-328.125 132.812 771
-39.0625 257.812 700
304.688 406.25 761
31.25 265.625 694
70.3125 -226.562 841
468.75 -171.875 956
-31.25 -62.5 742
328.125 62.5 723
101.562 -132.812 781
-15.625 23.4375 794
312.5 156.25 684
93.75 -23.4375 847
-140.625 -148.438 704
335.938 101.562 714
-164.062 234.375 713
101.562 -164.062 785
-445.312 -210.938 1322
-109.375 -296.875 851
-148.438 406.25 794
-101.562 406.25 781
-460.938 242.188 825
-210.938 328.125 819
375 289.062 653
0 -117.188 710
23.4375 -312.5 854
-320.312 -398.438 2835
93.75 -242.188 823
359.375 148.438 727
-54.6875 46.875 809
-289.062 54.6875 821
-109.375 -179.688 716
-304.688 304.688 835
265.625 140.625 711
93.75 -265.625 819
-54.6875 -93.75 725
273.438 273.438 666
-492.188 250 869
15.625 -39.0625 754
-164.062 414.062 800
-367.188 -46.875 896
-390.625 250 809
31.25 273.438 700
7.8125 429.688 771
-15.625 257.812 698
125 -234.375 843
-46.875 -320.312 837
-93.75 257.812 711
70.3125 -187.5 823
125 -187.5 829
70.3125 -250 837
117.188 -320.312 2933
335.938 281.25 658
156.25 273.438 678
-156.25 -93.75 728
328.125 390.625 767
-296.875 218.75 733
437.5 -242.188 1038
-289.062 -335.938 3064
-367.188 273.438 851
171.875 273.438 676
-250 218.75 723
476.562 -148.438 930
164.062 273.438 678
93.75 -250 821
78.125 -226.562 841
351.562 289.062 657
-335.938 7.8125 835
-382.812 -109.375 962
304.688 281.25 662
0 -148.438 697
-468.75 -312.5 2226
375 132.812 714
-85.9375 -7.8125 774
312.5 85.9375 717
-70.3125 -164.062 703
-54.6875 359.375 798
85.9375 -257.812 821
156.25 -125 767
-156.25 -281.25 894
15.625 -23.4375 762
125 -195.312 827
70.3125 -101.562 854
93.75 -257.812 821
0 -101.562 720
-210.938 312.5 811
226.562 281.25 670
-453.125 -265.625 2333
203.125 -210.938 851
-78.125 -109.375 717
-187.5 -62.5 903
-460.938 375 933
-109.375 -62.5 742
367.188 289.062 655
-125 54.6875 813
242.188 460.938 749
7.8125 -62.5 741
414.062 -296.875 2723
-117.188 -210.938 734
-468.75 101.562 800
-484.375 -210.938 1333
453.125 289.062 647
-31.25 15.625 789
-289.062 210.938 728
-171.875 234.375 714
148.438 -226.562 860
218.75 281.25 671
-187.5 -70.3125 744
218.75 453.125 747
0 257.812 696
367.188 281.25 655
-484.375 109.375 796
7.8125 -93.75 722
-367.188 109.375 802
-195.312 -93.75 925
-46.875 39.0625 805
-39.0625 39.0625 805
328.125 281.25 658
359.375 289.062 657
-132.812 0 783
-31.25 -304.688 841
-453.125 312.5 831
-164.062 39.0625 825
-351.562 62.5 817
78.125 -203.125 827
273.438 117.188 720
421.875 382.812 727
-179.688 -31.25 759
15.625 54.6875 802
304.688 148.438 701
39.0625 -257.812 871
78.125 -140.625 796
125 -179.688 829
-320.312 429.688 998
117.188 281.25 690
-164.062 390.625 789
-148.438 -289.062 880
140.625 -320.312 2908
-289.062 226.562 736
-117.188 -367.188 867
-203.125 -125 959
273.438 289.062 667
0 -250 860
335.938 62.5 722
-250 406.25 930
257.812 156.25 691
343.75 289.062 657
0 -109.375 716
62.5 -250 835
-437.5 -304.688 2271
390.625 289.062 652
125 -148.438 774
-460.938 -296.875 2271
-453.125 187.5 796
320.312 31.25 725
179.688 281.25 679
265.625 101.562 757
7.8125 -117.188 710
140.625 -140.625 771
-304.688 -335.938 3037
-382.812 -117.188 967
-445.312 109.375 792
-453.125 -210.938 1322
109.375 -148.438 778
-140.625 -148.438 704
-484.375 93.75 785
-265.625 -335.938 3064
335.938 132.812 714
218.75 -312.5 2859
-281.25 -335.938 3037
-132.812 242.188 710
132.812 -320.312 2908
0 -171.875 707
-273.438 -335.938 3064
-140.625 -156.25 708
-70.3125 -273.438 845
-234.375 -335.938 3037
257.812 78.125 738
179.688 -132.812 764
-335.938 148.438 757
-343.75 164.062 750
281.25 195.312 706
-257.812 218.75 723
-351.562 234.375 817
375 85.9375 746
-468.75 117.188 790
-101.562 250 704
-39.0625 265.625 704
62.5 265.625 686
296.875 296.875 662
289.062 281.25 662
234.375 281.25 666
218.75 460.938 746
-296.875 -335.938 3064
-218.75 -335.938 3010
125 -320.312 2908
-343.75 -320.312 3092
62.5 -265.625 831
85.9375 -203.125 837
39.0625 -210.938 910
171.875 -218.75 858
250 -171.875 790
234.375 -187.5 823
-101.562 -39.0625 754
-187.5 -54.6875 749
0 -125 701
250 195.312 708
70.3125 265.625 684
-148.438 250 714
203.125 289.062 672
-85.9375 250 703
78.125 265.625 683
375 250 671
289.062 164.062 700
-195.312 -85.9375 730
-62.5 -179.688 716
15.625 46.875 802
-421.875 85.9375 794
0 -156.25 698
250 101.562 762
296.875 281.25 661
187.5 289.062 672
328.125 453.125 736
335.938 164.062 719
312.5 39.0625 727
250 93.75 741
-31.25 265.625 701
7.8125 -125 701
-203.125 242.188 719
70.3125 -195.312 825
-171.875 7.8125 785
-320.312 -359.375 2958
289.062 140.625 714
-250 -335.938 3037
-367.188 78.125 817
-218.75 226.562 717
304.688 296.875 662
-445.312 -210.938 1322
-328.125 226.562 741
-328.125 -453.125 2767
-171.875 -62.5 744
7.8125 23.4375 785
421.875 375 710
-437.5 -320.312 2226
0 -140.625 696
-312.5 -359.375 2958
-351.562 414.062 1001
-500 -414.062 2103
85.9375 445.312 764
15.625 23.4375 785
-335.938 -320.312 3010
-453.125 -351.562 2170
-23.4375 -46.875 746
46.875 -226.562 908
367.188 445.312 736
148.438 -320.312 2908
-335.938 -203.125 1297
242.188 -312.5 2835
-359.375 117.188 807
257.812 179.688 683
-179.688 -23.4375 769
117.188 -171.875 829
351.562 289.062 654
85.9375 -250 821
-328.125 -304.688 3092
-210.938 -335.938 3010
-210.938 -335.938 3010
-109.375 -335.938 849
-468.75 -320.312 2212
-117.188 -296.875 851
367.188 78.125 717
140.625 -117.188 769
-359.375 -15.625 854
-343.75 421.875 1010
62.5 -242.188 833
93.75 445.312 762
312.5 93.75 714
226.562 445.312 744
125 -15.625 845
-328.125 -398.438 2835
-250 226.562 723
-46.875 -179.688 714
-289.062 -335.938 3064
-382.812 406.25 1007
-171.875 -109.375 717
-312.5 93.75 796
375 93.75 744
335.938 289.062 655
-156.25 242.188 710
367.188 62.5 716
0 -164.062 703
-101.562 31.25 796
-273.438 414.062 943
226.562 -312.5 2835
242.188 281.25 666
148.438 -132.812 766
85.9375 -187.5 843
-492.188 164.062 805
101.562 -132.812 780
312.5 -304.688 2767
0 -132.812 697
328.125 62.5 719
-312.5 296.875 841
-242.188 234.375 725
171.875 437.5 752
-23.4375 -320.312 841
-289.062 46.875 827
