ply
format ascii 1.0
comment Created by Open3D
element vertex 2319
property double x
property double y
property double z
end_header
46.875 62.5 1105
-85.9375 234.375 1536
-31.25 195.312 1292
54.6875 203.125 1288
-429.688 -46.875 1097
-93.75 328.125 1609
-265.625 -179.688 1060
-78.125 328.125 1616
-382.812 -281.25 1077
-164.062 -273.438 1415
218.75 -164.062 1387
218.75 78.125 1115
-289.062 -31.25 1097
187.5 -343.75 3300
93.75 250 1579
-210.938 46.875 1105
-203.125 -265.625 1206
-273.438 125 1722
-265.625 -39.0625 1087
109.375 234.375 1601
-140.625 -109.375 1268
-39.0625 265.625 1536
-242.188 -234.375 1130
0 -195.312 1398
-125 250 1496
-390.625 -39.0625 1105
-62.5 -234.375 1387
-31.25 203.125 1292
-296.875 -148.438 1028
31.25 203.125 1288
-15.625 140.625 1223
-476.562 -421.875 1161
-390.625 187.5 1663
70.3125 250 1586
-7.8125 70.3125 1105
85.9375 -203.125 1376
78.125 343.75 1609
-101.562 257.812 1564
-62.5 242.188 1557
-312.5 -156.25 1041
-101.562 171.875 1273
-304.688 -31.25 1101
-148.438 54.6875 1105
-46.875 -226.562 1387
85.9375 273.438 1550
-476.562 117.188 1813
-70.3125 195.312 1288
-218.75 31.25 1112
-320.312 -31.25 1101
85.9375 70.3125 1105
-93.75 46.875 1112
-414.062 -257.812 1097
62.5 -218.75 1365
187.5 -187.5 1410
-445.312 179.688 1739
-500 -226.562 1108
-70.3125 62.5 1105
23.4375 -210.938 1381
-62.5 62.5 1101
-46.875 132.812 1210
-492.188 218.75 1477
46.875 273.438 1557
-117.188 250 1496
23.4375 226.562 1609
78.125 273.438 1550
-54.6875 132.812 1210
-328.125 -39.0625 1097
117.188 70.3125 1108
-304.688 179.688 1647
-414.062 -164.062 1044
125 -328.125 1250
-171.875 179.688 1292
476.562 -429.688 3010
-156.25 164.062 1283
-335.938 -132.812 1019
70.3125 257.812 1572
78.125 250 1579
-257.812 -31.25 1101
39.0625 62.5 1105
-421.875 15.625 1101
-453.125 -382.812 1202
23.4375 -156.25 1349
-195.312 242.188 1483
-484.375 -382.812 1173
-398.438 7.8125 1105
-148.438 234.375 1509
-15.625 179.688 1197
-359.375 -281.25 1087
-7.8125 242.188 1579
-351.562 -31.25 1105
-312.5 179.688 1647
-23.4375 195.312 1288
-23.4375 242.188 1594
-265.625 -109.375 1031
-148.438 226.562 1516
-54.6875 218.75 1529
117.188 210.938 1288
31.25 195.312 1283
-39.0625 242.188 1586
62.5 195.312 1278
-148.438 39.0625 1112
-398.438 -179.688 1057
-140.625 250 1489
-7.8125 265.625 1564
-281.25 -39.0625 1087
-179.688 39.0625 1108
296.875 -328.125 3269
-500 132.812 1415
-210.938 265.625 1489
-265.625 -39.0625 1087
-203.125 -156.25 1250
-390.625 39.0625 1105
-304.688 -156.25 1041
-85.9375 242.188 1550
15.625 273.438 1550
78.125 195.312 1273
-375 23.4375 1101
-15.625 242.188 1579
117.188 257.812 1572
-31.25 265.625 1543
-23.4375 54.6875 1112
-437.5 -54.6875 1094
140.625 257.812 1365
148.438 85.9375 1101
-15.625 250 1564
-93.75 -320.312 1564
0 335.938 1616
-382.812 15.625 1101
-343.75 -242.188 1119
-500 23.4375 1105
62.5 62.5 1108
-500 85.9375 1398
-273.438 -39.0625 1087
-109.375 234.375 1516
23.4375 242.188 1579
140.625 70.3125 1108
93.75 -195.312 1381
0 265.625 1564
-367.188 -265.625 1084
-335.938 -265.625 1177
39.0625 250 1594
78.125 281.25 1543
-257.812 39.0625 1101
-429.688 -164.062 1044
93.75 85.9375 1094
-359.375 -46.875 1087
-312.5 210.938 1647
-148.438 164.062 1273
-468.75 85.9375 1853
-453.125 164.062 1748
-148.438 195.312 1516
-78.125 265.625 1536
-484.375 -101.562 1047
-15.625 320.312 1632
78.125 257.812 1557
-281.25 171.875 1671
-437.5 -250 1097
-414.062 -382.812 1141
46.875 -382.812 1214
-23.4375 218.75 1616
328.125 85.9375 1115
-39.0625 195.312 1288
-101.562 328.125 1609
484.375 343.75 1873
-23.4375 179.688 1197
-164.062 250 1564
-70.3125 257.812 1557
46.875 210.938 1288
-476.562 -382.812 1177
-242.188 -31.25 1105
-351.562 -46.875 1087
187.5 -289.062 3365
-335.938 171.875 1639
7.8125 203.125 1288
117.188 195.312 1268
-101.562 -320.312 1564
39.0625 273.438 1564
-320.312 -39.0625 1097
-39.0625 -226.562 1387
-23.4375 203.125 1288
39.0625 203.125 1288
-234.375 -250 1157
7.8125 218.75 1609
-140.625 257.812 1489
70.3125 195.312 1278
-296.875 54.6875 1112
-250 -31.25 1105
-140.625 234.375 1503
-406.25 -429.688 3092
-195.312 250 1470
-242.188 54.6875 1112
62.5 234.375 1586
-242.188 195.312 1359
54.6875 195.312 1283
85.9375 250 1579
273.438 -210.938 1483
62.5 78.125 1101
-93.75 226.562 1516
-54.6875 187.5 1283
-132.812 257.812 1489
-460.938 -382.812 1177
242.188 93.75 1105
46.875 -218.75 1365
-109.375 250 1523
62.5 226.562 1601
242.188 187.5 1250
-7.8125 250 1564
0 164.062 1197
-351.562 46.875 1108
484.375 -179.688 2680
156.25 85.9375 1101
-78.125 242.188 1557
-343.75 -265.625 1090
62.5 -375 1219
-429.688 -54.6875 1090
-203.125 242.188 1483
85.9375 273.438 1550
-468.75 -382.812 1173
-242.188 156.25 1273
-273.438 203.125 1671
210.938 242.188 1317
85.9375 281.25 1543
-382.812 7.8125 1108
-429.688 15.625 1101
54.6875 273.438 1564
-492.188 -156.25 1031
-390.625 -398.438 1177
-23.4375 226.562 1594
-31.25 -218.75 1392
-328.125 15.625 1108
-367.188 -218.75 1087
-320.312 125 1713
179.688 70.3125 1108
-468.75 7.8125 1097
-429.688 140.625 1785
0 70.3125 1105
-328.125 -140.625 1019
-421.875 -164.062 1044
-156.25 39.0625 1112
-484.375 7.8125 1097
70.3125 234.375 1579
7.8125 140.625 1214
-281.25 -148.438 1031
-390.625 -218.75 1070
-234.375 -242.188 1145
-390.625 -140.625 1019
-343.75 125 1680
-210.938 156.25 1278
7.8125 265.625 1550
289.062 85.9375 1112
31.25 140.625 1206
-31.25 242.188 1594
195.312 78.125 1112
-203.125 156.25 1273
320.312 93.75 1108
226.562 78.125 1112
0 140.625 1214
-7.8125 242.188 1579
39.0625 210.938 1288
15.625 140.625 1214
-398.438 -164.062 1044
46.875 -375 1219
-312.5 125 1722
-265.625 171.875 1663
70.3125 78.125 1101
-437.5 0 1112
46.875 273.438 1557
-101.562 234.375 1516
-218.75 156.25 1278
-406.25 132.812 1776
78.125 250 1579
460.938 78.125 2333
398.438 -312.5 3269
-351.562 -140.625 1022
-164.062 39.0625 1112
-46.875 218.75 1586
-23.4375 382.812 1804
-148.438 359.375 1594
-492.188 -54.6875 1094
31.25 210.938 1288
-101.562 257.812 1564
-382.812 -289.062 1077
-429.688 273.438 1609
-289.062 203.125 1624
62.5 250 1579
-125 -375 3300
-195.312 46.875 1105
-156.25 -406.25 1433
-265.625 187.5 1647
187.5 273.438 1381
179.688 -343.75 3269
-78.125 62.5 1105
148.438 195.312 1264
-289.062 54.6875 1112
-367.188 15.625 1105
-15.625 218.75 1609
-320.312 -140.625 1019
-296.875 -7.8125 1134
-328.125 117.188 1713
-375 -140.625 1019
0 62.5 1105
-476.562 -54.6875 1094
-62.5 312.5 1632
226.562 179.688 1241
-382.812 -421.875 3178
-7.8125 273.438 1536
-234.375 -54.6875 1123
-257.812 -54.6875 1080
-187.5 -195.312 1312
15.625 335.938 1624
-140.625 -148.438 1307
-289.062 -414.062 1433
-132.812 250 1489
-187.5 312.5 1616
-78.125 234.375 1543
-437.5 -195.312 1044
-195.312 242.188 1483
0 242.188 1572
-70.3125 -7.8125 1165
-132.812 234.375 1503
-156.25 210.938 1529
117.188 -265.625 1312
62.5 -367.188 1227
-78.125 218.75 1516
171.875 179.688 1245
31.25 226.562 1609
85.9375 398.438 1680
234.375 367.188 1843
15.625 -226.562 1370
281.25 -328.125 3300
132.812 70.3125 1108
-171.875 187.5 1292
-492.188 -164.062 1041
-39.0625 242.188 1586
179.688 -289.062 3365
-242.188 187.5 1288
85.9375 195.312 1273
-62.5 -242.188 1381
-359.375 46.875 1112
-179.688 242.188 1572
132.812 398.438 1632
7.8125 187.5 1273
-156.25 250 1557
-187.5 242.188 1564
-54.6875 179.688 1273
-226.562 -125 1141
484.375 -398.438 2812
0 265.625 1564
15.625 187.5 1268
78.125 273.438 1550
-7.8125 179.688 1268
-39.0625 203.125 1288
-85.9375 234.375 1536
171.875 171.875 1236
-273.438 242.188 1663
-15.625 226.562 1609
-31.25 203.125 1292
-7.8125 140.625 1214
70.3125 250 1586
-492.188 187.5 1439
-234.375 93.75 1202
101.562 195.312 1268
-343.75 46.875 1108
109.375 195.312 1268
-46.875 179.688 1273
-406.25 -164.062 1044
-7.8125 265.625 1564
-70.3125 257.812 1557
140.625 382.812 1594
140.625 -281.25 1302
-492.188 54.6875 1392
-398.438 -218.75 1070
39.0625 -203.125 1381
-62.5 367.188 1601
0 250 1564
-93.75 257.812 1564
23.4375 140.625 1210
-23.4375 265.625 1572
-203.125 31.25 1112
304.688 179.688 2143
-101.562 265.625 1536
109.375 -62.5 1189
492.188 -328.125 2883
-500 164.062 1415
203.125 234.375 1317
-445.312 -218.75 1041
-421.875 -54.6875 1087
70.3125 226.562 1601
-414.062 -156.25 1034
-203.125 335.938 1601
-296.875 117.188 1722
39.0625 -382.812 1214
-78.125 203.125 1288
39.0625 195.312 1283
-335.938 117.188 1713
-367.188 -421.875 1445
-375 -421.875 1445
-70.3125 62.5 1105
93.75 -203.125 1376
54.6875 -203.125 1381
-140.625 54.6875 1105
-62.5 187.5 1288
-62.5 359.375 1594
-390.625 195.312 1663
117.188 234.375 1601
-445.312 101.562 1853
-445.312 -46.875 1101
-500 -164.062 1031
46.875 250 1579
-492.188 -375 1028
-257.812 304.688 1616
-375 -281.25 1084
62.5 343.75 1616
0 54.6875 1112
-62.5 234.375 1557
85.9375 171.875 1236
-7.8125 187.5 1278
-406.25 -39.0625 1101
-140.625 320.312 1616
273.438 -328.125 3300
-171.875 -250 1338
312.5 101.562 1105
-406.25 210.938 1696
-429.688 210.938 1663
85.9375 250 1579
-210.938 -250 1177
-164.062 -281.25 1398
-70.3125 265.625 1529
164.062 -429.688 1165
-367.188 -226.562 1087
31.25 203.125 1288
-242.188 203.125 1387
-429.688 -23.4375 1130
46.875 -203.125 1381
-367.188 31.25 1101
109.375 218.75 1288
179.688 289.062 1404
-312.5 31.25 1105
-312.5 46.875 1105
-31.25 195.312 1292
93.75 195.312 1273
125 93.75 1101
242.188 -281.25 3365
-46.875 -164.062 1343
304.688 -312.5 3300
-78.125 46.875 1112
-351.562 -39.0625 1097
-414.062 -54.6875 1087
-492.188 -62.5 1087
-132.812 320.312 1616
101.562 273.438 1564
109.375 429.688 1722
54.6875 -375 1219
148.438 93.75 1101
62.5 234.375 1586
-210.938 -171.875 1185
-476.562 7.8125 1097
54.6875 210.938 1288
-132.812 390.625 1766
-109.375 359.375 1594
70.3125 382.812 1601
-453.125 15.625 1097
-54.6875 78.125 1105
-234.375 46.875 1105
148.438 -343.75 1241
-375 -156.25 1034
-343.75 164.062 1655
-320.312 117.188 1713
-234.375 117.188 1232
-312.5 -39.0625 1094
-359.375 -226.562 1080
289.062 -39.0625 1241
-421.875 -281.25 1202
-62.5 257.812 1557
-132.812 359.375 1594
-429.688 -39.0625 1112
-367.188 -164.062 1047
-7.8125 117.188 1193
-335.938 210.938 1639
-335.938 -39.0625 1097
39.0625 203.125 1288
-226.562 -15.625 1157
62.5 226.562 1601
-406.25 164.062 1776
484.375 -203.125 2701
-382.812 -39.0625 1101
-421.875 -265.625 1177
-398.438 -265.625 1080
171.875 -265.625 1550
-23.4375 -234.375 1370
-187.5 250 1536
148.438 -265.625 1317
-187.5 -414.062 1433
-359.375 -421.875 1445
-273.438 210.938 1663
78.125 250 1579
-273.438 23.4375 1108
7.8125 164.062 1193
-390.625 -46.875 1090
-164.062 62.5 1108
-335.938 -46.875 1087
-70.3125 242.188 1557
-414.062 -46.875 1094
-7.8125 242.188 1579
7.8125 -140.625 1317
-421.875 -187.5 1047
476.562 -343.75 3092
7.8125 265.625 1550
78.125 234.375 1579
31.25 195.312 1283
179.688 148.438 1202
-273.438 117.188 1731
-148.438 351.562 1594
-250 -31.25 1105
-460.938 -398.438 1185
-460.938 203.125 1680
132.812 -54.6875 1232
-460.938 -39.0625 1108
-351.562 203.125 1639
15.625 -210.938 1381
-179.688 -351.562 1333
-304.688 31.25 1105
54.6875 273.438 1564
-296.875 -140.625 1019
-273.438 -31.25 1097
-484.375 218.75 1671
-406.25 -23.4375 1134
234.375 210.938 1259
-414.062 -195.312 1041
-460.938 -46.875 1097
7.8125 70.3125 1105
93.75 171.875 1236
-242.188 -31.25 1105
-421.875 -46.875 1094
39.0625 -195.312 1392
-132.812 -46.875 1197
0 -210.938 1387
-148.438 210.938 1523
-312.5 -140.625 1019
-445.312 -390.625 1206
85.9375 257.812 1572
-265.625 39.0625 1105
-289.062 -7.8125 1134
-203.125 296.875 1550
46.875 203.125 1288
125 296.875 1445
-234.375 -109.375 1145
101.562 281.25 1536
-93.75 351.562 1594
-375 -39.0625 1101
-500 187.5 1439
-468.75 -31.25 1130
-195.312 156.25 1273
7.8125 250 1564
78.125 257.812 1557
-421.875 -15.625 1123
-156.25 62.5 1108
109.375 -54.6875 1189
117.188 -195.312 1398
-101.562 226.562 1509
-31.25 265.625 1543
-476.562 -382.812 1177
39.0625 257.812 1564
-265.625 -101.562 1034
-421.875 -296.875 1193
-93.75 -320.312 1564
-398.438 156.25 1680
-226.562 -132.812 1169
-390.625 -265.625 1084
-132.812 54.6875 1105
-15.625 195.312 1292
125 -54.6875 1202
-109.375 328.125 1609
78.125 226.562 1543
70.3125 195.312 1278
-117.188 70.3125 1108
-390.625 -132.812 1019
-70.3125 234.375 1564
-101.562 -218.75 1415
-445.312 -382.812 1214
-476.562 164.062 1680
-132.812 250 1489
195.312 117.188 1108
-468.75 -382.812 1173
-156.25 398.438 1748
-304.688 -148.438 1025
-398.438 195.312 1722
-15.625 218.75 1609
-148.438 328.125 1609
78.125 101.562 1101
-312.5 -31.25 1101
-195.312 85.9375 1185
148.438 257.812 1365
0 242.188 1572
234.375 156.25 1210
15.625 203.125 1292
-281.25 171.875 1671
-140.625 203.125 1516
-78.125 23.4375 1130
-23.4375 335.938 1609
-476.562 -23.4375 1126
-187.5 351.562 1594
-203.125 257.812 1483
-367.188 101.562 1748
-320.312 -23.4375 1105
-31.25 -210.938 1404
-484.375 -54.6875 1097
62.5 273.438 1564
39.0625 242.188 1594
54.6875 351.562 1609
-187.5 242.188 1564
85.9375 -23.4375 1189
-125 437.5 1696
171.875 132.812 1185
-500 -62.5 1090
-62.5 265.625 1536
-359.375 23.4375 1101
-7.8125 226.562 1609
-93.75 234.375 1529
-203.125 312.5 1579
15.625 265.625 1550
187.5 -289.062 3365
-7.8125 218.75 1609
-109.375 320.312 1624
-54.6875 -234.375 1387
-148.438 257.812 1536
-492.188 7.8125 1097
-7.8125 54.6875 1112
234.375 78.125 1112
-125 257.812 1529
70.3125 226.562 1601
-375 -46.875 1087
-54.6875 257.812 1557
-132.812 257.812 1489
46.875 -164.062 1354
-164.062 242.188 1564
-179.688 218.75 1594
-328.125 -46.875 1087
-156.25 70.3125 1112
-398.438 -46.875 1090
70.3125 62.5 1108
-445.312 -226.562 1119
-187.5 218.75 1594
-257.812 -46.875 1087
-382.812 -156.25 1034
-328.125 31.25 1101
156.25 226.562 1328
164.062 85.9375 1101
320.312 85.9375 1112
-335.938 -46.875 1087
-23.4375 242.188 1594
62.5 195.312 1278
-468.75 7.8125 1097
93.75 250 1579
-23.4375 -218.75 1392
-406.25 -54.6875 1087
-343.75 -140.625 1019
93.75 78.125 1094
85.9375 273.438 1550
156.25 -367.188 1219
-492.188 -367.188 1028
-453.125 265.625 1616
-156.25 195.312 1523
85.9375 250 1579
117.188 328.125 1529
-484.375 -164.062 1041
62.5 359.375 1601
78.125 203.125 1288
-15.625 54.6875 1112
-281.25 54.6875 1112
-101.562 250 1557
-203.125 -242.188 1177
132.812 -257.812 1322
-23.4375 203.125 1288
148.438 359.375 1536
-343.75 289.062 1616
-125 250 1496
-476.562 -164.062 1044
93.75 273.438 1564
-375 -148.438 1025
-62.5 257.812 1557
-54.6875 195.312 1288
-171.875 242.188 1564
-62.5 62.5 1101
93.75 257.812 1564
164.062 -437.5 1153
46.875 203.125 1288
-398.438 31.25 1105
39.0625 195.312 1283
-195.312 -281.25 1241
-125 54.6875 1105
-484.375 62.5 1863
-39.0625 304.688 1639
-187.5 304.688 1624
-281.25 -31.25 1097
-367.188 -156.25 1034
-62.5 242.188 1557
-250 203.125 1696
-70.3125 257.812 1557
-31.25 179.688 1193
15.625 164.062 1197
70.3125 85.9375 1101
7.8125 335.938 1624
0 265.625 1564
15.625 70.3125 1105
-195.312 203.125 1483
46.875 195.312 1283
-484.375 156.25 1671
101.562 210.938 1292
-359.375 -164.062 1044
-39.0625 -218.75 1392
-445.312 265.625 1616
109.375 273.438 1564
109.375 273.438 1564
-93.75 250 1557
-304.688 -132.812 1016
-492.188 257.812 1616
39.0625 226.562 1616
101.562 343.75 1616
-23.4375 265.625 1572
-320.312 46.875 1108
-187.5 31.25 1115
-15.625 -218.75 1387
-421.875 171.875 1663
-257.812 179.688 1288
15.625 273.438 1550
-125 320.312 1616
62.5 85.9375 1105
-70.3125 46.875 1112
-109.375 226.562 1509
54.6875 195.312 1283
-234.375 85.9375 1197
-46.875 62.5 1101
-31.25 242.188 1594
-218.75 210.938 1392
-15.625 265.625 1572
-117.188 54.6875 1105
-203.125 242.188 1483
-304.688 -39.0625 1097
54.6875 250 1579
-62.5 234.375 1557
257.812 132.812 1181
484.375 -429.688 2723
-304.688 31.25 1105
46.875 -367.188 1236
-148.438 250 1489
414.062 171.875 2156
101.562 273.438 1564
54.6875 -382.812 1214
-304.688 210.938 1647
179.688 125 1177
-265.625 -39.0625 1087
-382.812 210.938 1680
-85.9375 257.812 1564
-382.812 -46.875 1090
70.3125 -359.375 1232
148.438 250 1365
-156.25 187.5 1288
-218.75 -148.438 1169
7.8125 54.6875 1112
31.25 242.188 1586
0 226.562 1609
-46.875 -242.188 1370
-265.625 132.812 1713
101.562 -218.75 1354
-273.438 195.312 1639
492.188 -218.75 2701
-148.438 195.312 1516
-46.875 -429.688 1206
23.4375 218.75 1616
-421.875 -210.938 1050
-390.625 -164.062 1044
39.0625 -210.938 1370
-15.625 203.125 1292
-320.312 -39.0625 1097
46.875 242.188 1586
-429.688 -257.812 1097
-23.4375 250 1557
-265.625 148.438 1705
187.5 125 1181
257.812 148.438 1197
-109.375 250 1523
476.562 -148.438 2933
-468.75 -164.062 1041
-351.562 -156.25 1034
-382.812 -164.062 1044
39.0625 -382.812 1214
257.812 78.125 1115
-460.938 7.8125 1097
156.25 70.3125 1108
-70.3125 218.75 1523
-437.5 -46.875 1101
-187.5 46.875 1105
7.8125 242.188 1586
-328.125 171.875 1655
-54.6875 234.375 1586
-375 -164.062 1044
54.6875 203.125 1288
-195.312 31.25 1112
93.75 226.562 1543
-484.375 -62.5 1087
-250 117.188 1223
335.938 85.9375 1119
62.5 250 1579
-328.125 -46.875 1087
-390.625 -156.25 1034
-328.125 -132.812 1019
46.875 265.625 1557
23.4375 70.3125 1105
-257.812 54.6875 1108
-382.812 39.0625 1105
-414.062 109.375 1843
-7.8125 218.75 1609
-476.562 -7.8125 1108
23.4375 335.938 1624
125 289.062 1458
-351.562 -421.875 1452
-250 -31.25 1105
-15.625 -140.625 1312
-39.0625 -226.562 1387
70.3125 -62.5 1197
-195.312 156.25 1273
171.875 85.9375 1105
70.3125 -203.125 1381
-421.875 15.625 1101
101.562 171.875 1236
-187.5 218.75 1594
156.25 343.75 1509
-242.188 -31.25 1105
-125 39.0625 1115
-164.062 179.688 1288
15.625 265.625 1550
54.6875 -367.188 1232
-46.875 257.812 1564
-54.6875 62.5 1101
-460.938 265.625 1616
-460.938 -164.062 1041
31.25 218.75 1616
0 218.75 1609
-93.75 226.562 1516
476.562 -437.5 3010
62.5 273.438 1564
93.75 250 1579
210.938 218.75 1297
-171.875 312.5 1624
-23.4375 242.188 1594
15.625 250 1564
304.688 101.562 1108
-187.5 156.25 1273
335.938 101.562 1105
-140.625 328.125 1609
-101.562 203.125 1509
-500 117.188 1398
-500 -171.875 1041
406.25 -312.5 3238
62.5 210.938 1292
-437.5 31.25 1108
-85.9375 234.375 1536
-31.25 273.438 1543
250 132.812 1181
-367.188 23.4375 1101
398.438 203.125 2103
179.688 156.25 1214
-171.875 -382.812 1392
-132.812 234.375 1503
-78.125 218.75 1516
-179.688 250 1536
-289.062 117.188 1722
-343.75 164.062 1655
-351.562 23.4375 1101
101.562 250 1586
-15.625 242.188 1579
-406.25 -140.625 1019
195.312 101.562 1108
-101.562 226.562 1509
0 242.188 1572
-312.5 242.188 1647
15.625 242.188 1586
250 242.188 2040
-492.188 -62.5 1087
85.9375 234.375 1601
-54.6875 257.812 1557
-62.5 234.375 1557
-382.812 -15.625 1134
93.75 281.25 1536
-429.688 -117.188 1034
15.625 187.5 1268
-195.312 273.438 1523
-406.25 23.4375 1101
-70.3125 234.375 1564
-398.438 -234.375 1070
-343.75 -156.25 1034
125 -218.75 1359
-179.688 46.875 1105
101.562 62.5 1112
-312.5 39.0625 1105
-242.188 39.0625 1105
-117.188 250 1496
-351.562 156.25 1655
39.0625 218.75 1616
242.188 140.625 1189
-93.75 234.375 1529
7.8125 250 1564
-125 250 1496
109.375 273.438 1564
343.75 85.9375 1115
-414.062 -242.188 1087
23.4375 203.125 1292
296.875 78.125 1119
78.125 226.562 1543
273.438 -273.438 1572
-437.5 -367.188 1119
-414.062 -54.6875 1087
-85.9375 257.812 1564
320.312 132.812 1112
-54.6875 265.625 1536
-226.562 -78.125 1219
-62.5 257.812 1557
-273.438 54.6875 1112
-351.562 -164.062 1044
-265.625 -109.375 1031
-406.25 15.625 1101
-265.625 125 1722
70.3125 257.812 1572
-414.062 -296.875 1197
-453.125 -382.812 1202
-148.438 -375 1427
-125 234.375 1503
-320.312 -70.3125 1067
78.125 234.375 1579
-31.25 218.75 1624
-179.688 226.562 1564
-109.375 54.6875 1105
-234.375 23.4375 1115
-187.5 226.562 1564
-320.312 -46.875 1087
-312.5 -46.875 1087
-210.938 -296.875 1227
-203.125 242.188 1483
281.25 125 1112
-273.438 148.438 1713
164.062 78.125 1105
-476.562 -429.688 1161
-210.938 -304.688 1241
-15.625 265.625 1572
390.625 78.125 2349
85.9375 226.562 1543
78.125 62.5 1108
109.375 281.25 1529
70.3125 359.375 1601
-62.5 46.875 1108
78.125 359.375 1601
7.8125 179.688 1268
-406.25 -54.6875 1087
-390.625 -257.812 1080
31.25 203.125 1288
54.6875 210.938 1288
164.062 70.3125 1108
-437.5 210.938 1639
-343.75 54.6875 1115
7.8125 273.438 1523
-453.125 414.062 1663
-343.75 -421.875 1452
265.625 -328.125 3300
-132.812 -375 3300
0 250 1564
-343.75 15.625 1105
367.188 -304.688 3269
-429.688 140.625 1785
39.0625 335.938 1624
-23.4375 132.812 1214
31.25 335.938 1624
-296.875 -39.0625 1094
-328.125 171.875 1655
-101.562 70.3125 1105
23.4375 265.625 1550
312.5 -125 1338
-492.188 -171.875 1047
117.188 -203.125 1376
54.6875 203.125 1288
-312.5 -140.625 1019
15.625 54.6875 1112
-382.812 328.125 1794
-156.25 335.938 1594
-7.8125 -210.938 1387
179.688 85.9375 1105
-179.688 -226.562 1302
492.188 -296.875 2744
70.3125 273.438 1550
101.562 257.812 1586
-23.4375 179.688 1197
85.9375 257.812 1572
-132.812 39.0625 1115
-460.938 -382.812 1177
46.875 226.562 1616
-429.688 -195.312 1050
-500 -375 1028
-320.312 39.0625 1105
31.25 -375 1223
-54.6875 242.188 1564
-156.25 304.688 1624
-476.562 304.688 1586
-289.062 54.6875 1112
46.875 -210.938 1370
62.5 203.125 1288
-304.688 117.188 1722
70.3125 210.938 1292
-398.438 -54.6875 1084
-85.9375 101.562 1185
-343.75 -164.062 1044
-171.875 46.875 1105
-70.3125 335.938 1601
242.188 78.125 1115
273.438 -312.5 3333
-23.4375 195.312 1288
109.375 250 1579
343.75 -312.5 3269
-117.188 257.812 1496
-7.8125 -382.812 1227
-250 -421.875 3178
-179.688 218.75 1594
-476.562 -62.5 1087
78.125 273.438 1550
-281.25 117.188 1731
-273.438 171.875 1663
-109.375 62.5 1105
-460.938 117.188 1804
78.125 210.938 1288
-54.6875 257.812 1557
62.5 195.312 1278
-234.375 39.0625 1105
156.25 195.312 1264
-328.125 -140.625 1019
93.75 234.375 1624
109.375 414.062 1680
312.5 195.312 2116
-382.812 -140.625 1019
-78.125 257.812 1557
101.562 78.125 1097
101.562 78.125 1097
367.188 -54.6875 2659
-500 0 1090
-179.688 312.5 1616
93.75 250 1579
-312.5 203.125 1616
-54.6875 234.375 1586
-23.4375 -421.875 1202
109.375 210.938 1288
-7.8125 203.125 1292
-187.5 218.75 1594
-265.625 218.75 1680
117.188 437.5 1731
54.6875 234.375 1586
304.688 -304.688 3300
-382.812 234.375 1671
-460.938 85.9375 1853
117.188 85.9375 1101
101.562 281.25 1536
-304.688 31.25 1105
101.562 273.438 1564
-304.688 242.188 1655
46.875 195.312 1283
-195.312 195.312 1302
-335.938 46.875 1108
-62.5 242.188 1557
-7.8125 -218.75 1381
-335.938 125 1688
-328.125 242.188 1647
-70.3125 218.75 1523
-15.625 195.312 1292
-429.688 -265.625 1177
226.562 179.688 1241
-320.312 117.188 1713
-31.25 195.312 1292
7.8125 242.188 1586
-414.062 -375 1141
62.5 250 1579
265.625 93.75 1108
46.875 -382.812 1214
-234.375 78.125 1189
-468.75 117.188 1813
187.5 85.9375 1108
-429.688 132.812 1785
-328.125 -39.0625 1097
-31.25 -421.875 1206
62.5 -367.188 1227
-140.625 234.375 1503
-484.375 257.812 1616
-117.188 359.375 1594
-351.562 -132.812 1019
15.625 242.188 1586
-62.5 234.375 1557
-156.25 242.188 1557
-101.562 320.312 1624
-453.125 -164.062 1038
171.875 70.3125 1108
-164.062 218.75 1579
-468.75 164.062 1713
-289.062 109.375 1722
-328.125 125 1713
-195.312 -265.625 1236
-335.938 -46.875 1087
-187.5 156.25 1273
-453.125 171.875 1731
-15.625 226.562 1609
15.625 265.625 1550
-187.5 250 1536
0 218.75 1609
101.562 421.875 1705
-257.812 -46.875 1087
-468.75 171.875 1713
-476.562 -281.25 1193
242.188 -281.25 3365
-164.062 257.812 1543
-367.188 7.8125 1112
-156.25 234.375 1543
-70.3125 125 1210
-164.062 187.5 1288
93.75 7.8125 1161
-273.438 -156.25 1034
-101.562 62.5 1105
46.875 164.062 1236
-242.188 62.5 1115
-46.875 234.375 1586
-445.312 328.125 1776
-375 -15.625 1130
195.312 -289.062 3365
-179.688 242.188 1572
320.312 -85.9375 1302
-109.375 257.812 1523
7.8125 218.75 1609
46.875 132.812 1197
-375 -140.625 1019
-273.438 -164.062 1044
-7.8125 242.188 1579
85.9375 226.562 1543
-445.312 -164.062 1038
-414.062 226.562 1680
-62.5 210.938 1516
54.6875 195.312 1283
-187.5 195.312 1307
-429.688 171.875 1671
-304.688 -421.875 3178
-453.125 187.5 1705
85.9375 62.5 1108
23.4375 242.188 1579
179.688 148.438 1202
-429.688 187.5 1680
-31.25 132.812 1214
93.75 203.125 1283
-367.188 187.5 1671
-117.188 39.0625 1115
117.188 -62.5 1197
101.562 226.562 1550
-54.6875 46.875 1108
164.062 132.812 1185
148.438 367.188 1564
-414.062 148.438 1757
109.375 171.875 1236
-148.438 304.688 1632
-132.812 218.75 1509
-484.375 179.688 1680
148.438 -335.938 1245
273.438 93.75 1108
-343.75 -39.0625 1097
-117.188 250 1496
492.188 -398.438 2812
-164.062 289.062 1647
-328.125 414.062 1688
-46.875 257.812 1564
-320.312 -46.875 1087
70.3125 203.125 1288
-85.9375 250 1557
85.9375 -195.312 1387
-437.5 -203.125 1044
-148.438 -46.875 1193
-359.375 -109.375 1031
-437.5 179.688 1671
-437.5 203.125 1639
-148.438 335.938 1594
109.375 250 1579
-140.625 250 1489
101.562 250 1586
31.25 -203.125 1387
-421.875 -257.812 1097
-320.312 242.188 1647
-195.312 242.188 1483
-296.875 -23.4375 1105
-117.188 234.375 1509
-328.125 46.875 1112
-218.75 46.875 1105
117.188 117.188 1177
-367.188 -265.625 1084
78.125 226.562 1543
-289.062 -39.0625 1087
70.3125 250 1586
-70.3125 359.375 1594
0 265.625 1564
23.4375 265.625 1550
-179.688 156.25 1268
-31.25 265.625 1543
-445.312 -398.438 1202
-171.875 250 1572
-414.062 -31.25 1115
-359.375 -15.625 1134
23.4375 250 1579
62.5 -203.125 1381
-148.438 62.5 1105
15.625 226.562 1609
265.625 78.125 1115
203.125 70.3125 1123
-140.625 226.562 1516
-7.8125 265.625 1564
-445.312 7.8125 1097
23.4375 70.3125 1105
210.938 70.3125 1123
-15.625 242.188 1579
-46.875 70.3125 1101
-226.562 39.0625 1108
-312.5 -46.875 1087
109.375 78.125 1101
23.4375 54.6875 1115
-335.938 -421.875 1452
-328.125 -421.875 1452
-359.375 140.625 1655
109.375 273.438 1564
-85.9375 234.375 1536
140.625 375 1579
265.625 210.938 2090
132.812 -101.562 1173
39.0625 195.312 1283
-62.5 218.75 1536
-390.625 -54.6875 1084
-398.438 31.25 1105
-46.875 46.875 1108
-250 23.4375 1112
-179.688 226.562 1564
-343.75 23.4375 1101
85.9375 273.438 1550
117.188 210.938 1288
-179.688 218.75 1594
-171.875 218.75 1594
-132.812 351.562 1594
-281.25 54.6875 1112
62.5 203.125 1288
-375 -289.062 1084
-343.75 -23.4375 1108
156.25 -390.625 1197
-328.125 171.875 1655
195.312 85.9375 1108
-476.562 -171.875 1044
54.6875 226.562 1624
257.812 -281.25 3399
-484.375 -31.25 1126
109.375 62.5 1112
-31.25 62.5 1105
-70.3125 257.812 1557
-93.75 187.5 1288
117.188 78.125 1101
-195.312 -273.438 1241
23.4375 273.438 1550
-171.875 242.188 1564
-210.938 31.25 1108
-31.25 242.188 1594
93.75 226.562 1543
31.25 -382.812 1214
-367.188 -164.062 1047
-437.5 -164.062 1041
-468.75 -62.5 1084
-54.6875 234.375 1586
-148.438 242.188 1523
-46.875 234.375 1586
-187.5 203.125 1594
23.4375 -226.562 1359
15.625 187.5 1268
226.562 210.938 1283
-343.75 164.062 1655
0 203.125 1288
-328.125 -164.062 1044
-62.5 210.938 1516
-148.438 46.875 1105
-476.562 117.188 1813
-148.438 226.562 1516
-23.4375 218.75 1616
195.312 -343.75 3269
-23.4375 62.5 1105
-109.375 250 1523
-289.062 203.125 1624
-15.625 132.812 1210
-7.8125 -234.375 1370
54.6875 -179.688 1381
78.125 273.438 1550
-421.875 156.25 1776
-460.938 -62.5 1084
54.6875 -210.938 1370
-93.75 250 1557
-492.188 93.75 1398
-476.562 164.062 1680
-398.438 -429.688 3149
7.8125 218.75 1609
-351.562 -148.438 1025
39.0625 265.625 1564
-289.062 -164.062 1047
-179.688 195.312 1543
-15.625 195.312 1292
23.4375 -140.625 1312
203.125 -289.062 1579
-500 -148.438 1028
-125 218.75 1523
-54.6875 257.812 1564
23.4375 242.188 1550
62.5 -375 1227
-171.875 226.562 1572
171.875 304.688 1452
31.25 70.3125 1105
140.625 -109.375 1288
-312.5 -421.875 1439
-46.875 257.812 1564
-179.688 203.125 1594
-132.812 250 1496
304.688 -328.125 3269
109.375 250 1564
93.75 359.375 1601
-320.312 203.125 1663
15.625 242.188 1550
31.25 203.125 1292
15.625 250 1550
-296.875 -421.875 1439
39.0625 203.125 1288
-289.062 31.25 1108
-78.125 195.312 1516
-101.562 54.6875 1108
-39.0625 257.812 1564
-187.5 195.312 1483
273.438 132.812 2226
-421.875 -85.9375 1070
101.562 187.5 1283
-195.312 -281.25 1241
117.188 250 1557
-343.75 148.438 1671
-78.125 39.0625 1108
-210.938 -289.062 1210
-273.438 -156.25 1031
-445.312 -171.875 1041
109.375 257.812 1557
-250 -31.25 1101
-359.375 -156.25 1028
62.5 367.188 1609
-78.125 234.375 1564
-460.938 -164.062 1038
-31.25 156.25 1202
85.9375 226.562 1632
-453.125 7.8125 1105
-257.812 -164.062 1044
-46.875 -226.562 1404
-242.188 226.562 1439
-15.625 179.688 1288
-500 109.375 1404
-445.312 -54.6875 1105
-117.188 -375 3300
31.25 265.625 1543
-7.8125 242.188 1564
-304.688 296.875 1609
-46.875 242.188 1564
-164.062 -226.562 1415
312.5 -320.312 3300
453.125 -304.688 3208
-429.688 -210.938 1050
39.0625 70.3125 1105
-46.875 328.125 1609
-31.25 179.688 1292
-312.5 39.0625 1115
-70.3125 242.188 1564
-414.062 406.25 1680
85.9375 359.375 1601
-164.062 312.5 1616
289.062 -203.125 1458
-304.688 -46.875 1101
-281.25 195.312 1655
39.0625 -382.812 1223
-125 234.375 1496
109.375 187.5 1283
7.8125 226.562 1594
0 242.188 1564
-78.125 218.75 1536
203.125 85.9375 1108
-62.5 218.75 1572
-179.688 31.25 1112
-7.8125 132.812 1223
39.0625 218.75 1601
-320.312 -421.875 1445
85.9375 210.938 1557
250 132.812 1189
0 226.562 1594
15.625 218.75 1609
-289.062 -421.875 1439
-445.312 -140.625 1028
-460.938 156.25 1748
-164.062 242.188 1536
-406.25 203.125 1705
-54.6875 242.188 1564
117.188 273.438 1557
-226.562 -265.625 1173
54.6875 -203.125 1404
-296.875 -46.875 1101
117.188 -70.3125 1197
-335.938 203.125 1639
-257.812 -54.6875 1087
-468.75 -171.875 1041
-54.6875 210.938 1550
-109.375 257.812 1529
78.125 -203.125 1392
46.875 70.3125 1105
-78.125 70.3125 1112
-31.25 257.812 1696
0 195.312 1297
85.9375 273.438 1536
109.375 234.375 1579
-382.812 -54.6875 1101
93.75 62.5 1105
195.312 250 1359
-296.875 -132.812 1022
257.812 187.5 2129
-468.75 -148.438 1028
-15.625 218.75 1594
-468.75 -406.25 1169
-468.75 85.9375 1863
-62.5 171.875 1283
-257.812 -62.5 1084
31.25 250 1550
250 -335.938 3300
-148.438 218.75 1516
-31.25 -218.75 1410
31.25 273.438 1543
31.25 148.438 1197
39.0625 -367.188 1245
-46.875 234.375 1564
93.75 187.5 1283
-234.375 109.375 1245
-39.0625 234.375 1579
195.312 343.75 1873
117.188 62.5 1108
23.4375 226.562 1624
-62.5 328.125 1609
-78.125 62.5 1108
-296.875 117.188 1731
179.688 70.3125 1105
226.562 171.875 1241
-398.438 15.625 1105
15.625 226.562 1594
-179.688 156.25 1283
281.25 93.75 1108
-164.062 46.875 1112
125 445.312 1731
-171.875 242.188 1543
-125 257.812 1543
-476.562 -414.062 1169
-54.6875 218.75 1572
-359.375 -39.0625 1115
-281.25 -39.0625 1105
-195.312 226.562 1445
-312.5 -39.0625 1108
7.8125 203.125 1297
-429.688 -218.75 1050
-171.875 312.5 1616
70.3125 203.125 1292
-296.875 -39.0625 1108
0 132.812 1223
78.125 250 1579
-148.438 312.5 1616
23.4375 257.812 1543
-289.062 171.875 1655
78.125 359.375 1601
101.562 234.375 1586
-109.375 234.375 1516
54.6875 335.938 1624
-70.3125 257.812 1536
-117.188 164.062 1283
7.8125 109.375 1197
343.75 -320.312 3269
70.3125 210.938 1557
93.75 257.812 1572
31.25 242.188 1739
101.562 257.812 1564
78.125 210.938 1557
-132.812 226.562 1516
-70.3125 234.375 1564
-500 257.812 1586
-335.938 -156.25 1031
-234.375 -109.375 1157
226.562 -335.938 3300
-304.688 -164.062 1038
-109.375 250 1516
62.5 226.562 1609
-242.188 23.4375 1115
-500 -109.375 1057
46.875 -218.75 1370
-335.938 23.4375 1105
-109.375 164.062 1283
62.5 359.375 1601
-320.312 -156.25 1031
-117.188 234.375 1509
31.25 -453.125 1165
218.75 195.312 1273
15.625 -203.125 1398
289.062 93.75 1108
-23.4375 179.688 1292
93.75 273.438 1536
-101.562 -226.562 1421
-375 -46.875 1101
39.0625 164.062 1197
273.438 273.438 1981
-273.438 -109.375 1038
-390.625 -54.6875 1101
-226.562 -203.125 1094
-476.562 -54.6875 1108
382.812 46.875 2381
-39.0625 257.812 1564
-132.812 164.062 1288
-257.812 -31.25 1101
62.5 257.812 1731
0 265.625 1543
-460.938 85.9375 1853
85.9375 234.375 1601
125 -203.125 1398
-406.25 -226.562 1073
-296.875 -164.062 1041
281.25 78.125 1112
-78.125 -320.312 1586
39.0625 359.375 1601
-203.125 46.875 1112
242.188 -203.125 1445
117.188 250 1557
-85.9375 203.125 1516
62.5 210.938 1616
-343.75 203.125 1632
140.625 -289.062 1297
-351.562 -257.812 1101
-359.375 -296.875 1219
-359.375 -46.875 1101
-78.125 101.562 1197
-210.938 78.125 1197
-23.4375 265.625 1543
-195.312 218.75 1458
-492.188 148.438 1421
-31.25 195.312 1283
39.0625 265.625 1543
-117.188 -46.875 1193
-265.625 109.375 1739
-164.062 250 1536
156.25 -132.812 1322
31.25 -210.938 1387
-500 148.438 1421
-257.812 195.312 1680
-117.188 320.312 1609
-78.125 -156.25 1322
-171.875 31.25 1112
101.562 226.562 1601
-218.75 39.0625 1108
-453.125 -171.875 1041
-289.062 39.0625 1112
125 171.875 1255
-171.875 164.062 1292
39.0625 -210.938 1387
-445.312 -203.125 1057
148.438 -54.6875 1223
39.0625 273.438 1543
-171.875 156.25 1283
46.875 335.938 1624
54.6875 218.75 1609
-484.375 -7.8125 1105
46.875 218.75 1601
31.25 265.625 1543
0 -218.75 1392
-62.5 -320.312 1312
-46.875 382.812 1785
-148.438 -39.0625 1181
-210.938 265.625 1509
23.4375 242.188 1550
-101.562 250 1529
171.875 -437.5 1153
-437.5 -54.6875 1108
-492.188 0 1105
-265.625 -7.8125 1134
101.562 250 1579
109.375 -210.938 1387
31.25 218.75 1616
93.75 343.75 1609
-375 -234.375 1084
109.375 250 1564
-460.938 -23.4375 1123
-109.375 320.312 1616
-164.062 -234.375 1376
-46.875 171.875 1278
-484.375 171.875 1705
-265.625 -117.188 1034
39.0625 335.938 1624
-140.625 242.188 1496
-429.688 -187.5 1067
148.438 -296.875 1297
7.8125 132.812 1219
-390.625 -46.875 1108
-132.812 242.188 1496
125 406.25 1680
-93.75 320.312 1609
-468.75 203.125 1680
-289.062 -46.875 1097
0 203.125 1297
-62.5 257.812 1564
7.8125 218.75 1609
-62.5 210.938 1550
78.125 203.125 1292
328.125 -46.875 1241
-179.688 195.312 1543
-273.438 54.6875 1119
-46.875 234.375 1564
-85.9375 54.6875 1105
-54.6875 210.938 1550
-15.625 351.562 1609
-250 234.375 1688
-335.938 -164.062 1038
-375 39.0625 1112
-273.438 -39.0625 1101
-265.625 -93.75 1054
-265.625 -62.5 1080
195.312 70.3125 1112
-460.938 -406.25 1181
-85.9375 -156.25 1322
-414.062 -273.438 1181
23.4375 218.75 1624
-93.75 54.6875 1108
-164.062 242.188 1536
101.562 -203.125 1387
-414.062 -54.6875 1101
-460.938 -171.875 1041
-453.125 -54.6875 1105
15.625 218.75 1609
-257.812 39.0625 1108
-70.3125 250 1564
265.625 125 1177
117.188 187.5 1278
62.5 375 1609
-312.5 250 1655
-39.0625 234.375 1579
-281.25 296.875 1609
-46.875 210.938 1529
-281.25 -164.062 1038
273.438 78.125 1112
-15.625 62.5 1108
-414.062 -164.062 1038
117.188 78.125 1105
-31.25 132.812 1232
7.8125 -210.938 1398
-265.625 -39.0625 1101
-187.5 179.688 1302
187.5 70.3125 1112
125 62.5 1108
-15.625 -234.375 1387
289.062 78.125 1112
7.8125 265.625 1543
-343.75 -46.875 1101
460.938 117.188 2256
-171.875 226.562 1572
-484.375 109.375 1813
62.5 -210.938 1381
-156.25 46.875 1112
54.6875 -382.812 1227
0 195.312 1297
-85.9375 257.812 1543
-31.25 328.125 1616
0 242.188 1564
-445.312 414.062 1655
-289.062 -164.062 1041
257.812 78.125 1112
-406.25 -54.6875 1101
-335.938 -265.625 1119
-171.875 218.75 1601
273.438 117.188 1123
-460.938 -54.6875 1105
-265.625 -125 1031
109.375 226.562 1586
-148.438 226.562 1516
-140.625 54.6875 1112
93.75 -234.375 1354
31.25 242.188 1739
-7.8125 179.688 1288
46.875 265.625 1543
-320.312 -39.0625 1108
-78.125 250 1564
140.625 -195.312 1415
-101.562 250 1529
-164.062 226.562 1572
-101.562 257.812 1529
7.8125 375 1813
-210.938 39.0625 1108
-453.125 203.125 1688
-132.812 250 1496
-453.125 -62.5 1097
-437.5 7.8125 1108
15.625 132.812 1219
-429.688 -54.6875 1105
-265.625 117.188 1722
-320.312 171.875 1647
125 78.125 1105
-476.562 78.125 1863
132.812 62.5 1108
-375 -54.6875 1097
-31.25 46.875 1112
-398.438 -46.875 1108
-210.938 46.875 1112
-156.25 250 1516
39.0625 242.188 1739
15.625 195.312 1292
-31.25 171.875 1278
-273.438 195.312 1639
-289.062 171.875 1655
445.312 -304.688 3208
335.938 78.125 1119
-382.812 15.625 1105
-101.562 234.375 1529
312.5 93.75 1112
-15.625 -195.312 1387
39.0625 250 1739
-7.8125 195.312 1297
-125 226.562 1516
-148.438 218.75 1516
-281.25 -46.875 1094
-304.688 -39.0625 1112
-437.5 265.625 1609
7.8125 242.188 1564
281.25 218.75 2078
-468.75 -312.5 1181
-273.438 31.25 1108
54.6875 -367.188 1236
-460.938 -320.312 1169
-335.938 -39.0625 1112
-343.75 -148.438 1022
-101.562 226.562 1523
-125 250 1496
101.562 273.438 1550
-31.25 -226.562 1392
-289.062 -46.875 1097
-7.8125 -148.438 1317
-7.8125 218.75 1594
-242.188 -195.312 1080
-367.188 -242.188 1097
-445.312 -62.5 1097
187.5 265.625 1381
-234.375 78.125 1202
-343.75 -164.062 1038
-429.688 101.562 1843
85.9375 54.6875 1108
-312.5 -156.25 1031
54.6875 70.3125 1105
-39.0625 257.812 1564
-39.0625 171.875 1278
156.25 -382.812 1214
-296.875 15.625 1112
-429.688 7.8125 1101
-468.75 -367.188 1119
-23.4375 156.25 1197
-460.938 -312.5 1177
-390.625 -156.25 1031
-296.875 -46.875 1101
-367.188 -46.875 1101
-437.5 -171.875 1041
-273.438 -46.875 1094
101.562 226.562 1601
-226.562 39.0625 1112
93.75 226.562 1624
-437.5 -148.438 1028
70.3125 265.625 1529
-101.562 39.0625 1112
-382.812 39.0625 1112
-187.5 242.188 1550
-109.375 179.688 1297
-62.5 -31.25 1177
-328.125 23.4375 1105
-31.25 265.625 1696
-171.875 203.125 1543
85.9375 250 1579
31.25 226.562 1616
-460.938 -7.8125 1105
46.875 203.125 1288
54.6875 265.625 1543
125 187.5 1278
-312.5 -164.062 1034
-406.25 23.4375 1108
-242.188 -171.875 1060
-226.562 23.4375 1115
-265.625 140.625 1713
-39.0625 234.375 1579
-476.562 117.188 1813
265.625 -210.938 1470
-312.5 117.188 1722
-265.625 -421.875 1433
-312.5 31.25 1112
-320.312 -164.062 1034
-398.438 -273.438 1073
148.438 -132.812 1317
-398.438 -164.062 1038
-62.5 257.812 1564
-484.375 0 1105
-484.375 -453.125 1173
-429.688 -148.438 1028
-500 -382.812 1031
-70.3125 234.375 1564
-101.562 164.062 1278
265.625 -187.5 1427
70.3125 226.562 1609
70.3125 226.562 1609
-328.125 -140.625 1022
-367.188 -54.6875 1097
-421.875 -132.812 1031
-109.375 234.375 1516
109.375 187.5 1283
23.4375 226.562 1624
54.6875 -195.312 1392
-179.688 179.688 1302
-179.688 203.125 1594
289.062 132.812 2226
85.9375 203.125 1292
39.0625 265.625 1543
7.8125 203.125 1297
93.75 273.438 1536
-304.688 203.125 1624
148.438 78.125 1105
-93.75 -226.562 1421
7.8125 195.312 1297
46.875 273.438 1543
-210.938 257.812 1489
281.25 -210.938 1470
-445.312 -406.25 1206
-382.812 -226.562 1077
-156.25 242.188 1516
-304.688 -156.25 1031
-109.375 -375 3300
-335.938 -148.438 1022
-328.125 171.875 1639
-250 101.562 1232
-54.6875 257.812 1564
132.812 78.125 1105
85.9375 210.938 1557
-453.125 -156.25 1025
-429.688 -164.062 1038
-23.4375 62.5 1108
-140.625 -328.125 1489
23.4375 250 1550
23.4375 250 1550
-468.75 -7.8125 1105
-62.5 234.375 1564
429.688 -304.688 3238
23.4375 195.312 1292
46.875 250 1739
-429.688 -101.562 1060
-320.312 -265.625 1169
-109.375 -62.5 1206
117.188 250 1557
78.125 203.125 1292
-39.0625 242.188 1564
-453.125 304.688 1609
78.125 226.562 1586
-109.375 226.562 1516
70.3125 281.25 1529
-23.4375 195.312 1297
242.188 148.438 1210
-453.125 85.9375 1853
46.875 265.625 1543
-179.688 242.188 1543
-39.0625 46.875 1108
-484.375 85.9375 1853
-164.062 242.188 1536
7.8125 242.188 1564
-335.938 -46.875 1101
-15.625 179.688 1288
-93.75 257.812 1543
-250 -203.125 1084
-390.625 15.625 1108
-171.875 195.312 1543
-398.438 -156.25 1028
335.938 179.688 2143
242.188 156.25 1223
-406.25 -46.875 1108
78.125 -62.5 1197
-312.5 203.125 1624
-445.312 7.8125 1108
-187.5 218.75 1579
-445.312 164.062 1748
-31.25 242.188 1564
-242.188 46.875 1115
-429.688 -390.625 1223
-54.6875 218.75 1572
125 -195.312 1410
-414.062 -46.875 1112
117.188 281.25 1543
-15.625 242.188 1564
-421.875 -195.312 1050
-46.875 210.938 1529
7.8125 179.688 1283
-54.6875 210.938 1550
-179.688 226.562 1572
-460.938 164.062 1739
62.5 335.938 1624
-468.75 -414.062 1169
-101.562 257.812 1529
-359.375 -296.875 1219
109.375 226.562 1586
70.3125 335.938 1624
-500 -15.625 1101
23.4375 218.75 1624
-257.812 -62.5 1084
195.312 -289.062 1579
54.6875 195.312 1292
-359.375 195.312 1647
-109.375 250 1516
23.4375 132.812 1214
-328.125 -148.438 1022
-281.25 -46.875 1094
-54.6875 132.812 1223
-320.312 171.875 1647
39.0625 242.188 1739
62.5 -70.3125 1214
-62.5 -304.688 1317
62.5 70.3125 1105
-359.375 -421.875 1445
-218.75 148.438 1288
31.25 328.125 1632
-281.25 -421.875 1433
-39.0625 265.625 1696
93.75 250 1572
-492.188 179.688 1445
-187.5 312.5 1609
-273.438 -421.875 1433
-351.562 -140.625 1022
-265.625 -132.812 1025
-296.875 171.875 1671
-39.0625 234.375 1579
-351.562 -46.875 1101
117.188 234.375 1579
-328.125 -93.75 1057
31.25 156.25 1197
-164.062 156.25 1283
70.3125 375 1609
-296.875 -156.25 1031
-164.062 218.75 1586
-54.6875 335.938 1601
-187.5 171.875 1302
-156.25 31.25 1115
-359.375 -54.6875 1094
-171.875 218.75 1601
-445.312 -218.75 1044
-101.562 250 1529
46.875 54.6875 1108
46.875 242.188 1739
-421.875 -23.4375 1130
31.25 335.938 1616
-289.062 109.375 1722
-335.938 164.062 1647
46.875 -367.188 1241
-437.5 156.25 1757
-460.938 93.75 1853
23.4375 187.5 1288
-421.875 -218.75 1060
-54.6875 382.812 1794
-125 367.188 1794
93.75 359.375 1601
-500 218.75 1516
0 195.312 1297
-398.438 -218.75 1073
132.812 273.438 1452
15.625 203.125 1292
-437.5 -62.5 1097
-468.75 0 1101
31.25 187.5 1288
-85.9375 218.75 1529
-62.5 148.438 1214
156.25 109.375 1177
-132.812 437.5 1696
-328.125 117.188 1713
-351.562 -39.0625 1112
117.188 226.562 1609
109.375 273.438 1550
-367.188 -234.375 1090
-250 -421.875 1433
-453.125 -23.4375 1123
-101.562 226.562 1523
-62.5 -320.312 1312
-460.938 -398.438 1181
-367.188 -421.875 1439
31.25 -226.562 1376
-46.875 320.312 1624
-273.438 101.562 1731
54.6875 273.438 1543
-39.0625 -226.562 1392
-406.25 -187.5 1054
-156.25 226.562 1516
-125 226.562 1516
-46.875 218.75 1594
101.562 250 1579
296.875 93.75 1112
-125 320.312 1609
-382.812 -156.25 1031
-296.875 31.25 1112
54.6875 -210.938 1381
15.625 265.625 1536
-289.062 -39.0625 1108
-101.562 320.312 1609
-46.875 234.375 1564
-234.375 234.375 1439
31.25 -171.875 1359
62.5 242.188 1572
-257.812 234.375 1680
46.875 -375 1232
46.875 -210.938 1387
132.812 187.5 1278
-31.25 234.375 1601
-445.312 171.875 1731
54.6875 265.625 1543
-367.188 -54.6875 1097
85.9375 -203.125 1398
257.812 -281.25 1557
-62.5 -296.875 1328
-367.188 -250 1097
-335.938 203.125 1639
140.625 -296.875 1292
-320.312 203.125 1663
-39.0625 218.75 1594
-453.125 156.25 1748
-164.062 312.5 1616
-23.4375 234.375 1594
-132.812 312.5 1624
101.562 -39.0625 1202
-484.375 -390.625 1173
125 187.5 1278
-179.688 195.312 1543
-218.75 23.4375 1115
-429.688 -171.875 1047
-492.188 132.812 1415
85.9375 203.125 1292
-85.9375 -320.312 1572
-187.5 156.25 1288
-265.625 -31.25 1112
54.6875 54.6875 1112
-289.062 242.188 1655
-93.75 39.0625 1112
-234.375 101.562 1236
7.8125 195.312 1297
-382.812 -46.875 1105
-390.625 -54.6875 1101
-421.875 -171.875 1047
39.0625 -226.562 1370
-7.8125 156.25 1202
109.375 343.75 1550
-15.625 132.812 1223
-203.125 39.0625 1108
-101.562 234.375 1529
-7.8125 62.5 1108
117.188 187.5 1278
-78.125 54.6875 1105
-242.188 54.6875 1115
-476.562 0 1101
93.75 -62.5 1193
-85.9375 54.6875 1105
-265.625 -39.0625 1101
-62.5 -312.5 1317
-156.25 250 1516
-429.688 -62.5 1097
-460.938 -390.625 1181
15.625 -390.625 1223
-171.875 320.312 1609
-54.6875 257.812 1564
-273.438 -46.875 1094
62.5 265.625 1529
-273.438 -39.0625 1101
-23.4375 46.875 1112
15.625 242.188 1550
7.8125 -218.75 1387
31.25 242.188 1739
-164.062 226.562 1572
-148.438 242.188 1529
203.125 -289.062 1579
-390.625 -171.875 1044
-351.562 -54.6875 1094
-148.438 31.25 1115
0 179.688 1283
-398.438 148.438 1688
-164.062 203.125 1543
-23.4375 257.812 1564
-85.9375 39.0625 1112
70.3125 -187.5 1392
304.688 78.125 1115
-265.625 125 1722
-156.25 156.25 1283
-132.812 242.188 1496
164.062 -421.875 1181
-242.188 -39.0625 1101
109.375 203.125 1292
101.562 -210.938 1381
78.125 242.188 1586
296.875 195.312 2116
-492.188 171.875 1439
-203.125 148.438 1283
-312.5 171.875 1655
218.75 203.125 1283
-468.75 164.062 1748
218.75 70.3125 1112
-375 -156.25 1028
-93.75 226.562 1529
-93.75 226.562 1529
-164.062 31.25 1112
-39.0625 226.562 1586
-289.062 171.875 1655
-85.9375 226.562 1536
-406.25 -273.438 1181
-382.812 -281.25 1087
-85.9375 257.812 1543
-484.375 -93.75 1070
117.188 -78.125 1202
296.875 85.9375 1112
-273.438 109.375 1731
-367.188 -289.062 1090
46.875 265.625 1543
-171.875 195.312 1543
93.75 54.6875 1108
85.9375 187.5 1283
-421.875 7.8125 1101
-31.25 171.875 1278
15.625 234.375 1594
-54.6875 195.312 1283
476.562 -320.312 3178
-125 242.188 1496
-406.25 -164.062 1038
46.875 242.188 1739
31.25 218.75 1616
-273.438 78.125 1926
-54.6875 187.5 1302
-62.5 54.6875 1105
-148.438 250 1529
-343.75 -54.6875 1094
-328.125 46.875 1112
210.938 210.938 1297
468.75 -421.875 3037
-445.312 -7.8125 1105
23.4375 265.625 1536
296.875 78.125 1115
0 218.75 1616
140.625 78.125 1105
-429.688 7.8125 1101
-281.25 -156.25 1031
-46.875 210.938 1529
101.562 273.438 1550
-140.625 46.875 1112
-343.75 7.8125 1112
-93.75 234.375 1543
-54.6875 234.375 1564
-343.75 -289.062 1206
-187.5 54.6875 1115
-257.812 54.6875 1126
-23.4375 265.625 1543
-156.25 218.75 1516
203.125 70.3125 1112
101.562 250 1579
-54.6875 125 1214
-7.8125 210.938 1624
-156.25 312.5 1616
85.9375 -62.5 1193
-500 296.875 1766
-359.375 -54.6875 1094
234.375 -335.938 3300
-359.375 140.625 1663
109.375 273.438 1550
-265.625 -46.875 1097
-445.312 -414.062 1197
39.0625 226.562 1601
39.0625 226.562 1601
-500 -62.5 1105
-7.8125 257.812 1557
210.938 85.9375 1108
-132.812 46.875 1112
39.0625 250 1739
-367.188 15.625 1105
46.875 -382.812 1223
23.4375 -367.188 1245
242.188 -218.75 1470
-414.062 -62.5 1094
-117.188 250 1509
93.75 203.125 1302
-257.812 62.5 1126
421.875 250 2005
-15.625 195.312 1292
-492.188 -62.5 1101
54.6875 250 1739
-85.9375 250 1564
31.25 250 1550
-62.5 -250 1387
-406.25 -171.875 1044
156.25 78.125 1105
-23.4375 171.875 1197
31.25 226.562 1616
-39.0625 210.938 1594
-46.875 195.312 1283
-148.438 226.562 1516
109.375 226.562 1586
-375 179.688 1663
39.0625 54.6875 1108
-296.875 171.875 1671
-156.25 226.562 1516
257.812 93.75 1112
54.6875 -382.812 1227
-492.188 46.875 1392
117.188 226.562 1609
140.625 62.5 1108
-375 39.0625 1112
171.875 351.562 1853
-39.0625 171.875 1278
-335.938 164.062 1647
492.188 -281.25 2744
-210.938 23.4375 1115
-7.8125 132.812 1223
-179.688 218.75 1601
-343.75 140.625 1680
-210.938 148.438 1283
328.125 39.0625 1157
-492.188 -148.438 1028
-7.8125 -7.8125 1165
-148.438 -234.375 1427
-273.438 164.062 1655
-171.875 39.0625 1112
-195.312 195.312 1307
-500 -70.3125 1097
-250 -39.0625 1097
54.6875 187.5 1288
-23.4375 257.812 1564
-85.9375 101.562 1197
-234.375 93.75 1223
-54.6875 -132.812 1292
242.188 70.3125 1119
-382.812 -234.375 1077
-156.25 203.125 1529
78.125 226.562 1586
117.188 273.438 1557
-296.875 203.125 1663
23.4375 218.75 1624
-320.312 -148.438 1022
-117.188 257.812 1536
250 187.5 2129
-312.5 203.125 1624
-320.312 23.4375 1108
109.375 234.375 1579
-31.25 234.375 1601
218.75 226.562 1322
78.125 70.3125 1105
-281.25 109.375 1731
156.25 117.188 1185
54.6875 265.625 1543
93.75 -203.125 1392
-476.562 78.125 1863
70.3125 164.062 1250
-445.312 93.75 1853
-265.625 -125 1031
-414.062 -171.875 1047
125 187.5 1278
-273.438 -46.875 1094
39.0625 242.188 1739
-23.4375 -226.562 1398
-304.688 171.875 1663
-62.5 234.375 1564
70.3125 218.75 1609
-23.4375 234.375 1594
62.5 265.625 1529
-265.625 156.25 1688
23.4375 203.125 1292
-421.875 -62.5 1097
-421.875 -62.5 1097
-187.5 -359.375 1338
-476.562 -437.5 1165
-187.5 171.875 1302
-93.75 250 1572
-289.062 -156.25 1034
31.25 265.625 1543
-445.312 -398.438 1206
250 -281.25 1557
-210.938 -242.188 1177
-62.5 -23.4375 1177
93.75 -140.625 1177
-265.625 -109.375 1041
-117.188 226.562 1516
-46.875 257.812 1564
-304.688 -7.8125 1130
-164.062 218.75 1586
109.375 -203.125 1392
140.625 187.5 1278
-445.312 -54.6875 1105
-257.812 -70.3125 1077
54.6875 203.125 1292
-484.375 -109.375 1057
-148.438 242.188 1529
-203.125 23.4375 1115
-31.25 257.812 1696
-171.875 242.188 1543
156.25 242.188 1359
-437.5 -210.938 1044
23.4375 -210.938 1392
23.4375 382.812 1804
78.125 -210.938 1381
-101.562 226.562 1523
-179.688 335.938 1601
93.75 187.5 1283
-164.062 328.125 1601
-171.875 179.688 1302
-375 -226.562 1084
-164.062 54.6875 1115
54.6875 242.188 1572
-273.438 296.875 1616
-312.5 -148.438 1022
70.3125 54.6875 1112
85.9375 203.125 1292
-421.875 -257.812 1105
-351.562 -257.812 1101
