ply
format ascii 1.0
comment Created by Open3D
element vertex 2312
property double x
property double y
property double z
end_header
101.562 296.875 1349
226.562 414.062 1359
-265.625 -39.0625 1145
210.938 -125 1157
-117.188 125 1206
289.062 125 1883
-39.0625 -273.438 1145
445.312 -125 1157
359.375 210.938 1594
-78.125 210.938 1392
-7.8125 242.188 1328
437.5 -125 1161
-359.375 23.4375 1161
78.125 281.25 1292
140.625 226.562 1804
-23.4375 -210.938 1126
-484.375 -320.312 2415
-203.125 218.75 1354
-31.25 164.062 1516
-335.938 -70.3125 1130
-93.75 -156.25 1165
-148.438 -218.75 1264
132.812 -132.812 1149
62.5 -125 1149
437.5 -296.875 1206
-31.25 187.5 1464
-39.0625 226.562 1359
-46.875 398.438 1381
-351.562 421.875 1338
-226.562 226.562 1328
31.25 109.375 1210
265.625 -304.688 1259
-62.5 164.062 1509
351.562 398.438 1381
125 -257.812 1105
85.9375 343.75 1370
-140.625 -242.188 1264
0 226.562 1359
296.875 242.188 1509
-15.625 171.875 1509
398.438 -296.875 1227
-62.5 226.562 1288
-7.8125 109.375 1214
70.3125 -39.0625 1157
-203.125 234.375 1312
93.75 359.375 1376
296.875 -140.625 1153
-23.4375 171.875 1470
265.625 -437.5 1223
359.375 281.25 1477
-62.5 195.312 1433
398.438 -273.438 1130
31.25 226.562 1365
218.75 414.062 1365
273.438 281.25 1483
179.688 -140.625 1153
132.812 179.688 1894
-476.562 304.688 1853
-109.375 242.188 1328
31.25 125 1214
-476.562 -39.0625 3433
101.562 -132.812 1145
398.438 -85.9375 1130
7.8125 226.562 1365
296.875 226.562 1529
-46.875 164.062 1509
62.5 226.562 1292
171.875 -140.625 1153
-15.625 164.062 1516
-109.375 148.438 1543
414.062 -140.625 1157
476.562 -304.688 3092
375 -117.188 1177
62.5 218.75 1283
-148.438 218.75 1365
281.25 273.438 1529
-312.5 179.688 1322
171.875 289.062 1647
-39.0625 117.188 1210
-203.125 164.062 1503
-453.125 -226.562 2522
-85.9375 125 1210
-78.125 226.562 1354
-164.062 -93.75 1105
-23.4375 179.688 1470
273.438 328.125 1496
70.3125 156.25 1250
46.875 398.438 1381
7.8125 -273.438 1153
-445.312 -304.688 2579
-171.875 234.375 1328
-117.188 -117.188 1105
7.8125 -109.375 1108
7.8125 125 1214
-93.75 -164.062 1165
62.5 296.875 1312
93.75 335.938 1365
-281.25 109.375 1202
335.938 289.062 1477
281.25 335.938 1496
335.938 -250 1119
-15.625 -289.062 1153
328.125 242.188 1586
-54.6875 164.062 1509
-195.312 242.188 1307
-367.188 -23.4375 1149
382.812 242.188 1529
62.5 257.812 1292
398.438 -117.188 1165
257.812 -437.5 1219
-328.125 -218.75 1572
78.125 15.625 1177
15.625 242.188 1322
296.875 -125 1157
54.6875 187.5 1250
93.75 320.312 1354
265.625 -328.125 1250
39.0625 320.312 1445
132.812 -460.938 1433
-179.688 164.062 1503
281.25 -109.375 1130
-39.0625 179.688 1470
-484.375 -101.562 1080
101.562 257.812 1349
62.5 250 1292
-70.3125 226.562 1354
-39.0625 -93.75 1105
-54.6875 242.188 1307
-78.125 125 1210
289.062 328.125 1489
0 109.375 1214
-7.8125 125 1214
-140.625 -226.562 1292
-500 -70.3125 3269
257.812 164.062 1904
242.188 179.688 1904
-257.812 148.438 1509
-23.4375 -125 1134
-93.75 210.938 1398
312.5 -359.375 1297
226.562 -429.688 1210
351.562 -125 1161
429.688 -125 1161
179.688 -125 1161
-93.75 226.562 1354
195.312 -125 1157
132.812 -312.5 1489
-406.25 179.688 1214
281.25 -296.875 1264
250 -328.125 1250
156.25 -132.812 1153
-39.0625 125 1210
-203.125 0 1165
-117.188 -179.688 1264
273.438 148.438 1894
320.312 312.5 1458
-31.25 -289.062 1149
148.438 -125 1153
250 -140.625 1153
250 179.688 1904
-320.312 335.938 1283
-132.812 210.938 1354
328.125 289.062 1483
265.625 -140.625 1153
78.125 -179.688 1214
-85.9375 250 1322
218.75 335.938 1509
445.312 382.812 1392
140.625 -398.438 1392
453.125 -93.75 1130
62.5 304.688 1317
312.5 312.5 1464
281.25 148.438 1894
289.062 -343.75 1322
414.062 -125 1161
117.188 179.688 1894
85.9375 171.875 1250
-359.375 382.812 1307
-39.0625 -179.688 1130
-148.438 210.938 1387
187.5 195.312 1904
218.75 273.438 1616
406.25 -289.062 1227
-343.75 132.812 1214
-117.188 179.688 1464
281.25 -289.062 1250
210.938 343.75 1496
-101.562 195.312 1427
-101.562 210.938 1392
453.125 429.688 1616
78.125 273.438 1288
148.438 -132.812 1149
343.75 195.312 1883
117.188 242.188 1338
492.188 -125 1153
437.5 382.812 1404
-78.125 234.375 1328
-15.625 179.688 1470
-273.438 234.375 1302
62.5 -140.625 1197
-70.3125 140.625 1572
-164.062 -187.5 1283
195.312 -343.75 1236
250 203.125 1647
421.875 -140.625 1157
-132.812 -218.75 1268
15.625 -210.938 1134
210.938 250 1739
23.4375 148.438 1557
-70.3125 125 1206
-125 -164.062 1288
156.25 179.688 1904
-117.188 218.75 1354
140.625 -132.812 1149
93.75 195.312 1268
-351.562 125 1197
-250 210.938 1365
-335.938 250 1250
-359.375 31.25 1169
-54.6875 210.938 1392
-125 -171.875 1273
140.625 -406.25 1392
234.375 -140.625 1153
-140.625 218.75 1365
148.438 398.438 1387
-117.188 -226.562 1227
-335.938 234.375 1241
312.5 -125 1157
62.5 -203.125 1165
0 125 1214
101.562 -328.125 1477
-382.812 265.625 1245
109.375 -132.812 1145
39.0625 171.875 1489
195.312 203.125 1915
-171.875 242.188 1322
-46.875 148.438 1550
-101.562 242.188 1328
-7.8125 140.625 1579
-492.188 -320.312 2415
23.4375 109.375 1210
-7.8125 164.062 1523
-148.438 242.188 1317
406.25 -296.875 1227
15.625 203.125 1421
23.4375 203.125 1427
7.8125 195.312 1433
7.8125 179.688 1470
257.812 187.5 1915
226.562 -140.625 1153
125 46.875 1813
125 179.688 1894
-210.938 242.188 1317
-140.625 171.875 1477
54.6875 195.312 1250
-140.625 250 1322
39.0625 109.375 1210
257.812 -125 1157
210.938 -140.625 1153
242.188 -140.625 1153
-140.625 -234.375 1264
-289.062 -234.375 3300
93.75 54.6875 1173
429.688 335.938 1496
-359.375 54.6875 1173
-62.5 125 1206
156.25 335.938 1523
203.125 203.125 1915
-125 164.062 1503
250 -257.812 1115
-218.75 125 1206
-39.0625 250 1322
-23.4375 226.562 1359
-70.3125 171.875 1489
289.062 -132.812 1153
171.875 187.5 1915
93.75 312.5 1349
-62.5 109.375 1210
312.5 335.938 1483
296.875 -289.062 1245
46.875 320.312 1333
-179.688 242.188 1312
-296.875 109.375 1202
15.625 109.375 1210
218.75 -140.625 1153
-390.625 -242.188 2859
-15.625 242.188 1328
226.562 -132.812 1157
250 187.5 1904
-414.062 -343.75 3178
101.562 -343.75 1452
265.625 296.875 1496
-78.125 195.312 1433
0 148.438 1572
-210.938 234.375 1317
164.062 -421.875 1219
-148.438 -164.062 1268
156.25 226.562 1813
-164.062 234.375 1328
-70.3125 -289.062 1145
164.062 195.312 1915
-70.3125 -171.875 1130
85.9375 -164.062 1119
296.875 195.312 1601
-328.125 187.5 1227
437.5 335.938 1496
78.125 0 1169
-39.0625 171.875 1509
85.9375 187.5 1255
-46.875 242.188 1307
39.0625 179.688 1259
-117.188 164.062 1509
195.312 -132.812 1153
-62.5 171.875 1489
-85.9375 171.875 1470
-93.75 242.188 1328
171.875 -445.312 1421
242.188 -132.812 1157
125 -132.812 1149
78.125 78.125 1197
187.5 -140.625 1153
-23.4375 242.188 1328
-164.062 218.75 1354
234.375 179.688 1915
390.625 -117.188 1165
-39.0625 164.062 1509
-296.875 351.562 1349
-54.6875 195.312 1433
85.9375 320.312 1359
453.125 -117.188 1157
187.5 -132.812 1157
304.688 -375 1297
414.062 -117.188 1165
109.375 296.875 1349
250 296.875 1503
39.0625 218.75 1387
164.062 -132.812 1153
492.188 -85.9375 1134
-476.562 -343.75 2398
484.375 -125 1149
242.188 -398.438 1219
46.875 351.562 1381
-398.438 179.688 1214
-398.438 -390.625 3178
-93.75 -218.75 1214
54.6875 -328.125 3300
-15.625 148.438 1564
-31.25 148.438 1550
-382.812 250 1241
-70.3125 23.4375 1177
445.312 -257.812 1119
117.188 -390.625 1410
210.938 -132.812 1153
85.9375 312.5 1317
132.812 -132.812 1149
320.312 -125 1157
171.875 -132.812 1153
70.3125 -62.5 1149
-343.75 195.312 1223
117.188 -132.812 1145
-242.188 -62.5 1141
-304.688 195.312 1381
-171.875 -203.125 1283
-78.125 164.062 1470
-54.6875 -93.75 1105
257.812 304.688 1543
265.625 -132.812 1157
289.062 406.25 1359
-328.125 289.062 1264
218.75 -343.75 1241
-375 304.688 1264
-15.625 -62.5 1153
46.875 -171.875 1149
195.312 -140.625 1153
-109.375 -117.188 1108
-367.188 -39.0625 1141
-195.312 398.438 1365
125 -125 1149
320.312 335.938 1477
23.4375 218.75 1376
-242.188 -70.3125 1141
23.4375 -39.0625 1157
406.25 304.688 1516
-125 218.75 1349
-203.125 156.25 1509
242.188 -289.062 1259
-445.312 -179.688 2522
164.062 164.062 1904
-343.75 156.25 1210
187.5 -406.25 1210
265.625 164.062 1904
-62.5 242.188 1322
109.375 -460.938 1452
265.625 156.25 1894
-140.625 203.125 1410
492.188 -117.188 1145
101.562 -437.5 1445
335.938 -109.375 1145
-289.062 -70.3125 1138
-343.75 398.438 1317
218.75 -132.812 1157
-382.812 -351.562 3120
7.8125 218.75 1376
-117.188 398.438 1370
-218.75 78.125 1189
234.375 -132.812 1157
296.875 406.25 1359
93.75 -132.812 1153
-125 203.125 1398
-343.75 171.875 1214
-85.9375 -148.438 1157
-171.875 398.438 1365
429.688 -140.625 1153
125 226.562 1349
328.125 406.25 1376
179.688 -132.812 1157
-265.625 218.75 1343
-375 312.5 1278
7.8125 164.062 1509
-70.3125 242.188 1322
-140.625 242.188 1322
0 242.188 1328
390.625 226.562 1731
62.5 320.312 1328
296.875 218.75 1594
-226.562 132.812 1572
-242.188 132.812 1572
210.938 203.125 1904
-195.312 132.812 1579
-242.188 203.125 1381
-7.8125 203.125 1415
125 203.125 1904
234.375 -375 1227
39.0625 203.125 1421
31.25 218.75 1381
-70.3125 -203.125 1173
62.5 109.375 1210
148.438 -304.688 1278
-382.812 -406.25 3092
273.438 -132.812 1157
-7.8125 398.438 1381
-148.438 398.438 1365
203.125 -140.625 1153
-468.75 -359.375 2398
359.375 218.75 1594
-382.812 -398.438 3092
335.938 -125 1161
250 -414.062 1219
-375 289.062 1259
-140.625 -117.188 1101
296.875 -375 1307
-148.438 164.062 1489
-320.312 328.125 1283
-117.188 109.375 1210
265.625 320.312 1523
-210.938 132.812 1206
39.0625 -148.438 1157
-257.812 0 1161
-39.0625 242.188 1322
31.25 -156.25 1153
-320.312 171.875 1317
39.0625 -171.875 1145
304.688 281.25 1503
93.75 62.5 1185
-250 -70.3125 1141
257.812 312.5 1529
-140.625 132.812 1206
210.938 234.375 1785
-31.25 171.875 1509
-46.875 -195.312 1134
-70.3125 -156.25 1134
328.125 -390.625 3208
257.812 -343.75 1241
273.438 156.25 1894
-23.4375 -257.812 1138
-179.688 -234.375 1688
-265.625 320.312 1503
101.562 257.812 1349
210.938 -429.688 1202
-39.0625 398.438 1376
132.812 -406.25 1392
-382.812 -328.125 3178
-23.4375 -265.625 1138
218.75 -101.562 1119
250 -382.812 1227
312.5 234.375 1586
-382.812 -335.938 3178
-359.375 15.625 1161
0 -179.688 1123
-23.4375 398.438 1376
164.062 -140.625 1153
-164.062 398.438 1365
265.625 -85.9375 1123
203.125 -132.812 1153
195.312 -132.812 1153
0 218.75 1376
140.625 -132.812 1149
39.0625 156.25 1536
-343.75 -109.375 1087
-257.812 -70.3125 1138
109.375 179.688 1894
-250 187.5 1410
46.875 203.125 1302
117.188 -460.938 1439
-7.8125 -93.75 1108
140.625 -140.625 1145
-382.812 -218.75 2812
-15.625 109.375 1214
-31.25 242.188 1328
-187.5 -70.3125 1145
62.5 328.125 1328
54.6875 109.375 1210
46.875 218.75 1376
-15.625 328.125 1529
156.25 -140.625 1149
-171.875 -218.75 1288
273.438 289.062 1489
-156.25 -203.125 1264
-39.0625 -273.438 1145
-54.6875 171.875 1489
429.688 -281.25 1181
0 164.062 1516
-500 164.062 2226
187.5 -445.312 1427
-289.062 328.125 1458
0 -281.25 1157
-15.625 -203.125 1130
132.812 -140.625 1145
265.625 304.688 1503
421.875 -273.438 1189
351.562 265.625 1464
-382.812 -375 3120
125 -460.938 1439
-375 -375 3092
257.812 414.062 1365
109.375 -328.125 1470
156.25 242.188 1757
171.875 289.062 1647
-281.25 312.5 1464
156.25 -132.812 1153
296.875 226.562 1529
273.438 -140.625 1153
0 -203.125 1130
-54.6875 -117.188 1105
-117.188 -187.5 1264
15.625 218.75 1381
-125 -218.75 1278
-382.812 -382.812 3092
31.25 203.125 1433
-15.625 218.75 1354
70.3125 109.375 1206
-148.438 203.125 1410
-132.812 218.75 1354
-156.25 -250 1288
46.875 335.938 1349
-93.75 -179.688 1161
62.5 -179.688 1165
-85.9375 218.75 1365
-195.312 234.375 1312
-117.188 203.125 1398
-164.062 156.25 1516
78.125 -132.812 1177
335.938 242.188 1579
296.875 320.312 1496
359.375 304.688 1464
78.125 296.875 1302
46.875 109.375 1206
148.438 -132.812 1149
179.688 -140.625 1153
328.125 242.188 1586
-203.125 296.875 1572
-429.688 -367.188 3178
312.5 -132.812 1157
-132.812 -296.875 1210
-7.8125 -203.125 1130
-78.125 242.188 1322
156.25 234.375 1794
78.125 109.375 1206
-148.438 171.875 1483
85.9375 -140.625 1153
31.25 -203.125 1138
-382.812 -414.062 3064
-39.0625 -257.812 1138
-54.6875 218.75 1288
-382.812 257.812 1245
117.188 382.812 1415
429.688 -273.438 1181
398.438 296.875 1536
15.625 -203.125 1134
-218.75 234.375 1317
-414.062 -375 3178
109.375 257.812 1349
-359.375 7.8125 1157
0 171.875 1503
-492.188 -343.75 2349
70.3125 187.5 1264
-390.625 -250 2958
70.3125 -54.6875 1153
-93.75 218.75 1376
93.75 78.125 1197
-382.812 -367.188 3120
93.75 -179.688 1134
-164.062 -171.875 1288
218.75 281.25 1594
-312.5 375 1307
78.125 39.0625 1181
-15.625 -93.75 1108
-304.688 398.438 1338
15.625 -187.5 1130
-31.25 203.125 1404
-382.812 -445.312 3010
39.0625 234.375 1359
281.25 -132.812 1153
117.188 367.188 1381
46.875 171.875 1259
70.3125 179.688 1259
484.375 -117.188 1145
453.125 -273.438 1169
-117.188 -203.125 1259
-7.8125 242.188 1328
7.8125 -93.75 1105
-148.438 -101.562 1101
-7.8125 -140.625 1189
-62.5 218.75 1370
54.6875 -320.312 3300
78.125 7.8125 1169
-382.812 -390.625 3092
164.062 -132.812 1153
437.5 -273.438 1173
78.125 23.4375 1177
-484.375 398.438 1601
7.8125 242.188 1328
101.562 421.875 1354
-140.625 234.375 1322
-23.4375 218.75 1381
-320.312 242.188 1283
226.562 -109.375 1126
367.188 218.75 1594
31.25 164.062 1523
398.438 242.188 1529
-328.125 226.562 1250
101.562 -140.625 1145
62.5 218.75 1283
31.25 218.75 1381
70.3125 195.312 1268
93.75 187.5 1904
156.25 226.562 1813
70.3125 117.188 1214
-382.812 -312.5 3120
109.375 242.188 1343
125 328.125 1370
-125 -242.188 1232
7.8125 109.375 1210
-39.0625 218.75 1376
273.438 312.5 1516
187.5 195.312 1904
62.5 335.938 1333
70.3125 -132.812 1173
-492.188 -375 2381
-93.75 203.125 1404
132.812 -359.375 1410
7.8125 203.125 1427
492.188 -296.875 1503
109.375 -93.75 1108
15.625 203.125 1421
-398.438 -226.562 2723
39.0625 164.062 1509
39.0625 312.5 1410
-7.8125 171.875 1509
39.0625 109.375 1210
-15.625 -164.062 1134
132.812 234.375 1343
85.9375 -171.875 1130
-492.188 -296.875 2381
312.5 234.375 1586
54.6875 312.5 1333
453.125 -304.688 1232
-312.5 343.75 1302
140.625 179.688 1894
-492.188 -312.5 2381
148.438 -140.625 1145
-39.0625 -273.438 1145
101.562 179.688 1894
414.062 265.625 1624
-164.062 -265.625 1288
-476.562 414.062 1564
132.812 179.688 1894
-93.75 -171.875 1161
78.125 54.6875 1189
-382.812 -343.75 3149
-359.375 375 1302
-78.125 343.75 1483
492.188 -31.25 1202
93.75 -156.25 1119
-398.438 -398.438 3178
250 -132.812 1157
-328.125 281.25 1264
-398.438 -382.812 3178
-304.688 -62.5 1141
242.188 257.812 1586
-328.125 265.625 1268
-15.625 164.062 1516
359.375 -62.5 1169
218.75 265.625 1632
0 203.125 1427
367.188 203.125 1833
382.812 210.938 1731
171.875 -140.625 1153
234.375 -429.688 1214
15.625 -289.062 1181
-414.062 -367.188 3178
492.188 351.562 1381
-117.188 -242.188 1219
-101.562 -187.5 1153
320.312 -109.375 1141
484.375 -296.875 1503
-7.8125 -289.062 1161
85.9375 203.125 1268
-101.562 -117.188 1105
171.875 187.5 1915
109.375 234.375 1343
-85.9375 -117.188 1108
85.9375 -367.188 1452
390.625 -101.562 1138
54.6875 375 1354
242.188 -421.875 1219
-39.0625 -242.188 1134
-85.9375 203.125 1404
242.188 -437.5 1219
-109.375 218.75 1370
164.062 -296.875 1264
-23.4375 203.125 1398
-242.188 125 1202
375 54.6875 1833
-70.3125 203.125 1421
-39.0625 242.188 1322
-148.438 -117.188 1101
7.8125 -140.625 1153
31.25 242.188 1328
179.688 281.25 1663
-117.188 242.188 1317
390.625 -273.438 1126
-7.8125 218.75 1381
445.312 -281.25 1169
-85.9375 -148.438 1157
-15.625 242.188 1328
-406.25 -234.375 2701
-164.062 242.188 1317
-289.062 320.312 1452
-93.75 -140.625 1165
226.562 320.312 1557
117.188 -140.625 1145
54.6875 179.688 1250
-210.938 171.875 1458
-492.188 -335.938 2349
-367.188 -54.6875 1141
78.125 46.875 1185
289.062 -125 1157
85.9375 -328.125 1489
85.9375 187.5 1255
23.4375 398.438 1387
-78.125 -140.625 1145
-492.188 -265.625 2450
-15.625 171.875 1509
125 -359.375 1415
289.062 281.25 1543
-242.188 78.125 1189
320.312 187.5 1915
375 226.562 1586
93.75 328.125 1354
-62.5 -273.438 1145
-218.75 242.188 1317
210.938 -132.812 1153
335.938 242.188 1579
-367.188 343.75 1292
-78.125 -265.625 1185
148.438 -312.5 1273
-31.25 164.062 1516
15.625 -273.438 1157
15.625 242.188 1322
85.9375 421.875 1354
296.875 304.688 1464
242.188 312.5 1536
335.938 289.062 1477
-382.812 -453.125 3037
-203.125 15.625 1157
226.562 -132.812 1157
421.875 304.688 1564
328.125 335.938 1470
414.062 304.688 1516
54.6875 -132.812 1169
312.5 273.438 1489
414.062 273.438 1624
-39.0625 203.125 1404
78.125 31.25 1181
31.25 -132.812 1169
281.25 -140.625 1153
-39.0625 -179.688 1130
78.125 304.688 1307
250 312.5 1529
70.3125 -187.5 1169
140.625 -140.625 1145
351.562 203.125 1616
289.062 273.438 1529
242.188 -132.812 1157
-70.3125 -171.875 1130
257.812 -132.812 1157
171.875 -132.812 1153
-70.3125 179.688 1464
-179.688 179.688 1464
-85.9375 242.188 1322
46.875 382.812 1354
-54.6875 -132.812 1153
-23.4375 164.062 1516
-164.062 187.5 1433
125 -140.625 1145
187.5 -320.312 1241
62.5 179.688 1245
-382.812 -210.938 2859
351.562 289.062 1477
-148.438 -296.875 1241
-382.812 -257.812 3092
85.9375 328.125 1365
23.4375 242.188 1328
-46.875 -257.812 1145
195.312 -140.625 1153
-62.5 210.938 1392
-15.625 203.125 1415
296.875 -296.875 1338
-15.625 -289.062 1153
476.562 -140.625 1157
-203.125 132.812 1572
328.125 187.5 1915
-54.6875 179.688 1464
234.375 -414.062 1214
46.875 234.375 1349
-23.4375 242.188 1328
39.0625 429.688 1354
-156.25 132.812 1202
15.625 -257.812 1149
78.125 -179.688 1214
-54.6875 -210.938 1141
-382.812 -460.938 3037
-109.375 203.125 1398
148.438 179.688 1894
343.75 210.938 1609
453.125 -85.9375 1130
-398.438 -429.688 3120
101.562 -140.625 1145
445.312 -273.438 1169
-7.8125 -265.625 1145
7.8125 -156.25 1141
-492.188 -289.062 2432
62.5 273.438 1307
250 -140.625 1153
23.4375 164.062 1509
476.562 -125 1161
390.625 -125 1161
-460.938 -226.562 2522
406.25 250 1655
140.625 -312.5 1477
375 -312.5 3300
179.688 -132.812 1157
187.5 -132.812 1157
343.75 -109.375 1138
93.75 -164.062 1119
78.125 -171.875 1123
62.5 -328.125 3333
-398.438 -421.875 3149
164.062 250 1722
-390.625 -390.625 3092
140.625 171.875 1894
335.938 -132.812 1157
85.9375 -54.6875 1153
164.062 -140.625 1153
265.625 -375 1236
304.688 273.438 1496
218.75 -132.812 1157
343.75 -390.625 3208
242.188 -296.875 1255
234.375 -296.875 1255
31.25 398.438 1381
257.812 -296.875 1255
-382.812 -382.812 3092
375 -125 1161
7.8125 140.625 1255
-171.875 218.75 1354
476.562 -289.062 1161
171.875 -125 1157
156.25 -445.312 1415
-46.875 -203.125 1134
250 304.688 1536
7.8125 398.438 1381
7.8125 -289.062 1181
273.438 -125 1157
31.25 -148.438 1153
289.062 140.625 1883
468.75 -125 1161
-62.5 -132.812 1157
-31.25 -164.062 1134
-179.688 398.438 1365
-46.875 242.188 1307
320.312 -23.4375 1193
-382.812 -320.312 3120
46.875 210.938 1387
31.25 -125 1138
-500 234.375 2016
156.25 242.188 1757
85.9375 210.938 1278
-156.25 242.188 1322
31.25 250 1312
218.75 -335.938 1241
195.312 414.062 1359
125 -132.812 1149
-7.8125 -164.062 1134
-398.438 -328.125 3208
7.8125 -46.875 1157
-273.438 164.062 1477
117.188 242.188 1338
85.9375 195.312 1268
-62.5 -187.5 1134
359.375 -132.812 1161
250 296.875 1503
132.812 234.375 1343
-367.188 -46.875 1141
359.375 210.938 1594
343.75 -320.312 1338
109.375 -132.812 1145
-359.375 31.25 1169
-398.438 -335.938 3208
195.312 -132.812 1153
-46.875 203.125 1410
273.438 -132.812 1157
468.75 -46.875 1177
-148.438 234.375 1317
-156.25 -210.938 1264
54.6875 -148.438 1232
-70.3125 218.75 1359
132.812 -140.625 1145
15.625 234.375 1333
-398.438 -414.062 3149
-23.4375 -257.812 1138
132.812 -132.812 1149
-421.875 -257.812 2680
-54.6875 125 1210
250 -398.438 1223
-23.4375 125 1219
250 257.812 1536
-218.75 7.8125 1169
203.125 -132.812 1153
-23.4375 -265.625 1138
304.688 335.938 1483
304.688 218.75 1609
296.875 335.938 1483
296.875 -132.812 1157
-265.625 -70.3125 1138
85.9375 218.75 1278
468.75 -273.438 1161
296.875 328.125 1483
234.375 -132.812 1157
-382.812 -296.875 3178
-398.438 -390.625 3178
23.4375 218.75 1376
-382.812 -351.562 3120
-156.25 203.125 1404
85.9375 -46.875 1153
7.8125 -62.5 1153
39.0625 -46.875 1153
-132.812 203.125 1410
-78.125 -62.5 1149
359.375 -125 1161
250 -296.875 1255
-132.812 -164.062 1278
351.562 -132.812 1161
-70.3125 -242.188 1193
265.625 -132.812 1157
62.5 210.938 1273
343.75 -132.812 1157
-375 -320.312 3120
257.812 195.312 1926
406.25 390.625 1387
-31.25 -195.312 1130
7.8125 -281.25 1165
265.625 257.812 1616
-382.812 -468.75 2984
210.938 203.125 1904
-273.438 62.5 1181
226.562 -382.812 1223
-203.125 0 1165
7.8125 218.75 1376
265.625 281.25 1483
-54.6875 242.188 1307
-382.812 -328.125 3178
359.375 195.312 1873
23.4375 125 1214
156.25 179.688 1904
62.5 -156.25 1173
148.438 -242.188 1112
328.125 289.062 1483
-398.438 -406.25 3149
-62.5 -250 1185
78.125 -62.5 1149
265.625 289.062 1489
-375 296.875 1264
15.625 156.25 1523
-156.25 398.438 1365
-359.375 7.8125 1157
39.0625 398.438 1387
226.562 -257.812 1119
0 140.625 1255
54.6875 265.625 1307
-78.125 296.875 1594
-476.562 -265.625 2450
-351.562 406.25 1317
218.75 -125 1157
179.688 -304.688 1245
109.375 179.688 1894
-398.438 -320.312 3238
-210.938 148.438 1529
132.812 203.125 1904
46.875 -445.312 3178
101.562 320.312 1354
187.5 281.25 1655
-359.375 85.9375 1185
31.25 234.375 1343
7.8125 -31.25 1161
-109.375 -226.562 1214
-468.75 -320.312 2450
-359.375 39.0625 1173
343.75 398.438 1381
-382.812 -335.938 3178
273.438 320.312 1516
62.5 234.375 1292
-328.125 273.438 1264
281.25 289.062 1483
-398.438 -445.312 3092
375 281.25 1483
335.938 242.188 1579
-156.25 -195.312 1264
-78.125 171.875 1470
218.75 289.062 1624
281.25 296.875 1477
54.6875 234.375 1322
421.875 296.875 1579
250 265.625 1536
367.188 -125 1161
-289.062 335.938 1404
304.688 -125 1157
140.625 -125 1153
62.5 351.562 1349
-320.312 351.562 1297
195.312 -304.688 1250
-437.5 -273.438 2598
492.188 328.125 1370
-109.375 -195.312 1250
320.312 -367.188 1297
-492.188 -328.125 2398
335.938 265.625 1470
-359.375 0 1157
-46.875 -117.188 1108
242.188 -343.75 1241
-265.625 -31.25 1153
132.812 351.562 1381
156.25 234.375 1794
289.062 -132.812 1153
164.062 -132.812 1153
218.75 -343.75 1241
-39.0625 -210.938 1134
-382.812 -289.062 3208
-31.25 -171.875 1130
359.375 203.125 1863
320.312 -132.812 1153
304.688 -132.812 1157
54.6875 -62.5 1149
93.75 93.75 1202
265.625 -296.875 1259
-453.125 23.4375 3092
312.5 23.4375 1804
-304.688 156.25 1415
156.25 -140.625 1149
-398.438 -289.062 3269
-23.4375 132.812 1219
117.188 -132.812 1145
-468.75 -242.188 2485
-445.312 -296.875 2579
234.375 -328.125 1245
-39.0625 -187.5 1130
-281.25 296.875 1523
390.625 218.75 1731
335.938 -296.875 1349
-382.812 -312.5 3120
-62.5 164.062 1509
54.6875 359.375 1354
-39.0625 -179.688 1130
-85.9375 -93.75 1105
226.562 164.062 1894
390.625 -132.812 1157
171.875 -445.312 1421
382.812 -132.812 1157
-398.438 -375 3178
-382.812 -281.25 3208
-304.688 382.812 1312
398.438 -101.562 1141
328.125 -132.812 1161
375 203.125 1813
164.062 -257.812 1112
304.688 296.875 1464
-156.25 -203.125 1264
7.8125 -117.188 1108
-492.188 382.812 1639
281.25 164.062 1894
-31.25 -117.188 1112
62.5 -203.125 1165
125 203.125 1904
179.688 281.25 1663
335.938 187.5 1915
-171.875 -195.312 1283
-328.125 242.188 1264
-476.562 -218.75 2503
250 -132.812 1157
210.938 -320.312 1245
-39.0625 -203.125 1130
78.125 62.5 1193
85.9375 164.062 1250
-296.875 132.812 1421
-31.25 -93.75 1108
70.3125 234.375 1288
117.188 320.312 1354
85.9375 -31.25 1161
-304.688 375 1322
-210.938 -101.562 1101
62.5 359.375 1349
-351.562 109.375 1193
39.0625 -171.875 1145
-343.75 164.062 1210
-70.3125 -171.875 1130
-359.375 367.188 1297
93.75 328.125 1354
70.3125 226.562 1278
382.812 226.562 1557
-70.3125 -234.375 1169
468.75 328.125 1433
-289.062 343.75 1439
78.125 335.938 1370
-31.25 -218.75 1130
62.5 343.75 1338
-320.312 226.562 1250
85.9375 -7.8125 1165
0 218.75 1376
-382.812 -367.188 3120
242.188 -85.9375 1123
492.188 335.938 1370
85.9375 -15.625 1165
406.25 -273.438 1126
453.125 328.125 1477
-78.125 -171.875 1138
78.125 70.3125 1193
-7.8125 -273.438 1149
-382.812 -437.5 3037
85.9375 203.125 1268
453.125 -148.438 1153
257.812 -93.75 1119
-78.125 218.75 1359
-62.5 242.188 1322
-382.812 -390.625 3092
-398.438 -304.688 3269
62.5 367.188 1349
-304.688 367.188 1338
304.688 320.312 1489
-78.125 -179.688 1138
109.375 421.875 1359
-382.812 -273.438 3208
-273.438 257.812 1529
-296.875 289.062 1392
-382.812 -445.312 3010
343.75 242.188 1572
-70.3125 -164.062 1130
85.9375 -54.6875 1153
-382.812 -375 3120
70.3125 210.938 1273
-398.438 -312.5 3269
445.312 -281.25 1169
54.6875 203.125 1302
46.875 328.125 1333
-492.188 -281.25 2450
390.625 -39.0625 1193
187.5 -93.75 1112
-437.5 375 1680
375 242.188 1550
343.75 -85.9375 1126
-382.812 -429.688 3064
-382.812 -429.688 3064
289.062 -320.312 1322
-382.812 -414.062 3064
-93.75 -187.5 1153
-359.375 -15.625 1153
265.625 195.312 1915
171.875 -296.875 1255
-406.25 367.188 1705
148.438 -140.625 1145
62.5 375 1349
109.375 -140.625 1145
39.0625 -156.25 1157
242.188 179.688 1904
-93.75 -226.562 1210
-62.5 -265.625 1185
234.375 -250 1115
250 179.688 1904
304.688 -93.75 1123
-382.812 -343.75 3149
93.75 -156.25 1119
93.75 85.9375 1197
281.25 -132.812 1153
-7.8125 203.125 1415
85.9375 -23.4375 1165
78.125 421.875 1354
320.312 -375 1297
-70.3125 -179.688 1134
-312.5 359.375 1307
218.75 -351.562 1236
-171.875 -203.125 1283
414.062 -85.9375 1126
-203.125 7.8125 1169
-328.125 234.375 1259
85.9375 15.625 1177
398.438 -132.812 1161
-15.625 -140.625 1189
406.25 -125 1161
23.4375 234.375 1338
257.812 187.5 1915
335.938 398.438 1381
125 -320.312 1477
-101.562 15.625 1149
156.25 -304.688 1278
351.562 281.25 1470
-382.812 -398.438 3092
-62.5 203.125 1421
-429.688 -171.875 1241
-117.188 -203.125 1259
289.062 281.25 1543
195.312 -109.375 1126
-85.9375 -203.125 1134
-351.562 -93.75 1090
85.9375 242.188 1278
-78.125 -140.625 1145
46.875 -85.9375 1112
0 234.375 1338
-398.438 -296.875 3269
312.5 -132.812 1157
15.625 218.75 1381
390.625 -109.375 1165
-210.938 218.75 1343
203.125 -296.875 1255
-46.875 218.75 1376
210.938 -140.625 1153
109.375 226.562 1349
257.812 -273.438 1119
85.9375 234.375 1278
234.375 -109.375 1126
125 -140.625 1145
-382.812 359.375 1297
-171.875 -218.75 1288
226.562 265.625 1632
-304.688 390.625 1333
476.562 -148.438 1153
343.75 296.875 1464
273.438 265.625 1536
-492.188 226.562 2028
226.562 304.688 1594
-398.438 -335.938 3208
117.188 242.188 1338
-398.438 156.25 1206
-117.188 125 1206
-398.438 -343.75 3208
-312.5 -23.4375 1153
171.875 226.562 1813
-46.875 -171.875 1130
-78.125 -179.688 1138
429.688 -101.562 1141
375 -93.75 1126
70.3125 218.75 1278
242.188 289.062 1516
-367.188 335.938 1288
257.812 -375 1236
-78.125 109.375 1210
-62.5 -179.688 1130
46.875 132.812 1214
-367.188 -62.5 1138
54.6875 250 1302
101.562 -140.625 1145
-164.062 -179.688 1288
46.875 242.188 1333
257.812 296.875 1503
437.5 -281.25 1173
62.5 125 1210
164.062 296.875 1609
289.062 218.75 1586
85.9375 -46.875 1153
375 226.562 1586
468.75 -148.438 1153
125 171.875 1894
-46.875 -203.125 1134
-7.8125 156.25 1550
62.5 257.812 1292
335.938 296.875 1458
85.9375 250 1292
54.6875 125 1206
78.125 320.312 1317
-359.375 -7.8125 1157
492.188 -296.875 1503
304.688 226.562 1601
46.875 320.312 1333
125 312.5 1354
445.312 -312.5 1236
78.125 328.125 1328
367.188 226.562 1586
343.75 226.562 1601
78.125 54.6875 1189
-54.6875 -203.125 1138
320.312 218.75 1616
-398.438 -460.938 3092
320.312 234.375 1601
218.75 -414.062 1214
375 -320.312 3300
62.5 203.125 1273
-398.438 -437.5 3092
-382.812 -320.312 3120
-31.25 -171.875 1130
-304.688 187.5 1343
93.75 -171.875 1134
445.312 -148.438 1153
289.062 -273.438 1112
-492.188 -218.75 2450
367.188 -132.812 1161
-312.5 367.188 1307
117.188 304.688 1354
304.688 328.125 1483
-31.25 226.562 1359
-210.938 23.4375 1149
257.812 273.438 1523
-382.812 250 1241
320.312 320.312 1464
132.812 -140.625 1145
-390.625 -218.75 2723
-375 289.062 1259
460.938 -148.438 1153
-343.75 140.625 1210
179.688 -445.312 1421
-398.438 -453.125 3092
-31.25 242.188 1328
492.188 -289.062 1509
335.938 281.25 1470
218.75 273.438 1616
-367.188 -15.625 1149
54.6875 351.562 1349
-351.562 70.3125 1181
257.812 281.25 1489
117.188 -367.188 1415
-171.875 -289.062 1288
-234.375 148.438 1516
-171.875 -195.312 1283
-398.438 -289.062 3269
484.375 -148.438 1157
46.875 -148.438 1157
46.875 312.5 1333
46.875 -218.75 1153
-78.125 -171.875 1138
-320.312 210.938 1312
85.9375 0 1169
250 289.062 1516
-195.312 -117.188 1105
31.25 -171.875 1141
445.312 320.312 1509
-390.625 210.938 1227
-296.875 156.25 1415
-164.062 -171.875 1288
-398.438 -351.562 3178
226.562 390.625 1398
359.375 -320.312 1343
210.938 -296.875 1255
320.312 -140.625 1153
-382.812 242.188 1241
39.0625 242.188 1333
-296.875 359.375 1349
156.25 -132.812 1153
382.812 242.188 1529
-398.438 -468.75 3064
62.5 -148.438 1236
85.9375 -62.5 1149
-398.438 -281.25 3269
-398.438 -359.375 3178
421.875 -148.438 1153
-476.562 382.812 1647
-484.375 382.812 1639
85.9375 7.8125 1173
-320.312 203.125 1278
304.688 -296.875 1338
328.125 281.25 1477
226.562 -296.875 1255
-320.312 320.312 1283
351.562 -320.312 1343
54.6875 -39.0625 1157
-7.8125 -62.5 1153
-93.75 -39.0625 1153
-31.25 -242.188 1130
257.812 -132.812 1157
359.375 -257.812 1115
265.625 -304.688 1259
421.875 -125 1161
-398.438 -367.188 3178
-429.688 -242.188 2680
31.25 -164.062 1149
281.25 289.062 1483
101.562 179.688 1894
62.5 -148.438 1236
304.688 218.75 1609
242.188 -93.75 1119
101.562 320.312 1354
-375 281.25 1255
70.3125 -187.5 1169
203.125 -93.75 1115
320.312 -15.625 1785
-78.125 -281.25 1153
453.125 187.5 1509
-414.062 -343.75 3178
-54.6875 250 1328
39.0625 257.812 1328
343.75 242.188 1572
210.938 -132.812 1153
109.375 -351.562 1427
39.0625 265.625 1328
62.5 312.5 1322
242.188 -132.812 1157
-93.75 164.062 1509
382.812 250 1509
421.875 289.062 1586
-39.0625 -187.5 1130
125 375 1392
62.5 328.125 1328
-398.438 -398.438 3178
-320.312 304.688 1283
101.562 335.938 1359
-281.25 304.688 1464
281.25 328.125 1496
453.125 -273.438 1169
54.6875 367.188 1354
23.4375 148.438 1557
-70.3125 242.188 1322
406.25 -132.812 1161
-375 148.438 1206
-500 -39.0625 3238
-125 -39.0625 1157
367.188 195.312 1843
-492.188 -351.562 2349
406.25 -140.625 1157
335.938 -39.0625 1193
-289.062 429.688 1338
-335.938 210.938 1236
-140.625 226.562 1349
78.125 359.375 1354
296.875 -132.812 1157
15.625 164.062 1503
429.688 281.25 1572
-335.938 148.438 1245
218.75 257.812 1705
257.812 -328.125 1250
375 -132.812 1161
-351.562 62.5 1177
429.688 -148.438 1153
-148.438 -179.688 1259
-359.375 -23.4375 1149
-359.375 -15.625 1153
-156.25 226.562 1349
414.062 -218.75 1126
23.4375 -140.625 1189
-359.375 23.4375 1161
226.562 296.875 1586
-406.25 101.562 1189
78.125 117.188 1214
359.375 -132.812 1161
70.3125 132.812 1241
-398.438 -195.312 1376
85.9375 125 1219
195.312 195.312 1915
85.9375 -7.8125 1165
351.562 -132.812 1161
312.5 -7.8125 1794
-382.812 -421.875 3037
312.5 31.25 1813
226.562 -250 1115
-351.562 398.438 1317
54.6875 304.688 1338
-312.5 187.5 1343
273.438 164.062 1894
-367.188 -31.25 1145
312.5 218.75 1609
351.562 242.188 1572
414.062 -148.438 1153
-296.875 140.625 1427
-421.875 289.062 1915
-85.9375 -156.25 1157
242.188 296.875 1550
250 -23.4375 1189
250 -328.125 1250
187.5 -445.312 1427
-398.438 -273.438 3269
-289.062 296.875 1415
-7.8125 109.375 1214
117.188 320.312 1354
-171.875 -210.938 1283
343.75 187.5 1915
-70.3125 -234.375 1169
-492.188 -304.688 2365
78.125 78.125 1197
-54.6875 -210.938 1141
-359.375 359.375 1297
382.812 -320.312 3269
-398.438 -382.812 3178
304.688 39.0625 1823
-343.75 429.688 1338
46.875 125 1210
70.3125 257.812 1292
-359.375 15.625 1161
453.125 -281.25 1169
320.312 234.375 1601
-382.812 -453.125 3037
-398.438 -390.625 3178
-187.5 -304.688 1302
156.25 -335.938 1268
-164.062 -226.562 1307
-320.312 78.125 1185
289.062 -31.25 1193
-429.688 375 1680
-250 429.688 1338
-312.5 226.562 1307
-203.125 23.4375 1149
7.8125 -179.688 1126
484.375 -304.688 1483
351.562 304.688 1458
-320.312 312.5 1283
-328.125 265.625 1268
-54.6875 -195.312 1134
-382.812 -296.875 3178
304.688 226.562 1601
70.3125 234.375 1288
289.062 125 1883
85.9375 -23.4375 1165
171.875 250 1731
414.062 -289.062 1236
312.5 320.312 1489
429.688 -281.25 1181
265.625 304.688 1503
429.688 187.5 1594
-304.688 312.5 1297
-398.438 -421.875 3149
-414.062 39.0625 1165
31.25 156.25 1536
390.625 226.562 1731
367.188 242.188 1564
-382.812 -351.562 3120
-164.062 -265.625 1288
484.375 -132.812 1165
85.9375 242.188 1278
359.375 242.188 1572
-218.75 15.625 1169
328.125 320.312 1458
85.9375 15.625 1177
281.25 312.5 1496
-312.5 210.938 1338
85.9375 -31.25 1161
414.062 -132.812 1161
-125 -195.312 1268
-335.938 320.312 1278
429.688 304.688 1557
85.9375 23.4375 1177
179.688 265.625 1696
-359.375 7.8125 1157
-351.562 78.125 1185
62.5 390.625 1359
93.75 117.188 1210
367.188 218.75 1594
70.3125 265.625 1297
-304.688 210.938 1349
296.875 93.75 1853
-312.5 351.562 1302
117.188 -257.812 1105
-289.062 312.5 1464
-289.062 351.562 1433
-257.812 171.875 1452
-398.438 -406.25 3149
-164.062 -195.312 1273
398.438 289.062 1489
132.812 203.125 1904
335.938 -132.812 1157
-304.688 398.438 1338
187.5 226.562 1813
328.125 398.438 1370
468.75 -117.188 1161
93.75 312.5 1349
273.438 -132.812 1157
218.75 -296.875 1255
-320.312 234.375 1288
-54.6875 132.812 1210
-70.3125 -179.688 1134
-312.5 140.625 1365
195.312 -296.875 1250
312.5 296.875 1464
54.6875 -187.5 1149
-382.812 -328.125 3178
-31.25 -265.625 1138
-476.562 406.25 1579
-398.438 -414.062 3149
328.125 -46.875 1181
156.25 -398.438 1241
-62.5 15.625 1169
-296.875 273.438 1387
-117.188 -195.312 1264
-320.312 -70.3125 1138
148.438 328.125 1543
93.75 343.75 1370
296.875 218.75 1594
-31.25 -156.25 1138
70.3125 273.438 1302
-328.125 78.125 1185
-304.688 359.375 1307
304.688 46.875 1823
-117.188 -210.938 1264
304.688 265.625 1496
-492.188 -250 2467
-414.062 31.25 1161
-343.75 78.125 1181
39.0625 234.375 1359
375 195.312 1804
-70.3125 -226.562 1169
-109.375 -39.0625 1157
-335.938 195.312 1227
-7.8125 -210.938 1130
31.25 -226.562 1149
335.938 -93.75 1126
-39.0625 -187.5 1130
265.625 -421.875 1219
406.25 -54.6875 1173
54.6875 -218.75 1161
85.9375 31.25 1181
-85.9375 -195.312 1134
-70.3125 -93.75 1105
328.125 -93.75 1126
132.812 -445.312 1421
101.562 -93.75 1108
242.188 -421.875 1219
-132.812 203.125 1410
-31.25 -234.375 1134
359.375 -93.75 1126
-382.812 -257.812 3092
343.75 320.312 1470
429.688 -273.438 1181
-23.4375 -117.188 1108
-296.875 171.875 1398
62.5 195.312 1268
-335.938 78.125 1185
-484.375 -351.562 2398
453.125 -250 1119
7.8125 -234.375 1134
-296.875 226.562 1317
70.3125 281.25 1307
-54.6875 -242.188 1165
375 242.188 1550
140.625 -335.938 1427
-398.438 367.188 1696
437.5 -148.438 1153
85.9375 226.562 1273
492.188 -148.438 1157
343.75 -132.812 1157
351.562 203.125 1616
468.75 -54.6875 1173
-85.9375 320.312 1536
-23.4375 -226.562 1130
265.625 -375 1236
359.375 -109.375 1153
101.562 -132.812 1145
93.75 132.812 1241
-320.312 132.812 1333
-406.25 -187.5 1349
-164.062 218.75 1354
-382.812 234.375 1236
-140.625 -46.875 1153
-203.125 132.812 1572
-210.938 148.438 1529
70.3125 -179.688 1181
-359.375 46.875 1173
101.562 320.312 1354
437.5 -132.812 1157
281.25 171.875 1904
-476.562 -39.0625 3433
85.9375 265.625 1297
-304.688 195.312 1381
-171.875 -210.938 1283
62.5 382.812 1349
226.562 -375 1227
85.9375 -7.8125 1165
437.5 -273.438 1173
-335.938 203.125 1227
234.375 -257.812 1115
70.3125 289.062 1307
-320.312 296.875 1283
421.875 93.75 1639
429.688 -257.812 1115
101.562 -148.438 1149
359.375 -101.562 1130
-398.438 -312.5 3269
414.062 -93.75 1130
132.812 367.188 1376
-437.5 -164.062 1241
-468.75 -203.125 2485
437.5 -54.6875 1169
-359.375 -31.25 1145
289.062 -265.625 1112
-312.5 101.562 1193
-476.562 304.688 1853
-445.312 218.75 2143
-46.875 -203.125 1134
156.25 -328.125 1268
-109.375 -93.75 1105
-484.375 218.75 2129
-15.625 -203.125 1130
-492.188 -296.875 2381
171.875 -93.75 1115
-359.375 -23.4375 1149
54.6875 218.75 1283
-218.75 234.375 1317
367.188 -31.25 1197
125 312.5 1354
453.125 -148.438 1153
-335.938 -70.3125 1130
109.375 -343.75 1439
-296.875 210.938 1349
-132.812 218.75 1354
367.188 210.938 1594
226.562 -85.9375 1123
-273.438 234.375 1302
-265.625 -85.9375 1101
62.5 250 1292
-359.375 -39.0625 1145
-195.312 7.8125 1173
62.5 335.938 1333
-203.125 15.625 1157
62.5 187.5 1245
-382.812 -289.062 3208
70.3125 242.188 1288
-164.062 234.375 1328
-164.062 -226.562 1307
453.125 335.938 1470
-492.188 -312.5 2381
164.062 -312.5 1259
125 328.125 1370
-445.312 375 1680
460.938 328.125 1458
187.5 -132.812 1157
-382.812 -312.5 3120
-492.188 304.688 1843
-492.188 304.688 1843
320.312 296.875 1458
-62.5 -257.812 1185
453.125 -335.938 3269
-414.062 -367.188 3178
242.188 -125 1161
-148.438 203.125 1410
-375 359.375 1297
-281.25 -54.6875 1145
85.9375 0 1169
-312.5 335.938 1317
320.312 234.375 1601
-406.25 85.9375 1181
-171.875 -195.312 1283
-398.438 -320.312 3238
-335.938 171.875 1223
132.812 226.562 1349
218.75 242.188 1766
406.25 -257.812 1115
-359.375 0 1157
187.5 289.062 1647
85.9375 -15.625 1165
-85.9375 320.312 1536
-492.188 -257.812 2450
476.562 -148.438 1153
101.562 312.5 1349
-70.3125 -195.312 1134
-85.9375 -195.312 1134
-351.562 46.875 1173
85.9375 46.875 1185
-148.438 234.375 1317
-320.312 218.75 1250
-359.375 -7.8125 1157
460.938 -281.25 1165
-242.188 132.812 1572
218.75 250 1739
421.875 -132.812 1161
-421.875 15.625 1153
132.812 210.938 1833
-382.812 132.812 1197
304.688 85.9375 1853
-242.188 203.125 1381
-156.25 218.75 1365
-203.125 234.375 1312
-492.188 -218.75 2450
148.438 320.312 1381
-351.562 54.6875 1173
398.438 -132.812 1161
-46.875 -265.625 1145
-273.438 218.75 1338
445.312 -54.6875 1173
-289.062 132.812 1477
-382.812 -281.25 3208
93.75 125 1219
62.5 218.75 1283
132.812 -351.562 1415
0 -226.562 1134
-210.938 234.375 1317
85.9375 39.0625 1181
265.625 -320.312 1250
-70.3125 -226.562 1169
-328.125 250 1264
-31.25 -226.562 1130
296.875 101.562 1853
187.5 281.25 1655
-257.812 -70.3125 1138
-85.9375 -156.25 1157
242.188 281.25 1536
85.9375 218.75 1278
-117.188 -203.125 1259
15.625 125 1214
70.3125 304.688 1312
-367.188 -70.3125 1130
-117.188 -187.5 1264
-156.25 234.375 1322
93.75 -164.062 1119
78.125 132.812 1236
-335.938 132.812 1245
-328.125 257.812 1268
93.75 15.625 1177
-140.625 242.188 1322
226.562 -351.562 1236
-125 234.375 1322
-140.625 234.375 1322
-62.5 -250 1185
-289.062 -70.3125 1138
-359.375 -54.6875 1141
453.125 320.312 1470
-179.688 234.375 1317
-70.3125 242.188 1322
-296.875 195.312 1387
304.688 54.6875 1833
351.562 242.188 1572
70.3125 171.875 1255
93.75 156.25 1250
85.9375 -39.0625 1153
125 -351.562 1421
-437.5 -335.938 2560
70.3125 296.875 1307
62.5 195.312 1268
23.4375 -242.188 1153
85.9375 70.3125 1193
312.5 187.5 1904
445.312 -148.438 1153
85.9375 -54.6875 1153
-148.438 218.75 1365
156.25 -437.5 1241
125 320.312 1354
-226.562 234.375 1317
101.562 46.875 1181
468.75 -148.438 1153
132.812 226.562 1349
-445.312 -375 3149
-171.875 234.375 1328
226.562 273.438 1616
-156.25 203.125 1404
250 -289.062 1264
312.5 31.25 1813
-70.3125 -210.938 1173
93.75 320.312 1354
-195.312 0 1165
-273.438 210.938 1359
-203.125 0 1165
85.9375 -23.4375 1165
210.938 218.75 1823
445.312 203.125 1529
-492.188 -265.625 2450
273.438 281.25 1483
-250 78.125 1189
85.9375 54.6875 1185
-101.562 -226.562 1210
117.188 320.312 1354
31.25 -164.062 1149
296.875 312.5 1470
62.5 375 1349
406.25 203.125 1671
-312.5 179.688 1322
-296.875 382.812 1312
398.438 -125 1161
101.562 -148.438 1149
-382.812 -382.812 3092
-117.188 -195.312 1264
-484.375 210.938 2143
70.3125 242.188 1288
70.3125 -156.25 1232
-109.375 218.75 1370
-351.562 -70.3125 1134
101.562 312.5 1349
70.3125 226.562 1278
359.375 210.938 1594
-171.875 218.75 1354
445.312 -343.75 3238
-367.188 312.5 1278
257.812 -328.125 1250
62.5 -187.5 1161
179.688 -437.5 1206
-296.875 328.125 1365
78.125 109.375 1206
-117.188 242.188 1317
-398.438 -289.062 3269
-234.375 148.438 1516
-62.5 242.188 1322
164.062 257.812 1713
-382.812 -273.438 3208
-203.125 156.25 1509
171.875 242.188 1757
39.0625 359.375 1381
265.625 -390.625 1227
-343.75 -70.3125 1134
78.125 148.438 1250
-46.875 218.75 1376
-281.25 226.562 1307
93.75 179.688 1255
101.562 15.625 1177
234.375 -429.688 1214
54.6875 343.75 1349
-117.188 -39.0625 1157
-398.438 -304.688 3269
-85.9375 7.8125 1169
-265.625 78.125 1189
0 -156.25 1134
-195.312 234.375 1312
296.875 -125 1157
117.188 328.125 1359
85.9375 15.625 1177
70.3125 -179.688 1181
-406.25 -187.5 1349
0 -54.6875 1153
312.5 0 1785
-296.875 398.438 1343
-39.0625 -195.312 1130
390.625 -132.812 1157
-156.25 242.188 1322
-273.438 78.125 1189
-179.688 242.188 1312
93.75 -140.625 1145
281.25 320.312 1503
-398.438 -296.875 3269
-31.25 -265.625 1138
23.4375 -210.938 1138
117.188 -140.625 1145
-351.562 39.0625 1169
-398.438 320.312 1833
93.75 70.3125 1193
85.9375 78.125 1197
101.562 62.5 1185
0 -273.438 1149
109.375 257.812 1349
-78.125 218.75 1359
-257.812 78.125 1189
-78.125 242.188 1322
-187.5 234.375 1312
-140.625 -445.312 3120
125 234.375 1343
-453.125 218.75 2143
70.3125 320.312 1328
70.3125 250 1292
-85.9375 242.188 1322
85.9375 62.5 1189
296.875 125 1873
296.875 125 1873
-125 218.75 1349
-203.125 218.75 1354
-218.75 148.438 1483
335.938 -117.188 1177
-414.062 367.188 1705
-93.75 148.438 1550
-281.25 78.125 1189
-289.062 78.125 1189
-179.688 218.75 1354
156.25 226.562 1813
-125 203.125 1398
85.9375 335.938 1370
-195.312 218.75 1359
-218.75 218.75 1343
-187.5 203.125 1387
-289.062 171.875 1452
0 -265.625 1145
-15.625 -273.438 1149
382.812 -132.812 1157
-343.75 78.125 1181
-140.625 203.125 1410
-187.5 218.75 1359
-70.3125 -210.938 1173
85.9375 281.25 1283
93.75 171.875 1250
312.5 39.0625 1823
-109.375 203.125 1398
-164.062 242.188 1317
132.812 218.75 1354
140.625 234.375 1794
-351.562 390.625 1312
-210.938 218.75 1343
-484.375 -335.938 2415
-164.062 -179.688 1288
-39.0625 234.375 1292
-54.6875 242.188 1307
-39.0625 242.188 1322
203.125 -421.875 1206
234.375 -382.812 1223
109.375 218.75 1349
-85.9375 289.062 1601
-70.3125 -218.75 1169
78.125 164.062 1250
-351.562 70.3125 1181
-257.812 148.438 1509
-398.438 367.188 1696
-164.062 -273.438 1288
-398.438 -265.625 3300
-117.188 218.75 1354
-70.3125 -203.125 1173
-171.875 242.188 1322
70.3125 312.5 1317
-304.688 -70.3125 1138
-390.625 -203.125 2835
281.25 140.625 1883
-171.875 203.125 1392
125 78.125 1843
85.9375 15.625 1177
78.125 125 1223
-148.438 242.188 1317
-85.9375 218.75 1365
101.562 54.6875 1173
-132.812 242.188 1322
70.3125 218.75 1278
-484.375 -375 2381
-171.875 -203.125 1283
-101.562 242.188 1328
406.25 242.188 1663
54.6875 -195.312 1149
85.9375 7.8125 1173
85.9375 -171.875 1130
93.75 312.5 1349
-351.562 46.875 1173
-62.5 -179.688 1130
171.875 234.375 1785
-62.5 203.125 1421
-406.25 78.125 1173
-164.062 203.125 1398
-70.3125 164.062 1523
-320.312 328.125 1283
62.5 320.312 1328
460.938 335.938 1458
218.75 -320.312 1245
320.312 -39.0625 1189
101.562 328.125 1354
-117.188 -195.312 1264
-382.812 -320.312 3120
-468.75 382.812 1647
-46.875 -257.812 1145
101.562 320.312 1354
85.9375 296.875 1302
-210.938 234.375 1317
-31.25 242.188 1328
-226.562 234.375 1317
-93.75 218.75 1376
304.688 187.5 1904
-250 234.375 1297
-218.75 187.5 1410
328.125 -117.188 1169
-343.75 -117.188 1087
257.812 -320.312 1255
-210.938 398.438 1349
-179.688 203.125 1387
-218.75 234.375 1312
-125 -226.562 1232
437.5 -320.312 1241
453.125 -296.875 1197
85.9375 23.4375 1177
421.875 -304.688 1241
-203.125 164.062 1483
-257.812 171.875 1452
-234.375 234.375 1307
-320.312 187.5 1297
-140.625 218.75 1365
-390.625 226.562 1236
414.062 257.812 1639
-93.75 242.188 1322
-93.75 164.062 1503
-23.4375 242.188 1328
-242.188 234.375 1302
-460.938 382.812 1639
359.375 398.438 1381
-414.062 -179.688 1297
250 -335.938 1245
-500 242.188 1981
23.4375 -187.5 1130
-210.938 187.5 1415
109.375 320.312 1354
109.375 234.375 1349
-367.188 -390.625 3064
406.25 -132.812 1161
-359.375 -54.6875 1138
-210.938 242.188 1312
390.625 210.938 1731
-195.312 242.188 1307
-304.688 164.062 1387
367.188 -46.875 1193
-179.688 164.062 1489
-203.125 234.375 1307
-304.688 335.938 1292
54.6875 335.938 1343
93.75 164.062 1255
-31.25 218.75 1312
101.562 -164.062 1141
-148.438 203.125 1398
-140.625 242.188 1722
296.875 109.375 1863
46.875 -171.875 1149
-148.438 164.062 1489
70.3125 335.938 1333
7.8125 -296.875 1165
-46.875 203.125 1392
-187.5 7.8125 1157
85.9375 31.25 1181
-132.812 62.5 1185
0 218.75 1354
-93.75 203.125 1387
-132.812 218.75 1354
-7.8125 203.125 1398
70.3125 328.125 1333
-156.25 -195.312 1268
-335.938 187.5 1223
93.75 304.688 1354
62.5 281.25 1312
-101.562 218.75 1354
-296.875 265.625 1370
-359.375 351.562 1292
-78.125 -148.438 1153
101.562 -148.438 1149
-39.0625 203.125 1392
109.375 210.938 1354
289.062 140.625 1894
-421.875 -62.5 1119
125 328.125 1365
-156.25 218.75 1359
-148.438 218.75 1365
-15.625 -273.438 1141
62.5 -195.312 1157
312.5 -273.438 1112
-234.375 187.5 1410
273.438 -367.188 1236
-117.188 164.062 1496
-242.188 156.25 1496
7.8125 -281.25 1149
-117.188 -210.938 1264
335.938 320.312 1483
-351.562 54.6875 1173
-70.3125 203.125 1392
-265.625 140.625 1529
-39.0625 -195.312 1130
-156.25 164.062 1496
-125 164.062 1496
-117.188 -187.5 1264
-85.9375 203.125 1387
-273.438 187.5 1398
125 367.188 1376
-296.875 375 1302
453.125 -54.6875 1177
-296.875 78.125 1185
-390.625 -265.625 3208
-117.188 359.375 1439
-31.25 -148.438 1145
85.9375 312.5 1322
437.5 289.062 1543
-429.688 -367.188 3149
-414.062 7.8125 1149
-242.188 78.125 1189
39.0625 234.375 1333
-156.25 242.188 1722
109.375 -218.75 1119
273.438 -375 1236
195.312 343.75 1470
492.188 343.75 1387
-226.562 148.438 1509
304.688 46.875 1813
218.75 242.188 1748
109.375 -171.875 1134
-7.8125 242.188 1328
-398.438 226.562 1236
93.75 148.438 1255
375 265.625 1477
-460.938 218.75 2129
179.688 242.188 1748
398.438 265.625 1536
-226.562 156.25 1496
-281.25 187.5 1387
132.812 226.562 1343
304.688 54.6875 1813
171.875 -414.062 1214
85.9375 46.875 1185
218.75 234.375 1766
-171.875 218.75 1354
-195.312 -117.188 1094
-187.5 242.188 1307
-15.625 242.188 1328
492.188 335.938 1370
117.188 257.812 1343
273.438 289.062 1489
85.9375 39.0625 1185
312.5 39.0625 1813
-62.5 7.8125 1169
-70.3125 242.188 1317
-62.5 -195.312 1130
-375 281.25 1250
-39.0625 335.938 1489
-406.25 -382.812 3178
23.4375 234.375 1333
-320.312 226.562 1241
-304.688 187.5 1328
273.438 148.438 1904
-273.438 234.375 1302
-23.4375 187.5 1439
414.062 -54.6875 1177
93.75 312.5 1354
-500 -210.938 2415
-296.875 257.812 1376
-406.25 226.562 2116
-179.688 234.375 1312
-203.125 203.125 1387
-148.438 -234.375 1264
-109.375 242.188 1312
-117.188 242.188 1317
78.125 179.688 1259
-210.938 218.75 1333
-492.188 -273.438 2432
125 250 1343
-210.938 203.125 1381
-179.688 398.438 1354
-125 -171.875 1273
-70.3125 218.75 1354
-195.312 203.125 1387
-132.812 203.125 1398
-492.188 -281.25 2432
-289.062 257.812 1421
-289.062 359.375 1410
218.75 -382.812 1223
78.125 195.312 1268
-351.562 382.812 1312
54.6875 195.312 1278
85.9375 78.125 1202
445.312 -273.438 1126
-437.5 -117.188 1073
242.188 179.688 1926
390.625 234.375 1529
460.938 -148.438 1157
-359.375 -70.3125 1130
-62.5 218.75 1359
109.375 226.562 1349
187.5 -109.375 1112
125 320.312 1359
54.6875 359.375 1354
39.0625 -109.375 1105
-351.562 -117.188 1084
-414.062 320.312 1813
-187.5 218.75 1343
-195.312 234.375 1312
273.438 -320.312 1255
242.188 -320.312 1250
-312.5 226.562 1302
-406.25 320.312 1813
429.688 -54.6875 1177
62.5 -54.6875 1153
132.812 328.125 1376
-234.375 171.875 1458
226.562 -382.812 1223
226.562 273.438 1616
-312.5 242.188 1273
0 234.375 1328
242.188 -421.875 1210
-15.625 203.125 1398
-85.9375 242.188 1322
-250 156.25 1483
-312.5 171.875 1292
-171.875 -296.875 1273
-375 265.625 1245
-218.75 218.75 1338
70.3125 -179.688 1173
-164.062 218.75 1349
-484.375 304.688 1833
-85.9375 -164.062 1157
-429.688 375 1671
85.9375 320.312 1328
85.9375 304.688 1322
109.375 -210.938 1119
-484.375 -320.312 2415
-156.25 203.125 1392
398.438 226.562 1557
85.9375 70.3125 1197
-375 359.375 1297
-148.438 -195.312 1255
304.688 93.75 1853
