ply
format ascii 1.0
comment Created by Open3D
element vertex 2351
property double x
property double y
property double z
end_header
-257.812 281.25 809
-343.75 -148.438 967
414.062 -187.5 871
-429.688 -195.312 933
125 70.3125 1138
-492.188 343.75 896
-335.938 328.125 913
-390.625 -148.438 935
-250 312.5 849
-398.438 -117.188 882
-226.562 273.438 789
273.438 -203.125 885
-500 -164.062 827
-304.688 335.938 910
-304.688 265.625 800
78.125 -320.312 3037
171.875 85.9375 1130
-78.125 -218.75 1165
406.25 -195.312 869
296.875 93.75 1141
85.9375 -101.562 1288
476.562 132.812 1115
-54.6875 -85.9375 1031
132.812 132.812 1090
39.0625 -109.375 1292
250 -218.75 880
-296.875 70.3125 858
-414.062 -218.75 930
148.438 78.125 1134
-289.062 265.625 794
-273.438 273.438 803
-382.812 242.188 800
210.938 -234.375 889
117.188 70.3125 1138
-132.812 -226.562 1173
-31.25 -335.938 3010
46.875 62.5 1138
-414.062 -117.188 880
-484.375 -7.8125 930
-375 171.875 831
390.625 -54.6875 975
-460.938 351.562 896
0 -335.938 3064
109.375 85.9375 1123
-414.062 359.375 894
-367.188 -375 2984
265.625 93.75 1138
-406.25 234.375 803
-148.438 351.562 867
-328.125 -257.812 1193
250 93.75 1138
-125 210.938 823
-335.938 164.062 811
-328.125 156.25 809
-351.562 -179.688 981
390.625 -46.875 984
296.875 218.75 1041
-500 46.875 894
-250 296.875 823
-226.562 70.3125 887
-257.812 132.812 864
-148.438 273.438 787
148.438 70.3125 1138
-140.625 367.188 908
-335.938 257.812 805
203.125 93.75 1130
23.4375 -328.125 3064
93.75 39.0625 1161
-218.75 281.25 794
78.125 -328.125 3010
-265.625 281.25 811
-359.375 -265.625 1197
203.125 132.812 1097
-265.625 148.438 856
-195.312 289.062 794
234.375 93.75 1134
-250 93.75 858
-351.562 187.5 825
-85.9375 -218.75 1161
-492.188 -375 940
343.75 -195.312 871
-31.25 -210.938 1157
179.688 414.062 903
-132.812 367.188 908
-93.75 132.812 875
-414.062 -148.438 943
-437.5 226.562 805
78.125 -101.562 1288
-218.75 359.375 906
-437.5 -179.688 933
-445.312 -117.188 898
312.5 -320.312 954
265.625 -78.125 978
46.875 -289.062 3120
-359.375 140.625 817
-93.75 140.625 869
195.312 140.625 1090
-148.438 343.75 851
-335.938 -257.812 1189
93.75 382.812 915
343.75 -312.5 951
-187.5 296.875 802
-390.625 -273.438 1016
-468.75 359.375 894
-468.75 -273.438 948
-265.625 335.938 915
468.75 -31.25 1273
-250 359.375 906
-328.125 132.812 835
-328.125 70.3125 860
-46.875 -218.75 1169
406.25 -304.688 975
492.188 117.188 1130
156.25 70.3125 1138
-343.75 -257.812 1185
0 -312.5 3064
109.375 -46.875 1232
171.875 78.125 1134
-93.75 -234.375 1181
117.188 -312.5 3037
39.0625 156.25 1067
-445.312 -218.75 918
281.25 -328.125 959
187.5 78.125 1138
-304.688 -250 1181
335.938 -312.5 951
140.625 132.812 1090
-156.25 390.625 894
-187.5 414.062 882
304.688 93.75 1141
-101.562 -343.75 3037
-250 78.125 882
179.688 78.125 1134
-93.75 -226.562 1173
335.938 -234.375 882
-367.188 242.188 800
304.688 -304.688 948
-257.812 -242.188 1177
70.3125 -320.312 3037
-195.312 -234.375 1177
242.188 132.812 1108
-39.0625 -218.75 1165
226.562 140.625 1094
242.188 -78.125 984
-140.625 -226.562 1169
-375 -109.375 880
-242.188 -359.375 3037
-335.938 343.75 903
-437.5 -226.562 918
273.438 78.125 1123
-367.188 250 805
7.8125 343.75 935
-375 -117.188 871
390.625 -179.688 871
406.25 70.3125 1169
257.812 -54.6875 995
156.25 62.5 1149
-312.5 429.688 1496
-179.688 289.062 787
-468.75 -164.062 1022
-93.75 -343.75 3010
-101.562 304.688 951
398.438 273.438 998
-328.125 265.625 815
-359.375 257.812 809
203.125 85.9375 1134
367.188 117.188 1123
-359.375 -312.5 3037
-226.562 -242.188 1181
-210.938 -359.375 3037
-15.625 -171.875 1119
-265.625 156.25 849
-343.75 195.312 819
-203.125 -234.375 1173
-78.125 210.938 1016
257.812 -78.125 978
-398.438 242.188 807
-289.062 406.25 894
-171.875 367.188 903
-328.125 -171.875 975
-367.188 257.812 813
-335.938 -210.938 964
-257.812 70.3125 864
179.688 -234.375 894
203.125 70.3125 1130
-484.375 -164.062 1013
476.562 -242.188 2883
320.312 -320.312 954
242.188 -210.938 889
-406.25 -210.938 935
-476.562 351.562 894
-351.562 117.188 843
218.75 93.75 1134
-445.312 234.375 817
78.125 -296.875 3092
-39.0625 -335.938 3010
-39.0625 62.5 1134
-312.5 -164.062 925
250 -70.3125 992
-359.375 -195.312 973
296.875 93.75 1141
125 320.312 959
-437.5 -109.375 889
-414.062 -250 920
273.438 93.75 1138
-414.062 -23.4375 962
257.812 -62.5 992
-296.875 273.438 809
93.75 54.6875 1145
-148.438 -234.375 1177
-31.25 39.0625 1153
257.812 -109.375 956
-257.812 109.375 849
-265.625 -242.188 1173
-312.5 62.5 864
273.438 -312.5 951
-203.125 -242.188 1181
164.062 85.9375 1130
-460.938 -179.688 1019
-398.438 390.625 1509
-226.562 -359.375 3064
257.812 -85.9375 973
-351.562 390.625 894
164.062 62.5 1145
-390.625 250 813
289.062 93.75 1141
70.3125 -85.9375 1273
-328.125 -179.688 973
-125 437.5 880
-382.812 -265.625 1034
-7.8125 335.938 938
210.938 78.125 1141
-359.375 125 817
-492.188 210.938 809
242.188 93.75 1134
-351.562 171.875 831
31.25 -109.375 1292
31.25 328.125 951
-265.625 39.0625 856
-179.688 -242.188 1185
-234.375 273.438 790
-304.688 273.438 813
250 343.75 951
-203.125 289.062 794
-281.25 171.875 837
-140.625 429.688 880
335.938 -187.5 875
-429.688 234.375 813
390.625 -312.5 984
-195.312 281.25 789
-265.625 -250 1185
312.5 93.75 1138
250 -78.125 981
-304.688 -367.188 3037
179.688 85.9375 1130
-234.375 -242.188 1177
-289.062 -250 1181
335.938 62.5 1105
-226.562 132.812 867
15.625 -328.125 3064
-304.688 257.812 794
-343.75 156.25 817
351.562 31.25 1067
437.5 -195.312 875
-234.375 -359.375 3037
242.188 -156.25 925
257.812 320.312 967
265.625 -70.3125 984
-351.562 125 821
-390.625 -265.625 1019
265.625 -62.5 992
-164.062 -351.562 3037
-62.5 -15.625 978
-335.938 70.3125 867
-273.438 281.25 813
-406.25 -203.125 935
-406.25 -320.312 998
-406.25 -218.75 933
375 -187.5 871
226.562 -179.688 918
-85.9375 -218.75 1161
-460.938 -320.312 954
109.375 -31.25 1077
203.125 273.438 992
281.25 -195.312 885
-148.438 -226.562 1165
-468.75 -367.188 951
-484.375 218.75 809
367.188 171.875 1080
281.25 -70.3125 978
437.5 296.875 989
-273.438 265.625 794
-328.125 242.188 794
-265.625 46.875 854
-234.375 289.062 807
-226.562 281.25 798
335.938 -312.5 951
-382.812 398.438 1509
-398.438 -375 3037
-335.938 250 798
-476.562 226.562 823
-328.125 257.812 800
-242.188 281.25 798
453.125 85.9375 1157
-421.875 320.312 910
234.375 101.562 1126
-367.188 320.312 913
-421.875 -156.25 954
187.5 -226.562 898
-132.812 367.188 908
-109.375 351.562 875
-476.562 -273.438 943
-132.812 218.75 819
46.875 31.25 1165
250 -62.5 995
484.375 429.688 898
-31.25 390.625 906
-476.562 -351.562 943
-437.5 406.25 1489
273.438 -328.125 959
-453.125 -62.5 989
-140.625 242.188 803
-421.875 -335.938 984
281.25 -328.125 959
-148.438 359.375 867
414.062 -210.938 875
-476.562 218.75 809
-375 250 809
-289.062 421.875 1445
-281.25 429.688 1452
-179.688 -234.375 1177
-445.312 -359.375 984
-382.812 171.875 831
312.5 -187.5 882
-359.375 250 802
-171.875 -234.375 1177
-312.5 -367.188 3037
-242.188 273.438 792
-156.25 289.062 787
-296.875 265.625 798
-132.812 359.375 869
281.25 -62.5 981
-351.562 -257.812 1189
304.688 -320.312 959
-93.75 -218.75 1161
242.188 328.125 962
320.312 -195.312 875
-85.9375 210.938 1013
-335.938 -257.812 1189
-304.688 62.5 860
250 101.562 1126
-468.75 -140.625 1060
406.25 -187.5 869
-390.625 242.188 805
195.312 109.375 1115
265.625 -78.125 978
179.688 179.688 1060
148.438 242.188 1013
-453.125 -343.75 964
-117.188 -226.562 1173
101.562 46.875 1153
-460.938 289.062 923
109.375 -312.5 3037
312.5 -320.312 954
-445.312 -210.938 989
-468.75 218.75 809
-312.5 265.625 809
-125 187.5 839
-39.0625 -210.938 1157
429.688 -250 928
-203.125 -234.375 1173
-312.5 -250 1181
250 -210.938 885
-265.625 -242.188 1173
390.625 -234.375 891
265.625 -203.125 887
-343.75 187.5 825
289.062 -54.6875 989
54.6875 39.0625 1161
-476.562 359.375 894
-296.875 390.625 885
265.625 -210.938 882
234.375 140.625 1097
328.125 78.125 1126
445.312 85.9375 1157
-421.875 242.188 817
460.938 -31.25 1273
-132.812 234.375 809
-429.688 -203.125 928
414.062 -281.25 951
-320.312 -367.188 3037
-148.438 304.688 798
-242.188 -257.812 1193
-406.25 242.188 813
-328.125 -148.438 903
117.188 -312.5 3037
-453.125 -312.5 954
-187.5 289.062 792
-453.125 -242.188 962
-437.5 -62.5 915
93.75 -171.875 2744
0 23.4375 1169
421.875 -39.0625 1273
-484.375 -156.25 1073
-367.188 85.9375 885
250 -62.5 995
-156.25 -226.562 1169
39.0625 -195.312 2812
-351.562 -195.312 973
125 78.125 1130
218.75 -226.562 887
-343.75 -289.062 2958
-54.6875 -78.125 1025
367.188 -195.312 871
242.188 -335.938 978
-312.5 78.125 847
-148.438 -226.562 1165
-406.25 -281.25 989
-210.938 -234.375 1173
-179.688 421.875 882
234.375 359.375 940
-343.75 203.125 815
-46.875 -210.938 1153
-210.938 289.062 798
-398.438 -195.312 943
-46.875 -335.938 3037
-54.6875 -218.75 1169
-54.6875 -218.75 1169
-218.75 367.188 903
-390.625 382.812 894
304.688 -195.312 871
-15.625 -203.125 1157
-335.938 382.812 885
-156.25 -351.562 3037
-289.062 109.375 849
-195.312 296.875 790
140.625 70.3125 1138
398.438 -70.3125 956
-171.875 296.875 783
109.375 54.6875 1153
117.188 62.5 1149
210.938 85.9375 1141
242.188 101.562 1130
250 -54.6875 992
-476.562 -312.5 940
-398.438 250 805
234.375 320.312 967
-242.188 -242.188 1177
437.5 85.9375 1157
-101.562 -226.562 1173
78.125 -101.562 1288
-203.125 375 898
-70.3125 7.8125 959
-281.25 140.625 858
-437.5 -203.125 918
-406.25 -109.375 880
-304.688 70.3125 858
296.875 101.562 1134
-156.25 296.875 781
-414.062 -101.562 880
242.188 148.438 1094
85.9375 -140.625 2680
179.688 31.25 1090
-406.25 -132.812 943
-125 -226.562 1173
164.062 -54.6875 1025
-226.562 -234.375 1173
281.25 -70.3125 973
-281.25 265.625 787
-453.125 -117.188 896
7.8125 -117.188 1241
312.5 85.9375 1130
-375 242.188 798
367.188 -312.5 1013
273.438 85.9375 1130
171.875 54.6875 1112
242.188 -78.125 981
343.75 46.875 1070
-250 -359.375 3037
-445.312 -109.375 894
-421.875 234.375 802
-54.6875 -312.5 3092
187.5 85.9375 1134
-218.75 375 898
265.625 93.75 1141
-15.625 54.6875 1145
226.562 93.75 1138
250 -78.125 975
-39.0625 39.0625 1149
250 93.75 1138
-437.5 367.188 894
312.5 93.75 1141
-390.625 -15.625 956
-367.188 171.875 833
-375 -15.625 962
31.25 171.875 1054
-195.312 289.062 787
-242.188 289.062 802
218.75 -257.812 889
-343.75 257.812 796
101.562 -171.875 2767
265.625 -312.5 951
421.875 -257.812 925
62.5 -320.312 3037
195.312 85.9375 1138
-203.125 296.875 796
-500 210.938 807
-203.125 281.25 785
-148.438 320.312 809
148.438 70.3125 1138
195.312 -164.062 928
-468.75 -367.188 973
-132.812 -226.562 1173
-343.75 -140.625 962
54.6875 54.6875 1149
273.438 -210.938 873
-390.625 -140.625 933
-335.938 265.625 807
-15.625 39.0625 1157
484.375 -242.188 2859
-101.562 -218.75 1161
257.812 -54.6875 992
-390.625 -265.625 1022
-281.25 273.438 794
-484.375 -226.562 954
406.25 -85.9375 930
-343.75 -257.812 1189
-101.562 281.25 964
-406.25 312.5 915
-54.6875 117.188 1090
-492.188 -234.375 948
-23.4375 39.0625 1157
-328.125 -367.188 3037
179.688 70.3125 1130
367.188 0 1019
-171.875 -351.562 3037
-500 351.562 898
-296.875 -210.938 1141
242.188 -343.75 989
-343.75 250 794
-375 -195.312 967
-281.25 62.5 847
-242.188 351.562 910
-367.188 250 798
-210.938 281.25 785
-398.438 -179.688 943
265.625 -328.125 962
140.625 78.125 1134
-437.5 234.375 805
-140.625 328.125 823
-265.625 273.438 792
-492.188 -226.562 951
-281.25 101.562 856
-117.188 179.688 843
234.375 -351.562 1001
-109.375 -226.562 1173
328.125 70.3125 1101
-117.188 351.562 854
226.562 -226.562 882
-398.438 -164.062 940
-203.125 -164.062 1101
203.125 -226.562 887
-406.25 -101.562 882
492.188 351.562 954
-85.9375 453.125 873
453.125 -15.625 1259
-273.438 132.812 867
-164.062 304.688 789
-484.375 -234.375 951
-242.188 -359.375 3037
328.125 -312.5 948
-429.688 242.188 811
-335.938 257.812 794
-320.312 -250 1185
-210.938 -234.375 1173
-117.188 304.688 954
156.25 210.938 1038
-351.562 85.9375 889
-250 273.438 789
-250 -320.312 3064
-164.062 289.062 781
-250 281.25 790
-156.25 -226.562 1169
-460.938 226.562 809
242.188 93.75 1138
-187.5 382.812 896
226.562 101.562 1130
-312.5 257.812 792
-351.562 93.75 880
-320.312 85.9375 843
125 62.5 1149
-367.188 156.25 823
-453.125 -210.938 984
-406.25 -210.938 935
-484.375 304.688 910
-54.6875 -335.938 3010
-140.625 351.562 858
-320.312 265.625 798
-414.062 234.375 802
257.812 -70.3125 978
-226.562 -234.375 1173
476.562 -242.188 2908
218.75 -218.75 889
289.062 -195.312 878
210.938 -218.75 891
-171.875 289.062 783
-359.375 -195.312 970
70.3125 -101.562 1292
-414.062 -234.375 918
-351.562 250 794
171.875 93.75 1126
234.375 93.75 1138
257.812 -78.125 975
132.812 78.125 1130
-93.75 250 989
414.062 -39.0625 1278
93.75 78.125 1126
-164.062 -234.375 1177
-125 320.312 821
-296.875 70.3125 856
304.688 -320.312 959
203.125 -93.75 978
-351.562 -257.812 1189
-46.875 -210.938 1153
-289.062 78.125 856
-359.375 93.75 882
328.125 -187.5 871
-234.375 -234.375 1173
-156.25 -234.375 1177
-210.938 296.875 800
-164.062 -226.562 1169
-273.438 109.375 856
78.125 70.3125 1138
-359.375 187.5 823
-273.438 -242.188 1177
-312.5 148.438 835
-320.312 70.3125 858
-54.6875 -210.938 1153
179.688 93.75 1126
-343.75 265.625 807
-343.75 -187.5 970
-304.688 93.75 843
-312.5 85.9375 843
250 335.938 956
437.5 -171.875 873
-398.438 -125 882
-414.062 -328.125 995
-93.75 453.125 878
-398.438 -101.562 880
-398.438 -101.562 880
-328.125 148.438 811
7.8125 -125 1236
31.25 -109.375 1292
-304.688 148.438 851
195.312 -226.562 887
-179.688 -351.562 3010
-101.562 -218.75 1161
226.562 -351.562 998
-421.875 -304.688 978
-500 -23.4375 871
-312.5 273.438 805
273.438 -70.3125 975
273.438 -328.125 959
-335.938 -367.188 3037
15.625 62.5 1141
-218.75 289.062 789
-437.5 382.812 901
-421.875 -179.688 933
492.188 93.75 1153
-484.375 -367.188 940
15.625 421.875 889
265.625 351.562 948
-445.312 226.562 802
265.625 -54.6875 992
-273.438 148.438 856
-421.875 351.562 891
-289.062 140.625 858
-343.75 -367.188 3037
-226.562 359.375 906
-445.312 359.375 891
-109.375 156.25 858
-429.688 -140.625 948
-421.875 -23.4375 962
-304.688 265.625 792
453.125 -31.25 1273
-382.812 -132.812 964
-250 93.75 889
-414.062 -101.562 880
-242.188 85.9375 885
-23.4375 -210.938 1165
468.75 -242.188 2908
164.062 78.125 1138
-132.812 210.938 823
382.812 -312.5 987
242.188 -70.3125 984
-351.562 195.312 819
312.5 320.312 970
-109.375 164.062 851
-468.75 351.562 894
304.688 101.562 1134
-70.3125 23.4375 948
257.812 93.75 1138
117.188 46.875 1149
-171.875 304.688 792
-476.562 -367.188 940
156.25 250 1010
304.688 156.25 1087
-460.938 -210.938 975
109.375 -312.5 3037
-93.75 70.3125 913
-382.812 -195.312 962
-289.062 273.438 796
-343.75 85.9375 867
-296.875 -171.875 928
210.938 -351.562 995
-242.188 281.25 789
23.4375 -109.375 1292
-125 445.312 878
203.125 85.9375 1138
-281.25 62.5 847
421.875 -125 910
210.938 -257.812 891
273.438 -203.125 878
-218.75 -234.375 1173
-85.9375 -218.75 1165
-476.562 218.75 805
-304.688 70.3125 858
-398.438 -304.688 1007
-500 414.062 1292
164.062 46.875 1115
304.688 85.9375 1130
218.75 70.3125 1112
265.625 -62.5 984
179.688 0 1060
210.938 93.75 1134
156.25 -203.125 925
-453.125 226.562 803
289.062 -242.188 882
-421.875 -101.562 880
406.25 -39.0625 1273
-156.25 -226.562 1169
242.188 -54.6875 992
296.875 -320.312 954
390.625 -54.6875 970
-109.375 -218.75 1165
-359.375 179.688 829
179.688 -46.875 1025
-250 -242.188 1181
-382.812 242.188 798
-398.438 -132.812 935
-78.125 -218.75 1165
-257.812 -359.375 3037
-281.25 281.25 805
281.25 -31.25 1004
-117.188 -226.562 1173
312.5 -187.5 875
289.062 -23.4375 1013
-500 -265.625 933
-187.5 -234.375 1177
351.562 54.6875 1087
-234.375 85.9375 885
-171.875 -234.375 1177
335.938 289.062 992
117.188 -31.25 1073
242.188 -31.25 1013
7.8125 -328.125 3064
-320.312 257.812 792
-203.125 289.062 787
-437.5 -257.812 970
234.375 -218.75 880
-31.25 54.6875 1145
-453.125 234.375 813
164.062 -210.938 915
-367.188 257.812 803
-304.688 117.188 841
421.875 281.25 998
-460.938 -343.75 962
226.562 -218.75 882
-437.5 242.188 813
257.812 -210.938 880
179.688 -250 889
-500 -250 938
351.562 31.25 1063
-398.438 -109.375 880
-414.062 -156.25 940
-445.312 -109.375 894
-421.875 -351.562 995
257.812 351.562 948
218.75 -351.562 998
-289.062 289.062 817
-398.438 -296.875 1007
414.062 -101.562 928
421.875 -179.688 869
-281.25 398.438 882
-171.875 375 903
-273.438 281.25 802
375 -15.625 1004
250 -62.5 987
-265.625 109.375 849
-398.438 312.5 915
-375 257.812 805
-460.938 -257.812 959
46.875 62.5 1141
234.375 -210.938 885
296.875 289.062 920
234.375 148.438 1094
-70.3125 148.438 1060
-289.062 148.438 854
398.438 -304.688 975
-343.75 140.625 827
-406.25 -203.125 938
-257.812 281.25 800
-156.25 304.688 789
-367.188 343.75 901
31.25 351.562 935
242.188 -335.938 981
312.5 -296.875 940
-460.938 296.875 920
-296.875 343.75 908
-359.375 -335.938 3092
-437.5 390.625 1503
-210.938 359.375 906
-101.562 -328.125 3092
-421.875 234.375 802
257.812 109.375 1123
-445.312 -78.125 951
156.25 85.9375 1130
156.25 85.9375 1130
-289.062 351.562 903
-226.562 -242.188 1181
-359.375 117.188 843
-453.125 -218.75 975
-390.625 156.25 839
-453.125 -148.438 918
210.938 156.25 1084
343.75 -187.5 871
23.4375 171.875 1054
-132.812 359.375 864
-179.688 296.875 789
320.312 93.75 1141
-367.188 148.438 817
-140.625 359.375 862
-234.375 281.25 789
-359.375 -117.188 885
453.125 320.312 978
-218.75 281.25 787
-437.5 -429.688 2883
-429.688 -179.688 938
-437.5 -164.062 930
-320.312 62.5 869
-148.438 312.5 800
109.375 -93.75 1288
93.75 -7.8125 1202
-101.562 117.188 885
-492.188 289.062 920
-171.875 289.062 783
273.438 -70.3125 975
359.375 15.625 1041
-109.375 312.5 943
-421.875 -242.188 918
320.312 101.562 1138
-125 328.125 827
242.188 54.6875 1101
132.812 -46.875 1044
-62.5 -46.875 1001
-460.938 367.188 898
367.188 0 1019
234.375 7.8125 1050
210.938 101.562 1126
-125 203.125 827
109.375 54.6875 1153
171.875 31.25 1094
31.25 -164.062 2744
-250 39.0625 860
-414.062 375 894
-398.438 -195.312 948
-398.438 -171.875 943
117.188 70.3125 1138
171.875 70.3125 1141
304.688 -78.125 959
210.938 -171.875 920
359.375 -125 910
-117.188 359.375 871
-468.75 -125 1047
421.875 -203.125 873
-289.062 265.625 787
125 210.938 1034
218.75 62.5 1108
-296.875 265.625 789
-23.4375 218.75 1019
273.438 -54.6875 987
-78.125 31.25 943
203.125 -210.938 898
-156.25 296.875 781
242.188 -218.75 878
-273.438 273.438 794
218.75 0 1047
-367.188 -109.375 882
-390.625 78.125 891
171.875 78.125 1138
-375 335.938 906
-398.438 242.188 800
-351.562 257.812 796
-296.875 117.188 843
-117.188 343.75 854
-132.812 351.562 856
-429.688 -195.312 933
-117.188 351.562 854
-78.125 179.688 1038
-101.562 93.75 896
-273.438 85.9375 864
-359.375 195.312 817
226.562 93.75 1138
-117.188 171.875 845
39.0625 171.875 1054
156.25 93.75 1123
250 148.438 1094
148.438 93.75 1123
0 351.562 933
-476.562 -281.25 943
289.062 109.375 1126
-500 -390.625 946
445.312 320.312 978
-140.625 265.625 792
-414.062 -304.688 989
242.188 312.5 959
-265.625 398.438 880
-328.125 281.25 811
-382.812 -15.625 959
-148.438 375 864
195.312 -296.875 933
-78.125 7.8125 962
-421.875 -171.875 933
187.5 -296.875 933
281.25 156.25 1094
195.312 132.812 1101
312.5 195.312 1060
-453.125 -70.3125 946
-382.812 250 794
-398.438 -148.438 940
-375 406.25 862
-468.75 226.562 803
-468.75 226.562 803
304.688 195.312 1060
-85.9375 54.6875 928
218.75 164.062 1080
-375 -78.125 894
-453.125 312.5 913
-226.562 328.125 833
429.688 -39.0625 1278
-148.438 335.938 821
187.5 -304.688 946
-85.9375 62.5 923
-484.375 -382.812 964
132.812 70.3125 1145
367.188 -312.5 1025
156.25 -85.9375 992
398.438 -70.3125 948
140.625 -70.3125 1019
148.438 -85.9375 1001
406.25 -85.9375 928
226.562 -289.062 925
-500 -31.25 858
-85.9375 218.75 1016
-468.75 398.438 1359
-132.812 445.312 871
-109.375 320.312 943
-109.375 148.438 867
39.0625 7.8125 1189
390.625 375 938
7.8125 -328.125 3037
-476.562 -257.812 948
-437.5 -187.5 940
-312.5 281.25 807
-7.8125 312.5 956
179.688 -226.562 889
312.5 -226.562 878
-375 171.875 833
-351.562 148.438 827
437.5 -156.25 875
-429.688 -31.25 973
-210.938 351.562 869
-109.375 312.5 946
-132.812 351.562 849
179.688 195.312 1054
171.875 289.062 984
242.188 171.875 1073
-156.25 -226.562 1173
-359.375 351.562 896
-367.188 187.5 823
195.312 187.5 1060
171.875 140.625 1090
-343.75 93.75 847
-359.375 85.9375 862
-359.375 85.9375 862
-453.125 -140.625 915
-328.125 -164.062 973
93.75 23.4375 1177
-335.938 -367.188 3010
117.188 101.562 1119
-453.125 -156.25 928
-460.938 414.062 1398
-117.188 156.25 860
-304.688 414.062 887
-203.125 312.5 803
398.438 -304.688 984
-429.688 -109.375 878
203.125 101.562 1123
109.375 -312.5 3010
-242.188 -359.375 3010
-132.812 226.562 817
-148.438 320.312 796
351.562 -281.25 940
-218.75 -234.375 1177
-109.375 -218.75 1169
-500 -289.062 928
-250 296.875 800
281.25 -15.625 1010
-54.6875 -335.938 3037
-101.562 -218.75 1169
-406.25 -226.562 930
-109.375 -343.75 3010
-476.562 -367.188 940
-343.75 -367.188 3037
-273.438 -242.188 1177
226.562 -101.562 959
-171.875 -351.562 3037
-273.438 54.6875 851
-46.875 -335.938 3010
-226.562 -234.375 1177
148.438 0 1063
-250 -242.188 1185
-414.062 -242.188 913
-289.062 125 847
-414.062 -375 3037
-343.75 -93.75 896
382.812 -31.25 981
-421.875 -101.562 878
-320.312 93.75 841
62.5 -320.312 3037
62.5 -320.312 3037
-93.75 242.188 992
-85.9375 -218.75 1169
-250 -359.375 3010
-320.312 -367.188 3037
-351.562 -257.812 1193
-468.75 -257.812 948
-179.688 -351.562 3037
-304.688 140.625 841
-210.938 -234.375 1177
476.562 -242.188 2908
-140.625 234.375 809
-125 179.688 845
-406.25 -234.375 925
117.188 -312.5 3010
-156.25 -226.562 1173
-132.812 203.125 829
-85.9375 210.938 1019
-414.062 -101.562 878
-117.188 343.75 837
-46.875 -210.938 1157
406.25 -54.6875 959
414.062 -281.25 959
242.188 -335.938 987
-101.562 109.375 889
-312.5 -367.188 3037
-148.438 265.625 792
15.625 -328.125 3037
-164.062 -351.562 3037
7.8125 -328.125 3037
-78.125 171.875 1050
-156.25 -351.562 3037
-179.688 359.375 867
-62.5 -218.75 1173
-101.562 -343.75 3037
-156.25 289.062 781
-273.438 335.938 871
-281.25 62.5 845
-148.438 -343.75 3010
-351.562 125 839
-187.5 -234.375 1181
-226.562 -242.188 1185
-429.688 -226.562 920
-257.812 -359.375 3010
-304.688 -367.188 3010
-109.375 140.625 869
421.875 -257.812 935
382.812 -312.5 989
-164.062 -234.375 1181
-328.125 -367.188 3010
-164.062 -343.75 3064
-101.562 281.25 967
23.4375 -109.375 1297
-234.375 -234.375 1177
-203.125 -234.375 1177
-335.938 187.5 825
-117.188 148.438 864
265.625 -23.4375 1004
218.75 -15.625 1028
-234.375 -359.375 3037
-343.75 -125 898
335.938 62.5 1080
-320.312 -117.188 903
-226.562 -234.375 1177
-148.438 -226.562 1173
414.062 -101.562 920
296.875 -23.4375 998
-156.25 343.75 827
375 -15.625 992
210.938 46.875 1084
-101.562 -218.75 1169
-257.812 78.125 875
-320.312 117.188 835
-312.5 -250 1185
226.562 78.125 1115
109.375 54.6875 1153
-484.375 -257.812 940
109.375 -93.75 1288
-78.125 -218.75 1169
23.4375 -328.125 3037
-62.5 -62.5 1016
-460.938 -132.812 901
-54.6875 -210.938 1161
210.938 -257.812 891
-445.312 -109.375 885
312.5 265.625 918
-359.375 -117.188 889
-343.75 -257.812 1193
-210.938 -234.375 1177
273.438 -70.3125 970
-39.0625 -335.938 3010
-390.625 -265.625 1028
-54.6875 -218.75 1173
-398.438 -195.312 951
-414.062 -148.438 940
-398.438 -375 3010
-156.25 -351.562 3037
-132.812 -226.562 1177
-398.438 -101.562 875
-265.625 46.875 839
-109.375 304.688 954
-117.188 164.062 856
-265.625 -242.188 1177
-156.25 -234.375 1181
-382.812 164.062 837
-109.375 117.188 885
-406.25 -70.3125 885
-46.875 -70.3125 1025
-93.75 62.5 923
-85.9375 39.0625 940
-109.375 -226.562 1177
-31.25 -148.438 1101
234.375 -351.562 1004
125 -312.5 3010
70.3125 -320.312 3037
335.938 -312.5 1031
70.3125 -101.562 1292
-140.625 257.812 796
226.562 -257.812 894
-351.562 -257.812 1193
-226.562 -359.375 3010
-226.562 -359.375 3010
-39.0625 -210.938 1157
-101.562 273.438 970
-500 -390.625 946
-242.188 -242.188 1185
31.25 -109.375 1297
-445.312 -179.688 933
-15.625 -179.688 1134
-414.062 -328.125 995
-101.562 -226.562 1177
-203.125 -234.375 1177
382.812 -46.875 967
-31.25 -335.938 3010
-382.812 -109.375 880
257.812 -164.062 901
484.375 -242.188 2835
-31.25 -140.625 1090
-93.75 -343.75 3037
-281.25 62.5 845
-414.062 -375 3037
-359.375 -343.75 3092
-382.812 -265.625 1038
-148.438 281.25 785
-70.3125 -31.25 992
-125 -226.562 1177
468.75 -242.188 2908
-78.125 179.688 1047
-500 7.8125 891
-140.625 250 802
-93.75 -218.75 1169
-85.9375 -218.75 1169
-148.438 -351.562 3010
-265.625 54.6875 837
-140.625 -351.562 3010
-210.938 -359.375 3037
-445.312 -359.375 995
-484.375 359.375 894
-500 -250 933
-242.188 -359.375 3010
-367.188 -109.375 882
-421.875 -117.188 875
-39.0625 -117.188 1063
78.125 -320.312 3037
-70.3125 0 967
-406.25 -375 3037
-289.062 -367.188 3010
-257.812 -242.188 1181
-265.625 39.0625 858
-296.875 -367.188 3010
-359.375 70.3125 862
-148.438 -226.562 1173
23.4375 171.875 1057
-453.125 -179.688 930
-78.125 171.875 1050
-468.75 -257.812 948
265.625 -62.5 967
-414.062 -101.562 878
-93.75 85.9375 908
218.75 85.9375 1119
-85.9375 -343.75 3010
-148.438 421.875 878
-148.438 335.938 813
-148.438 257.812 796
-351.562 -148.438 989
351.562 -257.812 918
-140.625 -226.562 1177
-304.688 -250 1185
343.75 -257.812 918
-15.625 -320.312 3064
85.9375 -320.312 3010
304.688 54.6875 1067
117.188 -54.6875 1019
-296.875 109.375 845
132.812 -312.5 3010
-85.9375 210.938 1022
-23.4375 -335.938 3010
-328.125 -148.438 903
-453.125 226.562 800
31.25 -328.125 3037
-257.812 39.0625 935
109.375 -39.0625 1050
-93.75 242.188 995
421.875 -257.812 940
-421.875 -242.188 915
-273.438 273.438 785
-304.688 117.188 839
-289.062 78.125 845
132.812 70.3125 1145
-148.438 312.5 785
-148.438 328.125 802
171.875 78.125 1123
-500 -265.625 928
-218.75 -359.375 3037
-460.938 367.188 889
-460.938 -171.875 933
-179.688 -234.375 1189
46.875 62.5 1145
-31.25 -171.875 1126
-203.125 -359.375 3010
-62.5 -39.0625 1001
265.625 -312.5 959
-257.812 -242.188 1193
-304.688 -367.188 3010
-460.938 -210.938 973
-281.25 54.6875 845
-304.688 140.625 841
-375 -109.375 882
-445.312 -70.3125 946
-351.562 78.125 862
-437.5 390.625 898
-312.5 39.0625 841
-304.688 70.3125 841
-304.688 148.438 851
-195.312 -234.375 1185
-406.25 -109.375 875
-156.25 -226.562 1177
-445.312 226.562 800
-390.625 -375 3010
-140.625 226.562 817
-476.562 218.75 802
-382.812 -375 2984
-171.875 289.062 780
-257.812 281.25 783
-414.062 -312.5 995
-437.5 -210.938 918
-156.25 281.25 783
-296.875 125 843
257.812 -70.3125 967
-85.9375 -218.75 1177
-460.938 -179.688 998
-132.812 -351.562 3010
-140.625 -226.562 1177
-78.125 -343.75 3010
-78.125 -343.75 3010
-140.625 -351.562 3010
39.0625 -328.125 3010
101.562 -7.8125 1080
-15.625 -335.938 3010
-382.812 140.625 807
-148.438 414.062 880
-343.75 -257.812 1197
-85.9375 203.125 1025
-125 195.312 837
-320.312 -250 1189
-398.438 242.188 794
-421.875 234.375 796
-429.688 414.062 1489
-109.375 304.688 954
-273.438 -367.188 3010
-117.188 335.938 933
-93.75 273.438 975
281.25 273.438 918
234.375 -210.938 875
257.812 -78.125 962
-328.125 171.875 803
-382.812 250 792
-187.5 -234.375 1185
-382.812 -117.188 875
-296.875 -117.188 1057
164.062 -234.375 896
-132.812 -226.562 1181
-78.125 -218.75 1177
-234.375 109.375 887
-468.75 -156.25 930
-226.562 85.9375 885
-367.188 -375 3010
-421.875 -375 3010
375 -15.625 984
-468.75 -164.062 1016
-148.438 273.438 789
-93.75 234.375 998
-250 93.75 880
-273.438 46.875 851
250 -62.5 970
-226.562 304.688 798
234.375 -62.5 975
-62.5 -31.25 995
-273.438 54.6875 851
-320.312 -78.125 956
414.062 148.438 1105
242.188 -78.125 962
-351.562 101.562 845
203.125 85.9375 1123
-406.25 -203.125 946
-78.125 0 967
-343.75 93.75 847
54.6875 -23.4375 1219
-132.812 335.938 835
-179.688 296.875 778
250 -78.125 962
265.625 -54.6875 970
-351.562 257.812 790
-265.625 406.25 878
-31.25 -210.938 1165
-273.438 -242.188 1189
-140.625 406.25 887
-101.562 265.625 978
-289.062 -367.188 3010
-109.375 273.438 973
-500 -390.625 956
-132.812 218.75 821
-460.938 -250 956
-210.938 -359.375 3010
421.875 -23.4375 1259
289.062 -85.9375 943
281.25 -70.3125 962
-468.75 -132.812 898
-148.438 429.688 873
93.75 -320.312 3010
453.125 -250 2883
195.312 85.9375 1123
-93.75 78.125 913
-296.875 -367.188 2984
-85.9375 31.25 948
-304.688 265.625 787
-140.625 273.438 790
-39.0625 -148.438 1101
226.562 -257.812 896
-101.562 273.438 975
226.562 93.75 1123
250 93.75 1119
-375 78.125 894
-85.9375 54.6875 925
250 -85.9375 956
-140.625 242.188 807
-46.875 -85.9375 1038
-273.438 93.75 860
-281.25 -367.188 3010
242.188 93.75 1123
218.75 -234.375 880
-335.938 117.188 835
-101.562 117.188 887
78.125 -101.562 1292
-125 367.188 854
-23.4375 -171.875 1126
-437.5 -242.188 908
-187.5 -234.375 1185
-125 328.125 835
-31.25 -125 1080
-406.25 -93.75 878
-148.438 -351.562 3010
-343.75 70.3125 864
-101.562 234.375 995
-234.375 281.25 783
-125 171.875 849
-500 210.938 803
-320.312 265.625 789
-335.938 179.688 803
39.0625 -328.125 3010
-101.562 101.562 896
-125 -351.562 3010
-195.312 -359.375 3010
-375 -375 2984
226.562 -218.75 875
-78.125 -218.75 1177
-218.75 289.062 781
-164.062 -234.375 1185
-132.812 -351.562 3010
242.188 -70.3125 970
-70.3125 -343.75 3010
-359.375 101.562 880
-343.75 -132.812 898
-39.0625 -125 1077
85.9375 -320.312 3010
-242.188 281.25 783
-132.812 210.938 825
414.062 -101.562 910
-132.812 -226.562 1181
-437.5 -46.875 908
492.188 -242.188 2789
101.562 -320.312 3010
-109.375 -226.562 1181
-109.375 132.812 878
-7.8125 -335.938 3037
-468.75 -304.688 951
-335.938 93.75 841
-203.125 -359.375 3010
-132.812 195.312 837
-398.438 -187.5 954
-54.6875 -62.5 1022
179.688 -62.5 992
195.312 -226.562 880
-164.062 -226.562 1177
-203.125 312.5 798
-23.4375 -203.125 1165
382.812 -31.25 973
-125 164.062 856
-218.75 101.562 891
-500 -335.938 510
476.562 -140.625 2789
-460.938 226.562 802
-218.75 0 964
-93.75 234.375 998
-500 351.562 873
-179.688 -234.375 1189
-281.25 54.6875 845
-343.75 -375 3010
-23.4375 -210.938 1173
-31.25 54.6875 1153
-164.062 304.688 778
-398.438 -257.812 1010
-250 281.25 783
-312.5 -257.812 1202
492.188 -15.625 1264
367.188 0 1004
-210.938 265.625 790
-320.312 -54.6875 973
-289.062 273.438 785
117.188 -70.3125 1022
-296.875 101.562 847
-367.188 148.438 815
132.812 -312.5 3010
148.438 70.3125 1126
-164.062 296.875 778
-85.9375 203.125 1025
109.375 -46.875 1245
-328.125 -156.25 967
-70.3125 -7.8125 975
85.9375 -101.562 1292
-343.75 250 790
109.375 54.6875 1145
-125 -226.562 1181
273.438 -78.125 959
234.375 93.75 1123
-320.312 -85.9375 948
-265.625 -367.188 2984
-335.938 -140.625 903
460.938 62.5 1189
-328.125 414.062 885
-429.688 -234.375 918
-78.125 23.4375 954
-257.812 46.875 856
-398.438 390.625 894
320.312 101.562 1138
273.438 -39.0625 987
-382.812 156.25 809
-335.938 257.812 789
-437.5 -273.438 967
-304.688 -85.9375 1025
0 -117.188 1236
460.938 -250 2883
0 -335.938 3010
-500 0 880
265.625 93.75 1112
31.25 171.875 1057
-187.5 -242.188 1189
-414.062 234.375 796
-62.5 -343.75 3010
-304.688 164.062 845
-359.375 179.688 829
-351.562 -125 889
304.688 -195.312 867
-148.438 250 802
-351.562 -375 3010
-335.938 -375 2984
257.812 -203.125 873
-335.938 -125 898
-398.438 -375 3010
-312.5 93.75 843
359.375 -125 896
-101.562 265.625 978
421.875 -195.312 873
-273.438 -367.188 3010
-203.125 289.062 781
-164.062 289.062 780
-390.625 -109.375 871
-257.812 -367.188 2984
242.188 -78.125 962
234.375 -85.9375 959
-359.375 70.3125 858
-382.812 -117.188 875
-476.562 218.75 802
414.062 -289.062 973
273.438 281.25 918
265.625 -70.3125 964
-406.25 -195.312 948
312.5 93.75 1112
-351.562 -195.312 964
-70.3125 -218.75 1177
-148.438 320.312 794
-335.938 -39.0625 962
-328.125 140.625 835
-445.312 226.562 800
281.25 -195.312 871
-132.812 335.938 835
-453.125 -234.375 913
-359.375 -375 3010
250 -78.125 962
-429.688 -203.125 923
-117.188 -351.562 3010
-335.938 109.375 835
54.6875 -328.125 3010
-265.625 273.438 785
-367.188 250 792
242.188 -304.688 951
-187.5 -359.375 3010
-296.875 140.625 845
-453.125 234.375 800
-156.25 273.438 787
-109.375 109.375 889
-367.188 125 864
-437.5 -109.375 878
46.875 -289.062 3092
-54.6875 -343.75 3010
-460.938 -289.062 954
-109.375 296.875 959
-468.75 -164.062 1016
7.8125 -117.188 1236
164.062 78.125 1126
-367.188 156.25 815
-312.5 257.812 789
-375 257.812 792
-179.688 -234.375 1189
-85.9375 46.875 938
-109.375 -351.562 3010
281.25 -62.5 964
15.625 335.938 946
242.188 -203.125 875
70.3125 62.5 1149
-406.25 242.188 794
-328.125 70.3125 862
210.938 -54.6875 989
125 46.875 1119
-273.438 39.0625 851
101.562 -320.312 3010
273.438 -203.125 871
-250 -367.188 2984
-367.188 164.062 815
-171.875 -234.375 1185
-234.375 101.562 878
250 -62.5 970
-117.188 140.625 871
-234.375 -359.375 3010
-125 187.5 843
-421.875 -382.812 3010
273.438 -54.6875 970
257.812 93.75 1115
242.188 226.562 1034
-265.625 148.438 845
93.75 31.25 1173
0 -335.938 3010
101.562 -15.625 1219
257.812 31.25 1054
-132.812 343.75 835
-218.75 -31.25 987
-265.625 31.25 938
-468.75 218.75 803
320.312 -31.25 981
257.812 -54.6875 973
-281.25 273.438 785
-93.75 54.6875 928
-320.312 93.75 841
281.25 -70.3125 962
-367.188 179.688 831
-117.188 -226.562 1181
-54.6875 -93.75 1047
-335.938 70.3125 864
109.375 -320.312 3010
468.75 -250 2859
-140.625 382.812 903
-156.25 312.5 781
203.125 -265.625 898
335.938 62.5 1073
390.625 -46.875 962
-179.688 -359.375 3010
-406.25 -250 918
312.5 -62.5 959
-406.25 -242.188 918
-320.312 -375 2984
-265.625 140.625 843
125 62.5 1138
-414.062 -85.9375 880
-117.188 156.25 860
367.188 0 1004
-93.75 234.375 998
-437.5 234.375 798
-289.062 421.875 882
-328.125 -375 2984
39.0625 171.875 1060
-460.938 -148.438 920
-171.875 -359.375 3010
7.8125 -335.938 3010
-273.438 281.25 785
398.438 -70.3125 940
359.375 15.625 1022
-125 359.375 854
-453.125 -187.5 943
-296.875 265.625 785
-390.625 -109.375 871
-429.688 210.938 807
101.562 -7.8125 1080
101.562 -7.8125 1080
-382.812 398.438 878
273.438 -312.5 956
-171.875 296.875 778
-421.875 234.375 796
-93.75 226.562 1010
-156.25 351.562 833
-93.75 70.3125 918
210.938 -218.75 880
-367.188 257.812 792
-164.062 -234.375 1185
109.375 -39.0625 1047
-492.188 210.938 803
62.5 -328.125 3010
-78.125 -7.8125 975
-429.688 -382.812 2958
-414.062 -382.812 3010
-179.688 -242.188 1189
-492.188 -171.875 992
-125 -226.562 1181
-437.5 -343.75 987
210.938 -171.875 906
-117.188 328.125 935
304.688 93.75 1112
-453.125 -171.875 930
273.438 281.25 915
-343.75 -375 3010
-500 210.938 802
-429.688 -117.188 875
-304.688 101.562 843
-195.312 289.062 780
-375 78.125 894
-242.188 -367.188 2984
-320.312 117.188 833
-390.625 -140.625 935
257.812 -78.125 959
-484.375 -257.812 940
296.875 93.75 1112
273.438 93.75 1108
257.812 -62.5 970
-343.75 -132.812 896
-453.125 -273.438 959
-39.0625 -7.8125 1123
210.938 85.9375 1123
-46.875 -343.75 3010
304.688 -304.688 946
-226.562 -328.125 3120
-382.812 242.188 792
-335.938 -375 3010
93.75 -320.312 3010
-148.438 242.188 805
-445.312 -242.188 910
343.75 46.875 1047
-304.688 140.625 839
-398.438 -109.375 869
-23.4375 -179.688 1134
-156.25 296.875 780
-140.625 234.375 809
-39.0625 -109.375 1060
-132.812 210.938 823
117.188 -320.312 3010
-164.062 312.5 781
7.8125 -117.188 1232
-218.75 -242.188 1189
-390.625 242.188 792
-164.062 -320.312 3092
-46.875 -125 1073
-164.062 296.875 776
-328.125 156.25 811
-39.0625 -343.75 2984
320.312 -304.688 951
-257.812 -242.188 1193
-148.438 265.625 792
-101.562 85.9375 906
-140.625 375 869
101.562 7.8125 1094
-109.375 -226.562 1177
109.375 -46.875 1041
265.625 -78.125 956
-109.375 125 882
-101.562 257.812 984
-320.312 31.25 930
-109.375 289.062 964
-70.3125 -15.625 981
-62.5 -39.0625 998
250 -226.562 873
-125 -234.375 1177
-132.812 187.5 839
-15.625 54.6875 1149
-476.562 359.375 889
328.125 -187.5 862
-125 179.688 843
257.812 -210.938 869
-414.062 -226.562 920
-414.062 234.375 796
-203.125 -234.375 1181
31.25 -109.375 1297
375 -210.938 873
-421.875 -242.188 913
492.188 -242.188 2812
406.25 -85.9375 920
-273.438 85.9375 858
304.688 -265.625 915
-351.562 140.625 833
-335.938 171.875 802
-328.125 -164.062 962
117.188 -78.125 1016
-171.875 -234.375 1185
-78.125 15.625 956
101.562 46.875 1157
-304.688 -375 2984
-31.25 -23.4375 1134
-304.688 -250 1185
250 -210.938 869
250 289.062 956
-46.875 -93.75 1044
-320.312 62.5 847
-93.75 46.875 933
-132.812 203.125 829
-343.75 257.812 789
-70.3125 -226.562 1177
-328.125 85.9375 847
-210.938 289.062 780
203.125 85.9375 1123
164.062 -164.062 928
-234.375 85.9375 878
15.625 -117.188 1302
460.938 -257.812 2859
-429.688 -54.6875 891
-367.188 -117.188 882
-101.562 93.75 901
-453.125 -242.188 910
351.562 31.25 1028
-164.062 -234.375 1181
-101.562 265.625 978
148.438 -156.25 946
218.75 -218.75 878
70.3125 -328.125 3010
-93.75 226.562 1007
109.375 -54.6875 1038
-289.062 117.188 849
359.375 15.625 1019
-343.75 140.625 831
203.125 -265.625 901
-289.062 54.6875 843
-156.25 289.062 780
492.188 93.75 1153
-367.188 0 951
390.625 -54.6875 948
-421.875 406.25 1496
-101.562 -351.562 3010
-320.312 -125 906
-460.938 -187.5 989
-398.438 -109.375 869
-437.5 -109.375 880
117.188 -62.5 1028
-312.5 -375 3010
-312.5 265.625 785
15.625 -335.938 3037
234.375 -218.75 871
148.438 -156.25 946
140.625 70.3125 1134
-234.375 -367.188 3010
242.188 93.75 1115
-343.75 70.3125 862
-312.5 148.438 841
-132.812 351.562 851
-117.188 335.938 933
-164.062 -359.375 3010
-429.688 -109.375 875
-265.625 62.5 856
-242.188 414.062 875
101.562 -15.625 1214
-132.812 367.188 862
-125 156.25 858
-359.375 250 790
-31.25 -179.688 1130
-156.25 265.625 789
-171.875 -242.188 1185
-500 -343.75 920
-406.25 -382.812 3010
-289.062 265.625 783
-312.5 -367.188 3037
-453.125 -117.188 889
171.875 78.125 1115
-31.25 -148.438 1101
-101.562 78.125 910
-117.188 320.312 940
-382.812 -125 885
-390.625 -125 885
-156.25 320.312 789
93.75 23.4375 1177
203.125 429.688 891
-148.438 273.438 787
-117.188 -234.375 1177
-54.6875 -101.562 1050
-250 -367.188 2984
-156.25 -359.375 2984
117.188 54.6875 1138
-421.875 -62.5 889
-203.125 281.25 781
476.562 -250 2859
-460.938 -179.688 998
-328.125 -171.875 951
-312.5 39.0625 845
-429.688 -171.875 930
-437.5 -382.812 2958
-39.0625 -156.25 1105
-101.562 109.375 891
109.375 -31.25 1067
-101.562 101.562 896
-328.125 257.812 789
281.25 93.75 1112
-187.5 -234.375 1185
-320.312 -70.3125 956
-375 125 864
-109.375 -351.562 3010
-93.75 -351.562 3010
-7.8125 -101.562 1185
-171.875 304.688 776
-335.938 250 790
-320.312 109.375 835
-93.75 250 989
335.938 62.5 1067
343.75 -187.5 860
-218.75 281.25 781
-85.9375 23.4375 951
-343.75 85.9375 862
382.812 -31.25 970
-335.938 164.062 805
-250 132.812 867
-117.188 132.812 875
-39.0625 -343.75 2984
-281.25 54.6875 845
-39.0625 -117.188 1067
-109.375 -226.562 1177
-500 -7.8125 873
-382.812 132.812 856
-500 281.25 889
85.9375 62.5 1145
-148.438 -359.375 2984
-132.812 179.688 843
-367.188 -109.375 882
-429.688 -343.75 995
-414.062 -382.812 3010
-359.375 156.25 817
-31.25 -343.75 2984
-62.5 -218.75 1173
-281.25 281.25 787
421.875 -125 887
-382.812 156.25 811
265.625 -78.125 956
-39.0625 39.0625 1153
-335.938 156.25 809
234.375 -78.125 962
-460.938 -343.75 967
-390.625 -109.375 873
-398.438 -156.25 970
-218.75 -242.188 1189
62.5 -109.375 1288
-78.125 7.8125 962
-234.375 93.75 878
-375 250 792
398.438 -46.875 954
-140.625 359.375 851
-312.5 117.188 835
-117.188 148.438 864
390.625 -31.25 973
54.6875 -328.125 3010
-132.812 242.188 805
-46.875 -101.562 1050
-39.0625 -125 1073
-242.188 289.062 781
367.188 0 998
62.5 -328.125 3010
-31.25 -31.25 1134
-382.812 -117.188 882
-375 -117.188 880
-476.562 -359.375 946
-109.375 289.062 964
-390.625 -273.438 1025
-117.188 -226.562 1177
-398.438 -109.375 869
-351.562 93.75 849
-296.875 109.375 845
-421.875 -109.375 882
179.688 78.125 1115
-171.875 -359.375 3010
179.688 398.438 910
-39.0625 0 1126
-273.438 31.25 935
125 -320.312 2984
-39.0625 -210.938 1161
265.625 -62.5 967
-468.75 -179.688 992
-437.5 -281.25 967
164.062 -218.75 891
476.562 125 1126
-289.062 54.6875 843
351.562 31.25 1028
-453.125 -164.062 930
-15.625 -195.312 1153
-476.562 -140.625 923
-398.438 242.188 792
-367.188 85.9375 860
-445.312 -109.375 882
-164.062 320.312 790
-296.875 70.3125 841
-351.562 -31.25 959
-70.3125 164.062 1054
-359.375 -125 889
-429.688 -109.375 875
250 -70.3125 962
242.188 -210.938 871
-93.75 62.5 923
109.375 -46.875 1041
390.625 -46.875 956
-226.562 -359.375 3037
-148.438 234.375 809
-453.125 -187.5 940
-492.188 -343.75 935
-23.4375 -210.938 1169
375 -7.8125 995
218.75 -257.812 894
281.25 -62.5 962
23.4375 -335.938 3037
-375 -187.5 967
-125 359.375 858
7.8125 -335.938 3037
-320.312 257.812 789
-414.062 -109.375 878
-281.25 46.875 847
-406.25 -125 930
343.75 46.875 1047
218.75 85.9375 1112
-23.4375 -335.938 3010
-54.6875 -273.438 3037
250 -78.125 959
-242.188 281.25 781
-296.875 93.75 849
-125 390.625 896
328.125 78.125 1084
-296.875 117.188 843
148.438 70.3125 1123
78.125 -328.125 2984
-132.812 328.125 803
453.125 -78.125 2659
429.688 -78.125 2618
-62.5 -46.875 1004
382.812 -39.0625 964
210.938 93.75 1134
-398.438 -281.25 1007
156.25 70.3125 1123
-343.75 156.25 807
-226.562 -367.188 3010
-367.188 117.188 867
-296.875 164.062 843
-335.938 -148.438 984
-390.625 -382.812 3010
-421.875 -382.812 3010
-320.312 148.438 833
-445.312 -382.812 3010
-367.188 -343.75 3092
-31.25 -156.25 1108
-445.312 -265.625 964
-109.375 117.188 885
70.3125 -328.125 3010
-304.688 -375 2984
-125 351.562 854
-414.062 -257.812 992
-382.812 -125 885
-367.188 78.125 860
265.625 93.75 1108
-398.438 148.438 849
-54.6875 -70.3125 1025
-140.625 351.562 847
-125 171.875 849
-429.688 -250 978
-62.5 -70.3125 1025
-85.9375 15.625 956
-140.625 242.188 805
-234.375 -367.188 3010
273.438 -70.3125 959
-242.188 -367.188 2984
-335.938 148.438 817
85.9375 382.812 915
-109.375 281.25 967
-70.3125 -23.4375 987
-125 148.438 864
-351.562 179.688 805
109.375 -54.6875 1038
-23.4375 -343.75 2984
-156.25 -359.375 2984
-46.875 -132.812 1080
-250 398.438 880
-328.125 -375 3010
-54.6875 -343.75 3010
-242.188 398.438 880
-31.25 -140.625 1090
-140.625 -359.375 2984
-398.438 -382.812 3010
-101.562 70.3125 915
-429.688 234.375 798
-375 171.875 831
-398.438 -265.625 1010
93.75 23.4375 1177
-101.562 250 989
-31.25 -343.75 2984
-343.75 195.312 819
-320.312 132.812 835
-156.25 312.5 781
117.188 -320.312 3010
257.812 132.812 1108
-429.688 -156.25 933
-85.9375 -351.562 3010
-156.25 257.812 794
109.375 -62.5 1028
93.75 15.625 1185
234.375 -78.125 962
250 93.75 1115
-140.625 218.75 819
-335.938 195.312 821
-398.438 -289.062 1010
-117.188 312.5 946
-226.562 281.25 781
-468.75 218.75 802
140.625 23.4375 1084
-156.25 281.25 781
-421.875 -242.188 913
-132.812 195.312 835
-437.5 226.562 796
-39.0625 -132.812 1080
-62.5 -78.125 1031
-117.188 320.312 940
-23.4375 -171.875 1123
-375 242.188 792
-132.812 367.188 862
-93.75 -351.562 3010
93.75 31.25 1169
-335.938 93.75 839
-85.9375 39.0625 938
-109.375 93.75 901
-210.938 -367.188 3010
320.312 85.9375 1094
-78.125 -15.625 978
-148.438 -359.375 2984
117.188 70.3125 1145
101.562 -15.625 1214
289.062 -195.312 864
-351.562 -132.812 962
-15.625 -156.25 1112
-429.688 390.625 901
-406.25 390.625 882
-265.625 390.625 885
-70.3125 -39.0625 998
-406.25 -187.5 948
101.562 -7.8125 1077
-23.4375 -179.688 1134
-156.25 328.125 802
-445.312 -195.312 920
-414.062 -234.375 913
-375 140.625 815
-328.125 54.6875 854
445.312 85.9375 1157
218.75 -265.625 901
109.375 -281.25 3064
-195.312 -234.375 1185
-398.438 -273.438 1007
-218.75 -367.188 3010
-375 156.25 813
46.875 62.5 1141
421.875 -125 887
-304.688 -140.625 920
-39.0625 7.8125 1138
-429.688 -125 959
-445.312 -312.5 964
-351.562 132.812 835
-93.75 39.0625 938
-406.25 -109.375 878
-406.25 -250 915
31.25 -335.938 3010
-203.125 304.688 783
-250 117.188 880
-31.25 -187.5 1138
-7.8125 -335.938 3037
390.625 -140.625 878
-335.938 -265.625 1193
-351.562 250 790
-320.312 179.688 831
-78.125 0 967
-500 -281.25 928
-398.438 -164.062 967
320.312 -195.312 862
-140.625 203.125 829
15.625 -117.188 1302
-476.562 -218.75 959
101.562 -23.4375 1219
-375 -117.188 880
437.5 -39.0625 1273
-382.812 -382.812 2984
-460.938 -156.25 930
117.188 -78.125 1016
367.188 -7.8125 995
398.438 -70.3125 938
-414.062 -109.375 878
382.812 -39.0625 964
257.812 -85.9375 951
-460.938 218.75 802
-320.312 156.25 833
-281.25 54.6875 845
101.562 23.4375 1108
-101.562 250 989
-132.812 453.125 871
-304.688 109.375 841
-453.125 -296.875 956
-226.562 117.188 880
-273.438 429.688 882
-312.5 -179.688 943
-414.062 -226.562 920
-125 367.188 858
-281.25 -296.875 2984
-414.062 -218.75 930
-390.625 -273.438 1025
70.3125 -109.375 1292
-250 93.75 880
-468.75 -250 951
-296.875 -375 2984
375 -23.4375 978
132.812 62.5 1126
-125 343.75 849
414.062 -109.375 901
31.25 31.25 1165
242.188 304.688 951
468.75 -250 2883
-125 164.062 856
320.312 265.625 915
-164.062 328.125 800
-500 -93.75 803
-421.875 -109.375 882
-445.312 382.812 894
109.375 -39.0625 1047
-343.75 265.625 790
-304.688 125 839
273.438 85.9375 1101
-70.3125 -15.625 981
-101.562 85.9375 906
-70.3125 179.688 1041
429.688 -46.875 2560
-484.375 -359.375 940
-101.562 62.5 923
-15.625 -343.75 2984
156.25 78.125 1134
-453.125 -242.188 910
-148.438 375 869
-164.062 281.25 781
-273.438 148.438 856
-492.188 210.938 803
203.125 -226.562 878
-109.375 281.25 967
-46.875 -109.375 1060
-117.188 -281.25 3010
-140.625 351.562 847
390.625 -54.6875 948
-312.5 -257.812 1197
23.4375 -117.188 1302
78.125 -328.125 2984
-406.25 234.375 794
-460.938 -179.688 998
125 -320.312 2984
-210.938 -54.6875 1007
-335.938 101.562 835
-132.812 -359.375 2984
-195.312 281.25 781
-359.375 148.438 823
23.4375 -335.938 3037
-429.688 -242.188 906
-289.062 -375 2984
-62.5 -54.6875 1013
-78.125 -351.562 3010
-398.438 -148.438 975
359.375 7.8125 1007
-117.188 140.625 869
93.75 7.8125 1189
-375 -382.812 2984
-421.875 242.188 796
-15.625 -210.938 1169
226.562 -226.562 873
-281.25 93.75 856
-304.688 -375 2984
-398.438 -203.125 943
-492.188 -398.438 973
273.438 -78.125 954
85.9375 -328.125 2984
-203.125 -367.188 3010
414.062 -195.312 867
-375 132.812 815
210.938 85.9375 1123
-343.75 -140.625 967
-406.25 -382.812 3010
-148.438 250 798
273.438 -62.5 962
281.25 -203.125 867
-367.188 148.438 815
-23.4375 -343.75 2984
-101.562 242.188 992
-414.062 234.375 796
15.625 -335.938 3037
-187.5 289.062 778
93.75 234.375 1016
-265.625 31.25 935
-398.438 140.625 851
-203.125 289.062 780
382.812 -46.875 956
-132.812 171.875 849
-70.3125 148.438 1070
-31.25 -156.25 1108
-140.625 195.312 835
-328.125 117.188 833
-273.438 -375 2984
-367.188 -382.812 2984
109.375 -62.5 1028
-367.188 250 790
-421.875 -164.062 930
-460.938 -187.5 989
265.625 -62.5 967
-281.25 46.875 847
367.188 -7.8125 995
-453.125 -257.812 962
-31.25 -15.625 1141
-367.188 109.375 871
273.438 -210.938 869
-281.25 -375 2984
-398.438 -210.938 940
-23.4375 -187.5 1145
132.812 -320.312 2958
-117.188 312.5 946
-304.688 70.3125 841
-109.375 109.375 889
328.125 70.3125 1073
-156.25 320.312 789
-351.562 -132.812 962
-156.25 335.938 809
382.812 -39.0625 964
-382.812 242.188 792
-109.375 289.062 964
-46.875 -101.562 1050
-93.75 54.6875 925
-367.188 -125 954
-265.625 109.375 849
-257.812 273.438 783
-140.625 367.188 864
-140.625 343.75 829
-125 335.938 930
117.188 -70.3125 1028
-156.25 343.75 819
-242.188 101.562 878
-312.5 -140.625 913
-367.188 156.25 815
-289.062 54.6875 843
-406.25 -195.312 948
-257.812 39.0625 933
-429.688 -382.812 2958
-101.562 250 989
375 -23.4375 978
-445.312 -335.938 975
-140.625 -359.375 2984
-148.438 226.562 815
-296.875 85.9375 849
-125 -234.375 1177
-164.062 -351.562 3010
-359.375 85.9375 860
-296.875 265.625 783
-304.688 257.812 787
-343.75 140.625 831
-54.6875 -78.125 1028
242.188 -218.75 871
281.25 -62.5 962
234.375 -78.125 962
-429.688 -62.5 891
289.062 289.062 910
-85.9375 31.25 946
-445.312 -179.688 933
-85.9375 7.8125 962
31.25 -335.938 3010
-328.125 70.3125 858
-382.812 -125 885
-335.938 156.25 809
-78.125 7.8125 962
-242.188 7.8125 956
367.188 54.6875 1181
-70.3125 -351.562 3010
390.625 -179.688 860
109.375 -46.875 1041
-70.3125 -23.4375 987
429.688 -148.438 873
265.625 -46.875 981
93.75 15.625 1185
359.375 15.625 1019
289.062 -62.5 959
