ply
format ascii 1.0
comment Created by Open3D
element vertex 2420
property double x
property double y
property double z
end_header
445.312 0 920
343.75 15.625 920
7.8125 140.625 1060
-500 -343.75 2503
164.062 93.75 1105
-460.938 -78.125 2812
343.75 390.625 896
312.5 398.438 887
-460.938 46.875 2958
-453.125 -7.8125 2883
234.375 -187.5 1112
414.062 257.812 831
140.625 375 829
23.4375 414.062 867
-468.75 -164.062 2723
-500 -429.688 2432
429.688 -39.0625 910
-500 -312.5 2103
179.688 -39.0625 1149
468.75 15.625 938
398.438 -54.6875 930
-453.125 -23.4375 2908
328.125 15.625 946
-476.562 -265.625 2639
335.938 -31.25 923
-242.188 -7.8125 3178
156.25 375 831
-468.75 -156.25 2723
273.438 257.812 849
-367.188 -7.8125 3064
-468.75 -171.875 2723
218.75 -7.8125 1145
-351.562 -7.8125 3092
-500 -382.812 2503
359.375 156.25 951
125 7.8125 1214
-445.312 132.812 2618
453.125 0 923
421.875 -101.562 1080
179.688 -117.188 1134
476.562 7.8125 935
23.4375 289.062 913
-31.25 140.625 1047
-468.75 -140.625 2789
242.188 -203.125 1115
117.188 234.375 841
437.5 132.812 978
492.188 242.188 847
-468.75 -148.438 2723
-484.375 -445.312 2432
468.75 414.062 871
242.188 -195.312 1112
171.875 -343.75 2908
-476.562 -289.062 2618
421.875 -70.3125 1080
-453.125 -31.25 2883
492.188 -70.3125 1097
-500 -437.5 2415
-421.875 46.875 2984
-421.875 23.4375 3064
429.688 375 906
460.938 23.4375 938
-85.9375 242.188 956
-492.188 15.625 2129
125 -421.875 2789
-476.562 -296.875 2598
-484.375 -179.688 2467
-70.3125 -179.688 3010
367.188 390.625 894
-492.188 -257.812 1947
375 148.438 956
179.688 -54.6875 1149
382.812 265.625 827
-359.375 -7.8125 3064
203.125 367.188 849
-132.812 125 970
414.062 -62.5 928
93.75 367.188 837
390.625 429.688 862
328.125 429.688 858
-320.312 -7.8125 3092
46.875 421.875 860
-468.75 -179.688 2744
-460.938 -46.875 2883
421.875 257.812 833
250 343.75 901
406.25 -46.875 915
-375 -7.8125 3064
-500 85.9375 2212
351.562 281.25 823
304.688 -7.8125 1119
429.688 437.5 867
-476.562 -242.188 2680
437.5 375 913
421.875 -46.875 920
406.25 31.25 920
265.625 -210.938 1149
335.938 -23.4375 928
250 -54.6875 1080
-460.938 -101.562 2835
312.5 289.062 817
-500 -398.438 2467
23.4375 234.375 831
312.5 93.75 987
-460.938 -85.9375 2835
-453.125 -109.375 2835
250 218.75 903
476.562 0 933
359.375 273.438 825
-492.188 109.375 2241
453.125 367.188 901
320.312 70.3125 967
242.188 398.438 887
109.375 296.875 835
117.188 195.312 880
414.062 7.8125 910
-476.562 -312.5 2598
-500 -335.938 2522
-500 -148.438 1959
421.875 437.5 864
109.375 429.688 851
414.062 -46.875 918
148.438 15.625 1185
375 15.625 901
-500 46.875 2053
-445.312 -39.0625 2908
-304.688 -39.0625 3092
-476.562 -39.0625 2859
273.438 -93.75 1067
476.562 375 910
335.938 -93.75 1077
421.875 -7.8125 908
406.25 -31.25 901
335.938 156.25 954
468.75 -7.8125 925
-476.562 -78.125 2789
-492.188 -234.375 1915
-468.75 -187.5 2723
414.062 148.438 959
257.812 46.875 1119
414.062 140.625 973
132.812 117.188 967
-46.875 117.188 1038
390.625 -39.0625 903
429.688 -46.875 918
429.688 -46.875 918
78.125 343.75 845
328.125 23.4375 948
250 398.438 889
-476.562 15.625 2933
281.25 54.6875 1108
-414.062 15.625 3037
-484.375 -453.125 2432
-382.812 -7.8125 3037
-460.938 -54.6875 2835
304.688 281.25 817
289.062 7.8125 1185
117.188 -23.4375 1292
273.438 46.875 1115
-484.375 15.625 2933
203.125 265.625 882
-468.75 -117.188 2789
-437.5 0 3010
367.188 164.062 943
109.375 93.75 1302
195.312 382.812 843
-460.938 -117.188 2812
-492.188 -265.625 1959
7.8125 406.25 878
304.688 15.625 1173
-492.188 -203.125 1926
351.562 -62.5 1087
351.562 273.438 823
203.125 -101.562 1105
312.5 23.4375 946
-460.938 179.688 2485
210.938 414.062 873
171.875 78.125 1094
-468.75 15.625 2933
-453.125 -39.0625 2859
125 187.5 889
-476.562 -273.438 2639
-468.75 -203.125 2701
468.75 62.5 954
460.938 -7.8125 915
46.875 382.812 851
62.5 -23.4375 3269
164.062 250 849
171.875 281.25 873
-476.562 -31.25 2859
-476.562 -320.312 2579
171.875 -320.312 2933
-484.375 132.812 2286
437.5 257.812 837
-460.938 -109.375 2812
132.812 226.562 847
-484.375 -398.438 2485
140.625 0 1210
218.75 -164.062 1115
-460.938 -156.25 2767
390.625 273.438 829
-203.125 -7.8125 3178
-476.562 -281.25 2639
-15.625 78.125 1054
-476.562 -195.312 2618
-500 -445.312 2415
101.562 70.3125 1343
148.438 234.375 860
-492.188 -164.062 1926
492.188 359.375 906
125 101.562 1283
414.062 437.5 864
382.812 -15.625 889
351.562 -15.625 908
445.312 429.688 867
-476.562 -304.688 2598
-460.938 -62.5 2835
-484.375 -367.188 2522
-140.625 -15.625 3208
265.625 -15.625 1105
-453.125 -31.25 2859
429.688 125 975
-476.562 -250 2659
421.875 46.875 930
335.938 -375 2859
437.5 -148.438 3208
-453.125 -46.875 2859
31.25 242.188 829
-453.125 -125 2812
-31.25 -273.438 2883
117.188 31.25 1302
414.062 -31.25 901
382.812 -46.875 913
281.25 273.438 833
-312.5 406.25 849
468.75 250 843
78.125 359.375 841
289.062 406.25 880
-23.4375 164.062 1041
171.875 195.312 878
7.8125 226.562 847
156.25 210.938 862
-476.562 -328.125 2560
31.25 250 827
31.25 406.25 875
-445.312 15.625 2933
367.188 15.625 898
281.25 406.25 880
-476.562 -289.062 2598
-93.75 218.75 992
46.875 398.438 860
-500 39.0625 2170
-484.375 -320.312 2579
-500 -414.062 2450
484.375 367.188 910
156.25 289.062 864
406.25 -54.6875 925
-500 93.75 2226
289.062 -109.375 1063
101.562 -132.812 3149
312.5 445.312 847
-62.5 -187.5 2984
429.688 265.625 833
484.375 -218.75 3149
117.188 109.375 1278
320.312 -117.188 1067
382.812 148.438 959
-500 31.25 2143
429.688 281.25 837
351.562 156.25 954
117.188 132.812 970
62.5 289.062 864
-500 -390.625 2485
140.625 -7.8125 1219
-453.125 7.8125 2908
-453.125 -7.8125 2908
-468.75 -125 2789
-382.812 78.125 1268
-109.375 23.4375 3269
-492.188 -257.812 1936
335.938 -23.4375 928
-453.125 -101.562 2859
-476.562 -343.75 2541
242.188 -140.625 1087
343.75 -125 1080
46.875 390.625 858
39.0625 351.562 854
164.062 218.75 869
-500 -429.688 2432
101.562 398.438 837
343.75 -117.188 1080
70.3125 343.75 847
109.375 398.438 839
414.062 -54.6875 930
-460.938 -148.438 2744
-437.5 -7.8125 2958
-445.312 -54.6875 2933
-468.75 -179.688 2701
257.812 15.625 1173
343.75 156.25 954
359.375 -109.375 1097
46.875 -23.4375 3269
398.438 -31.25 898
367.188 39.0625 908
156.25 39.0625 1161
-500 -320.312 2103
289.062 289.062 821
476.562 -289.062 3010
414.062 -101.562 1073
125 54.6875 1273
-492.188 -304.688 2090
-85.9375 93.75 1022
-460.938 -70.3125 2789
195.312 257.812 894
437.5 -70.3125 1094
-460.938 -125 2812
328.125 398.438 887
-476.562 -351.562 2541
-257.812 7.8125 3208
289.062 -148.438 1073
390.625 -15.625 891
304.688 7.8125 1189
-468.75 -171.875 2680
148.438 148.438 940
-460.938 -101.562 2789
-500 -406.25 2450
140.625 164.062 930
289.062 -39.0625 1084
289.062 281.25 821
-39.0625 164.062 1034
429.688 257.812 837
421.875 -46.875 925
101.562 289.062 837
406.25 125 970
-445.312 7.8125 2908
125 23.4375 1268
242.188 -109.375 1077
312.5 7.8125 943
-500 -132.812 1970
-406.25 -7.8125 3037
-406.25 -7.8125 3037
312.5 109.375 984
406.25 140.625 973
-281.25 -7.8125 3120
-460.938 -132.812 2812
-85.9375 281.25 959
-492.188 85.9375 2226
453.125 -7.8125 913
101.562 70.3125 1343
-148.438 -15.625 3208
281.25 -117.188 1067
-78.125 93.75 1022
453.125 429.688 869
375 -15.625 889
359.375 281.25 823
-460.938 -93.75 2789
-445.312 -15.625 2908
148.438 226.562 854
125 125 967
-500 -421.875 2450
437.5 -62.5 938
257.812 226.562 880
281.25 -171.875 1087
-421.875 0 3037
304.688 -31.25 1087
-429.688 101.562 2744
445.312 132.812 981
-476.562 -320.312 2579
-468.75 -140.625 2744
-476.562 -335.938 2541
234.375 382.812 903
460.938 62.5 951
70.3125 359.375 841
218.75 -109.375 1090
78.125 117.188 998
-31.25 164.062 1038
132.812 281.25 829
414.062 -46.875 920
-453.125 -54.6875 2835
335.938 -15.625 933
429.688 7.8125 913
226.562 390.625 898
382.812 -46.875 913
203.125 375 841
-445.312 -31.25 2908
-468.75 -210.938 2701
398.438 125 964
-453.125 -46.875 2859
148.438 296.875 860
460.938 257.812 837
460.938 250 843
-421.875 54.6875 3010
109.375 250 845
351.562 281.25 821
445.312 -62.5 935
78.125 -23.4375 3269
460.938 15.625 928
-468.75 -203.125 2701
23.4375 281.25 891
-500 15.625 2143
492.188 250 843
-476.562 -296.875 2618
-476.562 -265.625 2639
-93.75 101.562 1010
390.625 265.625 829
-195.312 -273.438 2812
-484.375 -296.875 2598
203.125 -148.438 1115
335.938 -31.25 925
367.188 437.5 854
109.375 414.062 871
-484.375 -187.5 2560
445.312 421.875 871
-31.25 210.938 882
-460.938 -109.375 2812
85.9375 203.125 867
265.625 242.188 867
-476.562 -375 2541
85.9375 359.375 841
-93.75 93.75 1016
187.5 273.438 880
484.375 421.875 871
421.875 -54.6875 930
375 429.688 862
312.5 289.062 817
-453.125 -62.5 2835
398.438 382.812 901
85.9375 273.438 875
250 210.938 903
62.5 250 825
328.125 148.438 964
132.812 437.5 851
0 70.3125 1060
-476.562 -382.812 2522
414.062 -62.5 930
382.812 281.25 829
148.438 265.625 835
273.438 -132.812 1073
234.375 -125 1087
382.812 265.625 829
-109.375 -265.625 2883
132.812 117.188 967
171.875 382.812 835
132.812 382.812 829
312.5 117.188 989
93.75 382.812 835
468.75 250 843
414.062 140.625 973
-445.312 -70.3125 2908
179.688 78.125 1080
-468.75 -132.812 2744
70.3125 429.688 856
296.875 281.25 819
-445.312 23.4375 2933
46.875 70.3125 1349
460.938 -343.75 2958
164.062 -31.25 1264
-476.562 -312.5 2598
-468.75 -148.438 2701
437.5 257.812 837
93.75 242.188 829
125 -125 3149
296.875 15.625 1173
-476.562 -46.875 2859
320.312 398.438 882
-492.188 -242.188 1926
7.8125 398.438 885
273.438 15.625 1173
46.875 289.062 908
-46.875 -15.625 3238
179.688 359.375 837
476.562 0 928
-492.188 -312.5 2116
0 15.625 3333
0 281.25 891
437.5 -78.125 1084
-476.562 -359.375 2541
164.062 296.875 854
-460.938 -140.625 2789
-187.5 -7.8125 3208
421.875 -7.8125 903
351.562 -46.875 920
187.5 421.875 867
437.5 148.438 959
-476.562 -328.125 2560
-367.188 -7.8125 3064
390.625 148.438 959
140.625 367.188 829
23.4375 398.438 885
-500 -453.125 2398
335.938 398.438 891
421.875 -31.25 903
289.062 39.0625 1134
-500 -351.562 2522
-460.938 -125 2812
320.312 -15.625 938
210.938 -109.375 1094
54.6875 367.188 837
125 257.812 839
-421.875 -7.8125 3010
148.438 250 845
-101.562 296.875 987
359.375 390.625 889
125 250 845
93.75 351.562 839
117.188 234.375 841
218.75 367.188 843
-476.562 -304.688 2598
-109.375 265.625 975
195.312 390.625 898
-445.312 -62.5 2908
-46.875 171.875 1025
-468.75 -195.312 2618
54.6875 250 827
179.688 421.875 867
476.562 367.188 906
-101.562 195.312 967
-476.562 -343.75 2541
117.188 140.625 967
93.75 421.875 862
109.375 132.812 973
375 156.25 954
343.75 273.438 823
476.562 7.8125 930
15.625 226.562 843
-312.5 -7.8125 3120
195.312 429.688 856
320.312 140.625 973
125 39.0625 1268
-460.938 -117.188 2812
375 273.438 825
351.562 -39.0625 913
351.562 273.438 823
62.5 257.812 825
-453.125 140.625 2618
-54.6875 85.9375 1041
78.125 351.562 843
31.25 289.062 910
484.375 70.3125 1060
101.562 70.3125 1343
-453.125 -39.0625 2859
437.5 -70.3125 1094
445.312 -54.6875 935
140.625 320.312 833
218.75 -125 1090
218.75 414.062 873
-476.562 -320.312 2579
343.75 -54.6875 925
-445.312 -7.8125 2908
-484.375 -218.75 2680
312.5 -132.812 1070
125 -54.6875 1307
117.188 414.062 871
210.938 187.5 998
460.938 -140.625 3238
109.375 203.125 873
250 398.438 887
-476.562 -421.875 2467
93.75 210.938 862
390.625 156.25 951
117.188 39.0625 1297
62.5 429.688 856
15.625 -250 2984
-453.125 -70.3125 2883
-15.625 156.25 1050
437.5 125 981
-476.562 -398.438 2503
281.25 281.25 827
304.688 -132.812 1070
39.0625 93.75 1031
171.875 156.25 923
320.312 -132.812 1073
460.938 367.188 898
296.875 7.8125 1189
-460.938 -171.875 2767
281.25 -23.4375 1094
320.312 78.125 973
-460.938 -132.812 2812
164.062 250 849
-476.562 -414.062 2485
406.25 273.438 829
101.562 242.188 833
125 273.438 829
164.062 312.5 839
414.062 15.625 910
-476.562 -460.938 2432
460.938 78.125 962
398.438 -31.25 898
-7.8125 78.125 1060
-492.188 -250 1926
375 390.625 898
-453.125 -62.5 2835
-468.75 -234.375 2680
414.062 109.375 962
23.4375 335.938 948
-445.312 0 2908
140.625 312.5 835
398.438 265.625 829
445.312 382.812 906
0 312.5 935
382.812 429.688 862
289.062 -164.062 1084
437.5 265.625 837
492.188 -320.312 3010
460.938 429.688 871
406.25 15.625 908
-500 23.4375 2143
390.625 125 959
437.5 7.8125 918
-328.125 -7.8125 3092
-70.3125 187.5 908
351.562 -23.4375 908
-132.812 117.188 978
382.812 -46.875 913
148.438 320.312 835
359.375 54.6875 915
304.688 -195.312 1090
351.562 156.25 954
210.938 -156.25 1115
-109.375 273.438 967
0 218.75 856
-78.125 179.688 915
-476.562 -351.562 2541
289.062 281.25 821
-109.375 195.312 967
140.625 265.625 835
-492.188 93.75 2241
218.75 179.688 978
437.5 437.5 867
250 15.625 1173
320.312 289.062 819
484.375 406.25 875
15.625 234.375 843
-93.75 -148.438 3037
93.75 414.062 837
492.188 406.25 871
-460.938 -78.125 2812
-54.6875 179.688 906
312.5 -125 1067
109.375 234.375 837
320.312 -125 1070
125 343.75 829
265.625 15.625 1173
421.875 -31.25 903
-453.125 -15.625 2908
-492.188 -328.125 2541
335.938 -15.625 933
328.125 31.25 954
70.3125 109.375 1004
-39.0625 234.375 920
359.375 273.438 823
93.75 125 987
46.875 250 827
-468.75 -242.188 2680
273.438 257.812 849
156.25 265.625 837
-492.188 -304.688 2090
54.6875 343.75 854
-117.188 109.375 989
406.25 429.688 864
398.438 445.312 862
-132.812 -234.375 2908
320.312 445.312 847
328.125 445.312 847
195.312 234.375 869
179.688 304.688 849
-500 -375 2503
-476.562 -406.25 2503
367.188 -437.5 2744
179.688 -296.875 2958
125 132.812 962
85.9375 421.875 843
-250 304.688 959
476.562 414.062 873
390.625 -46.875 918
-109.375 156.25 943
210.938 -15.625 1134
-476.562 -429.688 2467
289.062 453.125 843
46.875 -164.062 3092
31.25 242.188 829
-476.562 -390.625 2503
-132.812 242.188 1050
-375 398.438 851
-468.75 -226.562 2701
54.6875 54.6875 1376
-492.188 54.6875 2198
-7.8125 218.75 860
468.75 257.812 839
304.688 390.625 871
39.0625 250 827
39.0625 398.438 864
101.562 85.9375 1312
85.9375 132.812 992
250 203.125 906
-70.3125 328.125 951
437.5 -23.4375 903
148.438 359.375 829
437.5 257.812 837
476.562 -62.5 1119
-343.75 414.062 839
140.625 273.438 833
-476.562 -335.938 2541
398.438 273.438 829
-476.562 156.25 2286
117.188 382.812 835
359.375 -39.0625 908
-500 -125 1993
203.125 359.375 847
429.688 437.5 864
39.0625 289.062 908
156.25 382.812 831
414.062 -62.5 930
234.375 -78.125 1080
234.375 -7.8125 1138
421.875 15.625 915
187.5 296.875 854
78.125 398.438 831
78.125 250 825
429.688 -31.25 906
210.938 367.188 843
382.812 148.438 959
398.438 31.25 913
421.875 31.25 920
-484.375 -164.062 2381
421.875 140.625 975
312.5 453.125 845
-476.562 -382.812 2522
70.3125 250 825
-500 -437.5 2432
-429.688 -31.25 2984
156.25 359.375 831
171.875 218.75 880
148.438 218.75 854
-85.9375 257.812 943
328.125 289.062 819
289.062 -23.4375 1090
-500 31.25 2143
226.562 164.062 959
15.625 289.062 915
-39.0625 171.875 1028
-492.188 -148.438 1926
492.188 -15.625 918
-453.125 -78.125 2812
210.938 351.562 854
-476.562 -437.5 2467
343.75 -62.5 1080
437.5 -62.5 938
101.562 273.438 835
226.562 -125 1090
359.375 156.25 954
390.625 46.875 915
359.375 281.25 823
-375 -23.4375 3037
-437.5 -62.5 2933
132.812 265.625 835
-421.875 62.5 2933
109.375 375 837
398.438 390.625 901
437.5 -296.875 3010
343.75 -39.0625 920
234.375 390.625 896
476.562 15.625 933
171.875 171.875 908
-500 15.625 2143
-85.9375 281.25 959
343.75 -7.8125 918
312.5 -101.562 1063
125 -7.8125 1227
125 242.188 849
414.062 -93.75 1080
296.875 406.25 880
0 156.25 1054
140.625 140.625 946
-46.875 312.5 946
-476.562 -375 2541
453.125 -328.125 2958
468.75 -46.875 920
140.625 281.25 829
390.625 -15.625 891
179.688 281.25 873
304.688 281.25 817
375 46.875 910
101.562 46.875 1376
203.125 -85.9375 1101
406.25 -31.25 901
445.312 23.4375 928
265.625 -164.062 1087
406.25 7.8125 906
156.25 296.875 854
492.188 421.875 867
351.562 7.8125 915
132.812 421.875 867
132.812 15.625 1236
-468.75 -265.625 2659
-468.75 -156.25 2701
351.562 -39.0625 913
-460.938 -148.438 2744
164.062 62.5 1097
-70.3125 85.9375 1034
320.312 70.3125 967
-492.188 -289.062 2129
93.75 312.5 843
210.938 335.938 860
-445.312 -109.375 2859
-445.312 -109.375 2859
-500 -328.125 2103
476.562 257.812 841
-476.562 -367.188 2541
-15.625 -85.9375 3149
164.062 375 831
39.0625 171.875 1028
484.375 -15.625 920
101.562 320.312 837
109.375 54.6875 1343
-484.375 109.375 2241
273.438 -15.625 1105
179.688 375 839
-460.938 -125 2812
445.312 132.812 981
-132.812 148.438 959
-23.4375 265.625 948
132.812 414.062 873
39.0625 414.062 871
54.6875 429.688 856
398.438 265.625 829
476.562 23.4375 938
78.125 429.688 858
46.875 289.062 908
390.625 265.625 829
7.8125 289.062 925
93.75 406.25 837
39.0625 406.25 864
492.188 335.938 889
296.875 281.25 819
-78.125 328.125 948
476.562 250 841
-460.938 -85.9375 2812
78.125 273.438 875
-62.5 179.688 906
265.625 242.188 867
31.25 406.25 875
109.375 242.188 837
-476.562 -406.25 2503
343.75 0 923
109.375 281.25 833
54.6875 328.125 864
101.562 257.812 841
-15.625 273.438 903
-476.562 -445.312 2450
-460.938 -187.5 2767
367.188 -39.0625 903
453.125 101.562 970
328.125 -132.812 1077
-54.6875 320.312 964
-210.938 445.312 823
101.562 242.188 833
468.75 -265.625 3064
39.0625 101.562 1028
-62.5 234.375 946
-445.312 -23.4375 2958
-62.5 320.312 964
-492.188 -343.75 2541
-78.125 296.875 954
-476.562 -398.438 2503
226.562 -148.438 1094
62.5 187.5 1016
-468.75 -234.375 2680
70.3125 296.875 858
62.5 265.625 880
156.25 257.812 841
242.188 398.438 889
-70.3125 304.688 943
406.25 265.625 829
-453.125 -54.6875 2835
-476.562 -187.5 2560
-39.0625 187.5 896
187.5 125 1067
335.938 445.312 847
390.625 -46.875 918
-468.75 -257.812 2659
203.125 367.188 843
-62.5 195.312 903
140.625 132.812 948
148.438 367.188 829
382.812 -210.938 3120
484.375 250 843
429.688 -31.25 906
148.438 335.938 829
492.188 -414.062 2812
93.75 257.812 845
117.188 335.938 831
85.9375 445.312 843
-453.125 -23.4375 2859
125 328.125 829
62.5 62.5 1354
445.312 54.6875 946
-445.312 -15.625 2883
-476.562 -414.062 2485
398.438 -15.625 891
-453.125 -70.3125 2812
-460.938 -132.812 2723
-492.188 -273.438 2016
-453.125 -31.25 2883
-445.312 -7.8125 2883
445.312 265.625 831
46.875 453.125 835
257.812 226.562 885
62.5 109.375 1013
179.688 -468.75 2723
-460.938 31.25 2958
187.5 375 843
-468.75 -171.875 2317
453.125 109.375 970
-148.438 109.375 1259
132.812 406.25 841
398.438 -39.0625 910
-46.875 78.125 1047
-109.375 273.438 967
125 140.625 959
296.875 289.062 817
-460.938 -140.625 2723
250 -101.562 1070
179.688 125 1087
15.625 156.25 1054
218.75 -109.375 1090
476.562 429.688 869
453.125 421.875 871
-23.4375 296.875 954
-492.188 -156.25 1970
46.875 54.6875 1376
-445.312 23.4375 2958
62.5 117.188 1010
-460.938 -156.25 2744
453.125 -54.6875 928
-101.562 296.875 987
117.188 375 833
7.8125 320.312 970
54.6875 406.25 854
156.25 156.25 933
140.625 273.438 835
382.812 437.5 858
445.312 -281.25 3037
46.875 429.688 854
406.25 273.438 829
296.875 296.875 817
-62.5 242.188 956
484.375 304.688 862
328.125 101.562 962
-31.25 85.9375 1050
445.312 257.812 835
-46.875 257.812 948
101.562 132.812 981
132.812 390.625 831
140.625 250 845
-476.562 -359.375 2541
437.5 140.625 975
132.812 -62.5 1322
296.875 -164.062 1080
-23.4375 257.812 913
359.375 -39.0625 908
117.188 437.5 851
484.375 -23.4375 915
367.188 281.25 821
-54.6875 46.875 1376
-476.562 -460.938 2450
-93.75 46.875 1365
-359.375 -31.25 3010
484.375 257.812 839
-140.625 132.812 973
468.75 273.438 839
281.25 -140.625 1070
39.0625 421.875 864
-46.875 46.875 1376
85.9375 421.875 841
-476.562 -421.875 2485
429.688 -7.8125 901
-54.6875 250 951
-85.9375 218.75 989
187.5 273.438 885
54.6875 398.438 854
429.688 140.625 975
-484.375 -156.25 2349
-468.75 -179.688 2317
125 15.625 1241
54.6875 187.5 1019
328.125 -23.4375 928
351.562 398.438 891
-492.188 62.5 2226
281.25 15.625 1177
414.062 0 901
179.688 398.438 891
46.875 398.438 858
468.75 0 920
226.562 335.938 873
-78.125 242.188 959
78.125 203.125 860
78.125 203.125 860
179.688 367.188 839
46.875 250 825
-468.75 -226.562 2701
0 398.438 885
359.375 125 946
93.75 242.188 831
242.188 -132.812 1084
31.25 171.875 1031
281.25 -31.25 1080
351.562 273.438 823
85.9375 351.562 843
335.938 -15.625 928
23.4375 289.062 915
-31.25 351.562 930
-46.875 85.9375 1044
125 390.625 833
312.5 281.25 817
414.062 273.438 831
250 382.812 889
-93.75 312.5 970
-31.25 312.5 978
171.875 312.5 843
85.9375 257.812 847
70.3125 195.312 1007
195.312 375 845
171.875 359.375 837
421.875 62.5 935
70.3125 429.688 856
390.625 148.438 964
437.5 -7.8125 906
54.6875 250 827
171.875 210.938 869
-39.0625 312.5 975
23.4375 398.438 880
250 31.25 1149
-453.125 -117.188 2789
414.062 -312.5 2933
-460.938 -164.062 2723
390.625 39.0625 908
-85.9375 171.875 925
-460.938 -179.688 2680
15.625 78.125 1047
-101.562 93.75 1013
132.812 375 829
132.812 187.5 894
-453.125 -78.125 2812
195.312 367.188 845
226.562 367.188 925
312.5 -7.8125 1123
62.5 93.75 1016
359.375 273.438 823
-23.4375 164.062 1041
-23.4375 164.062 1041
-15.625 273.438 901
-492.188 -351.562 2522
281.25 0 1119
265.625 -23.4375 1090
406.25 39.0625 918
406.25 445.312 860
468.75 375 908
-39.0625 351.562 933
445.312 7.8125 918
-429.688 -15.625 3010
-7.8125 351.562 933
-406.25 62.5 1302
460.938 382.812 910
132.812 23.4375 1241
468.75 367.188 898
375 281.25 823
281.25 -156.25 1077
164.062 226.562 871
-132.812 125 975
-70.3125 93.75 1031
117.188 257.812 841
-492.188 -367.188 2522
-484.375 -343.75 2541
226.562 -125 1090
367.188 156.25 956
242.188 195.312 923
445.312 414.062 878
281.25 453.125 841
453.125 265.625 835
492.188 250 841
328.125 289.062 819
429.688 -101.562 1073
367.188 -46.875 915
437.5 -31.25 906
-500 -312.5 2040
-476.562 -429.688 2467
304.688 -187.5 1084
117.188 78.125 1317
359.375 156.25 956
101.562 265.625 839
-476.562 -453.125 2450
125 195.312 885
429.688 101.562 959
195.312 -39.0625 1138
179.688 -31.25 1259
398.438 -31.25 901
445.312 -312.5 2984
156.25 234.375 864
117.188 398.438 841
398.438 -39.0625 910
453.125 54.6875 943
390.625 328.125 851
406.25 382.812 894
-445.312 -23.4375 2908
-476.562 -195.312 2579
-85.9375 281.25 956
125 234.375 843
406.25 7.8125 901
-492.188 -375 2503
328.125 398.438 882
312.5 125 992
304.688 406.25 882
398.438 15.625 901
117.188 7.8125 1292
164.062 382.812 833
414.062 382.812 903
-460.938 -148.438 2723
-492.188 -265.625 1981
-101.562 -296.875 2835
46.875 -23.4375 3269
367.188 390.625 887
351.562 296.875 825
-15.625 164.062 1044
101.562 -312.5 2908
23.4375 93.75 1041
140.625 140.625 948
117.188 234.375 841
-492.188 -437.5 2450
320.312 78.125 970
414.062 265.625 831
-484.375 -437.5 2450
250 265.625 910
85.9375 406.25 835
15.625 85.9375 1044
62.5 351.562 847
-39.0625 46.875 1381
445.312 125 978
62.5 218.75 856
445.312 117.188 973
460.938 406.25 885
273.438 -117.188 1067
289.062 15.625 1177
-453.125 -148.438 2812
93.75 210.938 862
359.375 -62.5 954
-453.125 -39.0625 2883
31.25 414.062 871
343.75 289.062 819
-476.562 -390.625 2522
468.75 -335.938 2958
-23.4375 210.938 875
-460.938 -93.75 2789
-54.6875 242.188 938
242.188 -70.3125 1077
132.812 7.8125 1250
-85.9375 93.75 1022
-476.562 -187.5 2317
-85.9375 101.562 1016
234.375 179.688 940
-468.75 -164.062 2723
-460.938 -101.562 2789
445.312 -54.6875 925
421.875 109.375 962
421.875 117.188 964
335.938 -7.8125 933
70.3125 359.375 841
-476.562 -437.5 2467
-484.375 -179.688 2317
351.562 -210.938 3092
-453.125 -93.75 2789
-93.75 250 951
109.375 203.125 875
-109.375 265.625 973
367.188 273.438 825
445.312 367.188 891
-15.625 226.562 887
54.6875 406.25 854
-492.188 -382.812 2485
-101.562 257.812 954
484.375 -398.438 2835
492.188 257.812 841
398.438 85.9375 935
406.25 148.438 964
148.438 265.625 837
-492.188 -281.25 2103
117.188 -23.4375 1312
406.25 -31.25 901
-468.75 -304.688 2618
398.438 -46.875 920
375 437.5 858
453.125 -46.875 928
187.5 257.812 856
140.625 -62.5 1322
-39.0625 78.125 1047
132.812 328.125 831
304.688 -148.438 1077
54.6875 -406.25 2767
406.25 265.625 831
148.438 390.625 831
-62.5 335.938 946
62.5 437.5 849
-421.875 195.312 1070
-484.375 -171.875 2317
-476.562 -414.062 2485
421.875 101.562 956
54.6875 398.438 854
140.625 -15.625 1236
46.875 179.688 1028
429.688 -414.062 2835
265.625 -156.25 1080
-445.312 -15.625 2883
101.562 54.6875 1381
-7.8125 156.25 1050
351.562 -31.25 910
273.438 281.25 847
-78.125 93.75 1025
-492.188 -296.875 2028
359.375 -39.0625 908
-23.4375 351.562 930
242.188 -179.688 1108
453.125 257.812 837
203.125 359.375 847
-453.125 -156.25 2789
85.9375 359.375 843
320.312 281.25 817
171.875 218.75 875
-93.75 226.562 989
414.062 -15.625 901
-46.875 320.312 967
-445.312 -78.125 2883
-476.562 -398.438 2503
62.5 289.062 864
265.625 414.062 875
-492.188 -406.25 2467
-85.9375 164.062 925
195.312 289.062 867
437.5 -39.0625 913
476.562 7.8125 928
-484.375 -460.938 2450
195.312 273.438 878
421.875 7.8125 906
453.125 85.9375 959
-484.375 -234.375 2659
117.188 -46.875 1307
421.875 140.625 978
453.125 117.188 975
335.938 -78.125 1070
250 414.062 875
-78.125 242.188 959
-492.188 -335.938 2541
132.812 312.5 833
-453.125 39.0625 2984
15.625 234.375 837
195.312 382.812 845
265.625 -171.875 1090
453.125 93.75 964
328.125 -15.625 938
-468.75 -289.062 2639
-390.625 62.5 1302
-476.562 -289.062 2598
117.188 328.125 833
-468.75 -281.25 2659
351.562 281.25 821
101.562 210.938 867
421.875 -78.125 1073
109.375 257.812 841
289.062 -78.125 1063
-78.125 171.875 920
414.062 -31.25 901
-101.562 101.562 1007
367.188 156.25 956
117.188 0 1312
-460.938 -171.875 2723
-476.562 -445.312 2450
70.3125 281.25 869
-453.125 -70.3125 2812
-390.625 85.9375 1255
-390.625 85.9375 1255
335.938 398.438 887
437.5 -7.8125 906
-31.25 46.875 1387
164.062 437.5 849
164.062 375 833
187.5 -125 1130
445.312 437.5 864
-453.125 -85.9375 2789
156.25 320.312 837
-46.875 179.688 903
-101.562 164.062 935
-476.562 -85.9375 2789
414.062 125 967
-23.4375 46.875 1387
382.812 101.562 940
125 414.062 875
382.812 39.0625 908
70.3125 335.938 854
414.062 15.625 906
242.188 15.625 1173
429.688 23.4375 918
242.188 406.25 885
-31.25 437.5 845
-500 140.625 2301
-54.6875 85.9375 1038
78.125 304.688 854
125 250 847
-492.188 -398.438 2485
-468.75 -210.938 2659
210.938 70.3125 1080
375 273.438 825
-468.75 -234.375 2701
-31.25 164.062 1041
54.6875 289.062 869
109.375 328.125 835
117.188 406.25 841
234.375 226.562 938
-468.75 -39.0625 2859
-460.938 382.812 858
-437.5 23.4375 2958
-492.188 -140.625 1970
375 39.0625 908
250 -164.062 1094
367.188 429.688 862
375 265.625 829
46.875 -445.312 2723
-460.938 -140.625 2723
39.0625 289.062 910
296.875 -148.438 1077
468.75 429.688 869
140.625 312.5 837
156.25 257.812 841
-460.938 39.0625 2984
375 125 948
-460.938 -195.312 2639
195.312 164.062 908
289.062 -187.5 1080
-460.938 -109.375 2767
328.125 39.0625 954
-460.938 23.4375 2958
-460.938 23.4375 2958
140.625 250 845
85.9375 250 829
187.5 -328.125 2908
156.25 390.625 833
-476.562 -453.125 2450
-492.188 -328.125 2541
-492.188 -421.875 2450
367.188 -39.0625 908
375 -39.0625 908
453.125 -203.125 3120
85.9375 125 992
367.188 23.4375 898
23.4375 335.938 915
109.375 242.188 837
-500 15.625 2143
281.25 281.25 827
148.438 273.438 837
492.188 250 841
-39.0625 85.9375 1047
-15.625 85.9375 1057
437.5 101.562 959
39.0625 250 827
109.375 265.625 837
320.312 453.125 845
-492.188 -414.062 2467
132.812 265.625 835
-468.75 -273.438 2639
-46.875 335.938 946
460.938 -46.875 925
164.062 359.375 833
421.875 273.438 831
-468.75 -257.812 2659
-476.562 -460.938 2450
328.125 453.125 845
156.25 234.375 864
-382.812 78.125 1268
-70.3125 242.188 956
-492.188 -390.625 2485
-70.3125 187.5 908
23.4375 250 827
93.75 390.625 837
195.312 156.25 908
195.312 351.562 847
156.25 218.75 860
-460.938 -117.188 2767
-460.938 -156.25 2744
445.312 -437.5 2859
-46.875 46.875 1376
132.812 242.188 851
296.875 -156.25 1080
328.125 31.25 948
460.938 46.875 940
296.875 289.062 817
-7.8125 70.3125 1060
140.625 289.062 831
39.0625 70.3125 1349
-445.312 31.25 2984
-445.312 -31.25 2883
-476.562 -179.688 2317
85.9375 375 837
-476.562 -406.25 2503
-54.6875 46.875 1376
-476.562 -382.812 2522
359.375 -54.6875 948
-460.938 -187.5 2680
414.062 31.25 918
226.562 335.938 873
171.875 250 851
281.25 -93.75 1063
484.375 382.812 906
140.625 343.75 829
-23.4375 164.062 1041
242.188 -195.312 1112
-492.188 -429.688 2450
242.188 398.438 891
70.3125 398.438 835
101.562 398.438 841
117.188 390.625 837
171.875 312.5 843
382.812 281.25 827
-468.75 -242.188 2680
-460.938 -203.125 2639
453.125 -62.5 1123
390.625 281.25 827
398.438 39.0625 913
-39.0625 210.938 889
-460.938 -164.062 2723
101.562 273.438 837
-445.312 -46.875 2883
156.25 437.5 851
-445.312 78.125 2883
398.438 -46.875 920
296.875 39.0625 1138
476.562 15.625 930
-31.25 171.875 1028
484.375 -15.625 915
85.9375 367.188 839
-453.125 -93.75 2789
-39.0625 320.312 970
-39.0625 320.312 970
-445.312 -39.0625 2883
210.938 421.875 869
421.875 265.625 831
-445.312 -23.4375 2908
46.875 390.625 860
437.5 -39.0625 913
-70.3125 320.312 959
-101.562 226.562 989
265.625 23.4375 1165
367.188 -210.938 3092
-109.375 117.188 995
468.75 -46.875 920
304.688 -195.312 1094
-140.625 203.125 1108
109.375 85.9375 1317
476.562 101.562 1031
414.062 445.312 862
93.75 445.312 845
179.688 273.438 887
132.812 257.812 841
195.312 367.188 845
406.25 -46.875 920
109.375 304.688 835
226.562 406.25 885
445.312 375 898
312.5 289.062 815
117.188 250 845
468.75 39.0625 938
54.6875 429.688 858
132.812 250 845
398.438 23.4375 903
31.25 406.25 878
54.6875 375 841
-15.625 46.875 1387
-445.312 15.625 2958
375 23.4375 898
429.688 421.875 871
93.75 296.875 851
-39.0625 171.875 1028
335.938 15.625 938
421.875 382.812 906
-54.6875 179.688 906
-468.75 -250 2659
-500 -132.812 1981
375 390.625 891
-70.3125 85.9375 1031
109.375 445.312 845
375 -7.8125 887
359.375 445.312 851
234.375 54.6875 1108
296.875 -125 1067
125 406.25 880
125 320.312 833
109.375 382.812 835
398.438 414.062 880
62.5 429.688 858
23.4375 242.188 827
484.375 414.062 873
78.125 429.688 860
117.188 78.125 1317
171.875 281.25 875
-7.8125 281.25 935
156.25 164.062 928
210.938 375 847
-132.812 125 975
-101.562 109.375 1001
445.312 140.625 978
453.125 437.5 867
429.688 62.5 940
335.938 -7.8125 933
343.75 398.438 889
187.5 265.625 889
234.375 398.438 889
-39.0625 46.875 1381
437.5 382.812 908
375 54.6875 913
250 406.25 882
187.5 -46.875 1138
23.4375 187.5 1016
-484.375 -257.812 2639
117.188 375 833
-476.562 242.188 2286
125 281.25 829
156.25 31.25 1165
492.188 78.125 1070
132.812 0 1236
234.375 382.812 908
140.625 382.812 829
109.375 406.25 845
343.75 289.062 819
39.0625 -367.188 2812
85.9375 312.5 847
453.125 -54.6875 928
-453.125 -101.562 2789
320.312 85.9375 970
414.062 -343.75 2908
406.25 -15.625 896
15.625 234.375 837
101.562 414.062 871
320.312 -78.125 1067
398.438 273.438 827
101.562 421.875 867
-468.75 -304.688 2618
257.812 -140.625 1077
445.312 70.3125 948
54.6875 406.25 854
23.4375 367.188 867
289.062 296.875 819
429.688 -7.8125 901
-70.3125 296.875 938
31.25 289.062 913
132.812 296.875 831
250 398.438 887
39.0625 421.875 864
-468.75 -203.125 2639
414.062 265.625 831
0 -54.6875 3208
-70.3125 257.812 943
492.188 351.562 896
-70.3125 328.125 951
351.562 -39.0625 915
375 -39.0625 908
-453.125 -39.0625 2883
93.75 250 831
453.125 296.875 847
-492.188 46.875 2198
-62.5 93.75 1031
101.562 242.188 833
-476.562 -101.562 2767
218.75 296.875 869
62.5 195.312 1010
414.062 -46.875 925
179.688 132.812 1090
218.75 -101.562 1090
171.875 218.75 875
476.562 351.562 891
226.562 -148.438 1097
101.562 382.812 837
328.125 281.25 819
70.3125 445.312 843
-500 7.8125 2129
-132.812 15.625 3269
421.875 132.812 973
421.875 -31.25 903
460.938 265.625 835
203.125 382.812 843
-54.6875 320.312 964
-468.75 -265.625 2639
-468.75 -328.125 2579
437.5 140.625 975
140.625 328.125 831
-460.938 187.5 2415
367.188 -39.0625 908
281.25 -39.0625 1080
117.188 15.625 1292
7.8125 289.062 925
484.375 429.688 869
414.062 -54.6875 935
101.562 390.625 837
273.438 414.062 878
484.375 -375 2883
187.5 304.688 851
460.938 257.812 837
320.312 -93.75 1063
289.062 -156.25 1077
304.688 453.125 843
484.375 -23.4375 915
-484.375 -226.562 2659
-460.938 -125 2723
39.0625 351.562 851
-492.188 -132.812 1981
-476.562 -367.188 2541
39.0625 93.75 1031
421.875 -429.688 2835
-54.6875 250 951
125 125 962
-117.188 234.375 995
203.125 234.375 873
335.938 0 933
382.812 -39.0625 906
460.938 359.375 887
164.062 265.625 843
429.688 -429.688 2835
164.062 242.188 860
460.938 273.438 835
109.375 70.3125 1349
-78.125 250 954
23.4375 85.9375 1044
281.25 289.062 827
-484.375 -210.938 2598
437.5 7.8125 908
453.125 109.375 967
-62.5 195.312 906
375 156.25 956
257.812 -195.312 1097
164.062 210.938 867
359.375 281.25 821
-85.9375 296.875 962
468.75 -195.312 3092
-468.75 -164.062 2467
-125 156.25 946
289.062 -164.062 1077
0 156.25 1054
304.688 23.4375 1165
-468.75 -312.5 2598
-468.75 -195.312 2541
406.25 -39.0625 918
46.875 351.562 854
-445.312 -39.0625 2883
406.25 156.25 956
-85.9375 226.562 992
343.75 164.062 948
-453.125 -46.875 2859
-445.312 -31.25 2883
-453.125 -140.625 2767
304.688 -171.875 1080
218.75 351.562 860
335.938 164.062 951
-70.3125 242.188 956
-85.9375 320.312 964
281.25 46.875 1123
140.625 242.188 854
140.625 437.5 854
-468.75 -281.25 2618
148.438 7.8125 1202
-453.125 -62.5 2859
148.438 343.75 829
468.75 343.75 880
-62.5 46.875 1381
429.688 -31.25 906
46.875 101.562 1025
117.188 101.562 1288
179.688 203.125 875
296.875 289.062 813
-460.938 -187.5 2618
-453.125 -109.375 2767
31.25 414.062 873
382.812 390.625 891
70.3125 195.312 1010
-445.312 7.8125 2933
-31.25 78.125 1054
-78.125 328.125 954
125 -31.25 1273
398.438 78.125 928
132.812 390.625 829
289.062 -109.375 1063
-46.875 171.875 1025
117.188 203.125 878
-492.188 -148.438 1959
-445.312 0 2908
-476.562 -437.5 2467
-500 179.688 2415
429.688 382.812 896
46.875 257.812 825
429.688 132.812 973
234.375 -140.625 1090
484.375 -304.688 2958
132.812 343.75 829
-460.938 15.625 2958
-460.938 -171.875 2659
140.625 320.312 833
-468.75 -351.562 2560
-453.125 -54.6875 2859
140.625 414.062 878
-398.438 -15.625 3037
125 -15.625 1268
125 93.75 1292
46.875 109.375 1022
218.75 -70.3125 1094
476.562 429.688 864
351.562 -85.9375 1070
101.562 406.25 841
257.812 414.062 878
414.062 15.625 903
164.062 414.062 878
351.562 39.0625 920
-437.5 15.625 2933
406.25 148.438 964
-453.125 -78.125 2812
-437.5 31.25 3010
-445.312 -46.875 2859
125 -46.875 1302
382.812 273.438 829
-476.562 -351.562 2560
281.25 414.062 880
437.5 -39.0625 910
-500 -335.938 2579
375 -39.0625 910
273.438 23.4375 1165
23.4375 164.062 1047
171.875 226.562 878
289.062 414.062 878
195.312 382.812 843
242.188 -164.062 1101
-492.188 -375 2522
70.3125 359.375 843
78.125 -453.125 2723
312.5 296.875 815
-54.6875 203.125 898
171.875 242.188 860
-39.0625 312.5 978
125 0 1245
-453.125 -85.9375 2812
70.3125 125 1004
375 273.438 825
156.25 296.875 862
421.875 445.312 862
351.562 289.062 819
476.562 -7.8125 915
460.938 7.8125 915
406.25 -46.875 923
-460.938 -195.312 2618
-460.938 31.25 2984
468.75 257.812 837
109.375 140.625 973
273.438 265.625 849
-468.75 273.438 2198
-468.75 -296.875 2618
93.75 265.625 843
93.75 210.938 864
406.25 101.562 948
125 195.312 885
148.438 273.438 835
210.938 367.188 847
-460.938 -203.125 2639
-460.938 -132.812 2767
226.562 -7.8125 1149
-476.562 -421.875 2485
-468.75 -320.312 2598
296.875 453.125 843
23.4375 93.75 1041
250 -7.8125 1119
281.25 -187.5 1080
-351.562 0 3092
-500 0 2143
-492.188 -460.938 2398
132.812 414.062 878
414.062 -31.25 903
-476.562 -187.5 2467
312.5 281.25 819
101.562 70.3125 1354
23.4375 242.188 827
-460.938 -210.938 2639
-398.438 304.688 946
179.688 382.812 839
-148.438 218.75 1087
-453.125 -93.75 2812
-39.0625 242.188 925
242.188 -85.9375 1077
218.75 0 1202
-468.75 -367.188 2541
-109.375 265.625 962
421.875 265.625 831
429.688 -367.188 2883
15.625 46.875 1392
-453.125 -101.562 2789
-445.312 -39.0625 2883
-62.5 85.9375 1034
195.312 -132.812 1130
179.688 312.5 845
414.062 -15.625 896
-484.375 -273.438 2618
-85.9375 179.688 925
-453.125 -171.875 2723
-39.0625 304.688 951
367.188 445.312 854
85.9375 203.125 864
46.875 390.625 860
-484.375 -265.625 2618
-453.125 -117.188 2744
343.75 -117.188 1073
-468.75 -289.062 2639
7.8125 78.125 1054
54.6875 -187.5 3037
460.938 421.875 871
101.562 250 833
257.812 -164.062 1090
62.5 382.812 835
54.6875 351.562 851
93.75 390.625 835
343.75 -109.375 1067
429.688 265.625 833
-492.188 -406.25 2467
125 140.625 959
93.75 -390.625 2812
453.125 31.25 925
125 23.4375 1255
-156.25 23.4375 3269
117.188 140.625 967
453.125 -125 3238
93.75 421.875 869
304.688 406.25 880
414.062 -39.0625 915
-125 148.438 959
406.25 -156.25 3149
335.938 281.25 819
226.562 289.062 873
-93.75 171.875 933
85.9375 210.938 864
195.312 250 856
414.062 429.688 864
257.812 453.125 839
343.75 328.125 835
445.312 -23.4375 901
398.438 281.25 827
-484.375 -250 2680
203.125 375 843
218.75 -132.812 1097
85.9375 257.812 843
195.312 -109.375 1119
468.75 265.625 835
-492.188 54.6875 2226
492.188 -7.8125 918
156.25 250 849
-101.562 257.812 951
-468.75 -328.125 2541
437.5 31.25 920
429.688 -39.0625 915
382.812 -39.0625 908
382.812 31.25 901
-468.75 -343.75 2560
445.312 -31.25 906
148.438 242.188 856
468.75 -421.875 2859
-445.312 -117.188 2789
-78.125 101.562 1019
398.438 437.5 858
257.812 226.562 882
-468.75 -382.812 2522
-23.4375 78.125 1054
148.438 390.625 829
328.125 46.875 954
171.875 382.812 835
23.4375 398.438 887
-445.312 156.25 2579
226.562 -117.188 1087
-390.625 -7.8125 3037
132.812 289.062 831
-445.312 -54.6875 2859
406.25 -39.0625 918
-500 125 2286
109.375 85.9375 1317
-7.8125 164.062 1044
-62.5 328.125 954
406.25 273.438 829
367.188 281.25 821
101.562 296.875 833
445.312 31.25 923
453.125 375 894
289.062 -46.875 1073
320.312 406.25 885
-132.812 203.125 1112
210.938 328.125 862
406.25 164.062 948
281.25 281.25 827
-453.125 -125 2744
429.688 15.625 908
320.312 -7.8125 1112
382.812 -7.8125 887
156.25 70.3125 1169
320.312 93.75 975
117.188 242.188 841
367.188 390.625 882
203.125 -70.3125 1108
-62.5 93.75 1031
85.9375 132.812 992
289.062 289.062 819
-453.125 -132.812 2767
382.812 156.25 956
343.75 0 920
328.125 289.062 817
-476.562 -171.875 2467
-429.688 -7.8125 3010
375 171.875 938
484.375 23.4375 923
171.875 15.625 1169
-406.25 15.625 3092
187.5 375 843
421.875 -39.0625 913
304.688 0 1123
484.375 -15.625 913
-46.875 179.688 903
476.562 -15.625 910
31.25 250 827
296.875 -93.75 1060
390.625 281.25 827
140.625 132.812 948
437.5 -31.25 906
7.8125 85.9375 1057
179.688 226.562 878
-453.125 171.875 2522
281.25 343.75 837
335.938 -93.75 1067
-445.312 -125 2812
265.625 -164.062 1087
335.938 -109.375 1067
54.6875 179.688 1025
-421.875 93.75 2767
429.688 31.25 918
414.062 -23.4375 898
-296.875 -109.375 3010
476.562 23.4375 928
453.125 117.188 970
-460.938 -179.688 2659
-453.125 -117.188 2744
-15.625 164.062 1044
429.688 -54.6875 923
-414.062 46.875 3010
421.875 0 901
70.3125 281.25 869
-476.562 -429.688 2467
359.375 398.438 889
-445.312 -46.875 2859
31.25 164.062 1044
367.188 406.25 885
-54.6875 335.938 951
171.875 437.5 854
265.625 390.625 862
148.438 406.25 839
414.062 101.562 948
390.625 437.5 860
-460.938 -140.625 2767
54.6875 296.875 869
390.625 390.625 894
125 289.062 829
140.625 390.625 829
210.938 390.625 903
31.25 296.875 908
140.625 179.688 898
265.625 39.0625 1138
39.0625 351.562 858
109.375 414.062 875
-468.75 -312.5 2598
476.562 265.625 837
117.188 195.312 885
-453.125 -109.375 2767
453.125 7.8125 910
132.812 7.8125 1245
164.062 54.6875 1108
390.625 273.438 827
398.438 132.812 962
437.5 109.375 962
109.375 54.6875 1328
367.188 273.438 823
-492.188 39.0625 2184
-93.75 109.375 1007
343.75 281.25 819
-460.938 7.8125 2908
148.438 304.688 854
23.4375 46.875 1387
281.25 -85.9375 1063
156.25 312.5 843
453.125 125 978
70.3125 367.188 837
195.312 -31.25 1138
406.25 0 896
132.812 382.812 829
312.5 406.25 882
265.625 250 867
265.625 -125 1067
492.188 -296.875 2984
-453.125 -70.3125 2812
460.938 70.3125 951
242.188 195.312 925
468.75 257.812 837
101.562 257.812 843
414.062 148.438 967
164.062 242.188 860
335.938 453.125 845
-492.188 -437.5 2450
171.875 179.688 898
429.688 445.312 864
398.438 273.438 827
-460.938 15.625 2958
-46.875 195.312 898
-484.375 -281.25 2618
-468.75 -320.312 2598
437.5 429.688 867
-375 304.688 948
31.25 367.188 860
429.688 109.375 959
-468.75 -7.8125 2883
492.188 414.062 869
117.188 7.8125 1322
109.375 70.3125 1349
117.188 343.75 829
429.688 289.062 837
117.188 257.812 843
15.625 289.062 918
-445.312 -7.8125 2908
-492.188 -328.125 2541
406.25 -23.4375 896
-468.75 -304.688 2560
445.312 -328.125 2958
-492.188 -390.625 2485
226.562 164.062 964
453.125 250 845
250 210.938 906
156.25 382.812 829
-468.75 -335.938 2579
421.875 429.688 867
125 390.625 831
414.062 7.8125 901
-460.938 -7.8125 2883
164.062 320.312 839
406.25 85.9375 935
-468.75 -359.375 2560
117.188 23.4375 1328
351.562 281.25 821
312.5 289.062 815
70.3125 351.562 845
257.812 -101.562 1067
335.938 367.188 856
234.375 265.625 938
-492.188 -453.125 2398
171.875 375 835
234.375 -70.3125 1080
101.562 140.625 978
-109.375 109.375 998
54.6875 351.562 851
-476.562 -343.75 2541
421.875 257.812 839
78.125 359.375 843
406.25 132.812 964
164.062 257.812 845
-492.188 -445.312 2432
101.562 406.25 841
93.75 250 831
0 78.125 1060
468.75 7.8125 920
109.375 390.625 837
-492.188 46.875 2212
156.25 234.375 867
296.875 296.875 813
46.875 406.25 858
-453.125 164.062 2541
-23.4375 85.9375 1054
320.312 296.875 817
-484.375 -164.062 2398
-85.9375 296.875 962
-31.25 85.9375 1050
343.75 -31.25 920
-492.188 -31.25 2103
382.812 -39.0625 908
351.562 -39.0625 918
93.75 132.812 987
-484.375 -156.25 2365
70.3125 437.5 851
437.5 273.438 831
-492.188 31.25 2184
335.938 0 935
351.562 398.438 887
78.125 203.125 864
-460.938 -203.125 2639
-492.188 78.125 2241
164.062 164.062 925
-468.75 -429.688 2467
117.188 203.125 878
445.312 -31.25 906
-468.75 -351.562 2560
117.188 265.625 837
171.875 289.062 864
460.938 -62.5 1119
437.5 265.625 831
62.5 296.875 862
-492.188 70.3125 2212
-468.75 -375 2541
265.625 -78.125 1067
367.188 398.438 894
421.875 -23.4375 898
312.5 453.125 845
148.438 312.5 843
-500 -117.188 2005
-468.75 -328.125 2541
-78.125 242.188 956
-492.188 -351.562 2541
164.062 398.438 839
296.875 289.062 813
359.375 -46.875 910
320.312 101.562 975
351.562 289.062 819
359.375 289.062 821
359.375 15.625 898
-78.125 93.75 1022
132.812 0 1245
218.75 -54.6875 1097
132.812 320.312 833
414.062 -39.0625 915
93.75 390.625 835
382.812 23.4375 898
398.438 -31.25 901
281.25 23.4375 1165
390.625 39.0625 906
23.4375 234.375 833
-492.188 -414.062 2467
242.188 -125 1080
-414.062 23.4375 3092
257.812 -109.375 1067
218.75 -125 1094
85.9375 265.625 843
320.312 -109.375 1063
468.75 23.4375 928
-156.25 218.75 1084
195.312 265.625 887
-468.75 -343.75 2560
273.438 414.062 878
-70.3125 179.688 913
-7.8125 281.25 935
164.062 390.625 835
-23.4375 171.875 1031
101.562 445.312 847
125 234.375 843
39.0625 179.688 1028
-460.938 -187.5 2618
406.25 15.625 901
54.6875 117.188 1016
281.25 414.062 880
-328.125 -39.0625 3064
31.25 343.75 860
-437.5 117.188 2723
218.75 406.25 887
445.312 140.625 978
31.25 46.875 1376
-484.375 -304.688 2560
304.688 46.875 1123
453.125 78.125 948
132.812 31.25 1255
179.688 226.562 878
-93.75 312.5 970
375 164.062 948
257.812 31.25 1153
-445.312 -62.5 2859
-445.312 -101.562 2859
203.125 390.625 843
-78.125 226.562 948
335.938 -132.812 1073
351.562 164.062 948
-445.312 -39.0625 2883
-93.75 164.062 933
445.312 390.625 903
242.188 406.25 885
78.125 335.938 851
93.75 320.312 843
148.438 148.438 943
132.812 148.438 954
-453.125 -125 2744
-15.625 78.125 1057
460.938 31.25 928
171.875 210.938 869
250 39.0625 1138
-70.3125 242.188 956
-421.875 85.9375 2812
429.688 390.625 903
-101.562 257.812 951
117.188 242.188 841
117.188 289.062 829
132.812 187.5 894
46.875 421.875 862
46.875 421.875 862
-39.0625 257.812 956
148.438 281.25 835
429.688 -23.4375 898
320.312 281.25 819
7.8125 78.125 1054
195.312 296.875 860
351.562 0 913
78.125 437.5 854
226.562 320.312 878
125 7.8125 1245
39.0625 335.938 908
15.625 46.875 1392
289.062 289.062 819
-453.125 -187.5 2767
445.312 -46.875 923
-453.125 -117.188 2744
-484.375 -257.812 2618
-468.75 -382.812 2522
414.062 -46.875 923
-7.8125 78.125 1060
359.375 281.25 821
429.688 -39.0625 915
-117.188 164.062 946
195.312 164.062 913
-437.5 -7.8125 2908
125 265.625 837
476.562 257.812 839
304.688 -70.3125 1063
46.875 429.688 858
437.5 -31.25 906
398.438 148.438 967
-468.75 -203.125 2639
117.188 0 1322
-468.75 -367.188 2541
-78.125 265.625 940
-62.5 335.938 948
-445.312 -54.6875 2859
148.438 257.812 843
78.125 367.188 839
-125 156.25 946
-125 156.25 946
-398.438 398.438 849
148.438 367.188 829
-23.4375 78.125 1054
187.5 281.25 873
0 85.9375 1060
421.875 -39.0625 913
164.062 289.062 869
-46.875 257.812 948
-15.625 218.75 869
203.125 382.812 843
109.375 210.938 869
343.75 164.062 948
460.938 54.6875 938
171.875 203.125 873
70.3125 125 1004
-437.5 7.8125 2933
148.438 234.375 854
101.562 132.812 981
-437.5 -15.625 2933
-468.75 -390.625 2522
-500 -382.812 2503
-492.188 -398.438 2467
-179.688 -7.8125 3208
-468.75 -359.375 2560
70.3125 85.9375 1317
437.5 132.812 973
250 -70.3125 1073
-23.4375 179.688 1025
-445.312 -15.625 2933
210.938 281.25 875
62.5 437.5 851
234.375 179.688 940
390.625 -7.8125 889
-453.125 39.0625 2984
-460.938 -234.375 2701
-492.188 -429.688 2450
-468.75 -335.938 2579
406.25 -23.4375 896
484.375 265.625 839
-453.125 -132.812 2767
359.375 -23.4375 898
-453.125 -140.625 2767
367.188 289.062 821
109.375 421.875 869
257.812 -117.188 1067
234.375 -171.875 1112
-54.6875 85.9375 1038
132.812 234.375 845
328.125 -109.375 1063
0 289.062 930
-492.188 -421.875 2467
7.8125 234.375 843
23.4375 296.875 910
132.812 289.062 831
203.125 273.438 880
398.438 -7.8125 889
-31.25 78.125 1054
-476.562 125 2317
445.312 -62.5 1077
429.688 445.312 864
156.25 414.062 880
39.0625 257.812 825
320.312 -171.875 1090
234.375 351.562 864
179.688 85.9375 1084
359.375 164.062 948
85.9375 375 837
-445.312 -23.4375 2883
54.6875 46.875 1392
-93.75 351.562 930
164.062 304.688 849
484.375 101.562 1034
-78.125 101.562 1019
-445.312 -70.3125 2859
-85.9375 250 954
296.875 414.062 878
195.312 265.625 887
70.3125 257.812 827
179.688 367.188 837
406.25 281.25 829
46.875 46.875 1392
-468.75 -398.438 2522
132.812 39.0625 1259
-500 -101.562 2016
382.812 164.062 951
335.938 7.8125 935
93.75 421.875 869
-421.875 78.125 2859
335.938 164.062 951
54.6875 257.812 825
289.062 23.4375 1165
-70.3125 289.062 938
437.5 -15.625 898
351.562 -23.4375 910
421.875 148.438 967
382.812 156.25 956
382.812 156.25 959
414.062 148.438 967
54.6875 187.5 1022
187.5 304.688 854
-101.562 250 954
-46.875 187.5 903
328.125 296.875 817
210.938 -125 1105
39.0625 296.875 908
125 257.812 845
476.562 31.25 928
-62.5 234.375 943
351.562 179.688 928
-460.938 -257.812 2701
406.25 273.438 827
46.875 109.375 1022
156.25 390.625 831
-78.125 296.875 946
-78.125 296.875 946
156.25 23.4375 1177
171.875 250 854
265.625 250 867
312.5 -109.375 1057
-70.3125 93.75 1031
296.875 296.875 813
429.688 0 898
-453.125 -85.9375 2812
-70.3125 312.5 946
-54.6875 93.75 1034
234.375 406.25 887
414.062 0 894
250 406.25 880
437.5 0 901
445.312 265.625 831
195.312 406.25 887
46.875 226.562 845
-460.938 -148.438 2767
39.0625 351.562 851
101.562 250 833
109.375 250 835
-468.75 -406.25 2503
46.875 351.562 849
304.688 281.25 821
312.5 296.875 813
421.875 70.3125 928
195.312 382.812 843
-500 -351.562 2579
-390.625 15.625 3092
-484.375 -335.938 2560
62.5 359.375 845
289.062 15.625 1126
484.375 -7.8125 910
78.125 -328.125 2883
-484.375 -328.125 2560
226.562 70.3125 1084
226.562 23.4375 1165
382.812 398.438 896
93.75 140.625 984
-39.0625 171.875 1031
398.438 273.438 827
148.438 265.625 839
390.625 -39.0625 913
484.375 257.812 839
0 78.125 1060
39.0625 421.875 869
437.5 257.812 839
226.562 398.438 894
390.625 23.4375 896
31.25 250 829
-445.312 -62.5 2883
46.875 406.25 858
476.562 382.812 913
101.562 281.25 833
-460.938 -164.062 2723
226.562 -31.25 1105
-109.375 -187.5 2984
-429.688 62.5 2984
304.688 289.062 815
148.438 437.5 856
437.5 437.5 862
414.062 7.8125 896
257.812 -62.5 1067
398.438 39.0625 906
117.188 39.0625 1292
