ply
format ascii 1.0
comment Created by Open3D
element vertex 2328
property double x
property double y
property double z
end_header
218.75 -359.375 1421
-7.8125 31.25 1232
-257.812 -257.812 1322
-140.625 -187.5 1264
-273.438 218.75 1970
62.5 218.75 1273
23.4375 359.375 1503
-382.812 -281.25 1236
-46.875 -109.375 1145
492.188 -39.0625 3010
234.375 289.062 1529
226.562 289.062 1529
-273.438 406.25 1572
-335.938 -257.812 1255
-7.8125 359.375 1376
265.625 -203.125 1483
-421.875 335.938 1421
-390.625 70.3125 1173
-187.5 273.438 1705
7.8125 343.75 1523
-148.438 250 1970
-31.25 -109.375 1153
85.9375 359.375 1458
-109.375 351.562 1564
93.75 -132.812 1536
-500 296.875 1398
171.875 390.625 1458
-7.8125 15.625 1268
125 398.438 1439
281.25 -265.625 1452
-437.5 15.625 1202
-265.625 -367.188 3208
-242.188 242.188 1981
359.375 226.562 1283
7.8125 109.375 1223
-7.8125 7.8125 1283
195.312 390.625 1445
101.562 390.625 1452
-460.938 351.562 1392
-500 281.25 1349
414.062 289.062 1302
-171.875 265.625 1731
-414.062 -101.562 1153
-257.812 -109.375 1153
281.25 -320.312 1421
101.562 -296.875 1464
-437.5 -273.438 1236
-7.8125 375 1392
-7.8125 187.5 1259
-7.8125 179.688 1255
-468.75 335.938 1381
-500 289.062 1398
-476.562 -156.25 1317
132.812 367.188 1470
31.25 398.438 1458
-171.875 257.812 1993
390.625 328.125 1328
-375 406.25 1477
-179.688 -109.375 1153
-257.812 242.188 1981
93.75 -117.188 1550
78.125 398.438 1445
0 343.75 1523
-187.5 320.312 1579
-7.8125 140.625 1236
-156.25 -109.375 1153
-500 242.188 1328
0 398.438 1616
93.75 -179.688 1523
375 390.625 1376
-148.438 -140.625 1214
242.188 179.688 1232
140.625 359.375 1523
-117.188 140.625 1915
-304.688 179.688 1947
-367.188 -312.5 1410
-7.8125 -54.6875 1177
-257.812 -289.062 1421
-468.75 -101.562 1153
281.25 -54.6875 1297
-23.4375 -109.375 1145
234.375 -93.75 1550
234.375 390.625 1452
-476.562 23.4375 1197
-156.25 250 1970
-164.062 -148.438 1193
273.438 -179.688 1496
148.438 390.625 1452
296.875 390.625 1439
-367.188 31.25 1189
-7.8125 -101.562 1609
-39.0625 296.875 1328
-7.8125 398.438 1410
-351.562 148.438 1863
101.562 -304.688 1458
-7.8125 23.4375 1255
-257.812 31.25 1206
-351.562 265.625 1873
-78.125 -93.75 1153
265.625 -171.875 1496
-54.6875 31.25 1223
-343.75 -148.438 1268
-31.25 46.875 1197
117.188 -78.125 1536
-250 -109.375 1149
-117.188 132.812 1915
-375 -234.375 1259
-460.938 359.375 1398
-390.625 -195.312 1273
-7.8125 367.188 1381
-234.375 242.188 1993
-125 218.75 1970
140.625 343.75 1550
-156.25 31.25 1219
-23.4375 -93.75 1157
93.75 -140.625 1536
-164.062 -164.062 1241
250 398.438 1445
-164.062 312.5 1655
179.688 -234.375 1470
-179.688 273.438 1688
-375 -164.062 1292
-312.5 312.5 1647
-468.75 289.062 1365
398.438 -85.9375 1601
-62.5 31.25 1223
-406.25 -257.812 1241
-437.5 -281.25 1232
148.438 398.438 1452
-359.375 101.562 1236
-242.188 -257.812 1317
39.0625 375 1489
-23.4375 125 1232
257.812 -85.9375 1529
15.625 398.438 1616
171.875 359.375 1523
265.625 367.188 1496
-429.688 -187.5 1273
273.438 -171.875 1496
132.812 343.75 1503
-320.312 -195.312 1297
164.062 367.188 1496
-335.938 -304.688 1421
-265.625 390.625 1601
250 -70.3125 1307
257.812 -70.3125 1307
101.562 -265.625 1470
-148.438 250 1970
101.562 -320.312 1452
-125 31.25 1219
-7.8125 195.312 1264
164.062 359.375 1523
-289.062 23.4375 1214
-140.625 31.25 1219
0 375 1489
-273.438 -109.375 1153
-335.938 -148.438 1259
-335.938 23.4375 1210
109.375 367.188 1503
-125 398.438 1586
273.438 -148.438 1516
304.688 390.625 1439
-195.312 31.25 1214
-335.938 375 1616
-132.812 312.5 1655
-179.688 -156.25 1189
-429.688 -242.188 1245
242.188 289.062 1529
-500 -101.562 1149
-320.312 398.438 1564
195.312 -70.3125 1523
171.875 398.438 1452
-492.188 250 1333
273.438 375 1470
-328.125 46.875 1173
-7.8125 -46.875 1181
-312.5 296.875 1647
281.25 -296.875 1439
140.625 398.438 1445
-460.938 -101.562 1153
-23.4375 -117.188 1153
-7.8125 343.75 1365
-148.438 -101.562 1153
-125 140.625 1915
-437.5 -187.5 1273
46.875 335.938 1458
257.812 -54.6875 1307
148.438 -93.75 1543
101.562 398.438 1445
-281.25 250 1926
-226.562 -109.375 1149
179.688 390.625 1452
156.25 257.812 1288
281.25 -281.25 1452
-31.25 31.25 1227
210.938 -359.375 1421
62.5 398.438 1445
265.625 351.562 1503
367.188 -304.688 3300
-226.562 273.438 1873
234.375 343.75 1509
187.5 398.438 1445
304.688 296.875 1509
203.125 -54.6875 1464
-296.875 -281.25 1410
265.625 7.8125 1302
-101.562 31.25 1223
-492.188 15.625 1206
-281.25 31.25 1206
179.688 367.188 1529
273.438 -164.062 1509
132.812 359.375 1523
-273.438 -304.688 1404
39.0625 398.438 1458
7.8125 437.5 1543
289.062 367.188 1477
-203.125 273.438 1731
-343.75 23.4375 1210
-7.8125 31.25 1232
140.625 281.25 1529
148.438 273.438 1609
132.812 203.125 1264
-210.938 -148.438 1193
-335.938 -265.625 1259
273.438 70.3125 1173
-312.5 -195.312 1354
460.938 -39.0625 3576
156.25 343.75 1543
312.5 226.562 1278
-484.375 328.125 1381
-312.5 -281.25 1445
-273.438 421.875 1543
-296.875 -109.375 1153
31.25 70.3125 1169
-242.188 -109.375 1149
-7.8125 171.875 1250
-39.0625 39.0625 1210
-78.125 -109.375 1149
132.812 320.312 1496
484.375 -39.0625 3010
281.25 351.562 1536
-460.938 367.188 1404
-7.8125 117.188 1232
195.312 70.3125 1173
-39.0625 -117.188 1149
-23.4375 -78.125 1165
101.562 281.25 1516
-7.8125 148.438 1241
-101.562 304.688 1655
117.188 367.188 1516
-93.75 359.375 1601
-437.5 -265.625 1236
-273.438 -257.812 1328
210.938 382.812 1477
187.5 367.188 1523
492.188 -203.125 3149
265.625 -148.438 1516
-343.75 -296.875 1245
-273.438 210.938 1959
-304.688 -296.875 1452
125 390.625 1439
-468.75 328.125 1381
117.188 257.812 1292
-7.8125 164.062 1250
54.6875 398.438 1452
164.062 398.438 1445
-132.812 359.375 1543
-476.562 320.312 1376
273.438 359.375 1496
132.812 390.625 1439
132.812 -78.125 1536
-156.25 250 1970
273.438 312.5 1509
-164.062 31.25 1219
-406.25 -101.562 1149
-382.812 15.625 1206
-117.188 125 1915
460.938 -46.875 3576
148.438 343.75 1550
-398.438 359.375 1433
-101.562 335.938 1594
265.625 -296.875 1439
281.25 375 1470
-421.875 -289.062 1236
-351.562 -171.875 1292
93.75 -101.562 1557
476.562 54.6875 1193
445.312 -132.812 3468
101.562 -210.938 1503
-375 54.6875 1169
-164.062 -132.812 1189
-171.875 -101.562 1157
218.75 375 1477
15.625 421.875 1564
-335.938 -281.25 1245
-351.562 304.688 1776
429.688 -171.875 3433
-132.812 218.75 1970
-312.5 54.6875 1169
-7.8125 -31.25 1185
-289.062 -101.562 1157
312.5 250 1292
398.438 375 1959
257.812 -164.062 1509
-460.938 265.625 1392
218.75 179.688 1223
265.625 -304.688 1439
273.438 414.062 1579
101.562 -328.125 1445
156.25 367.188 1503
-382.812 -195.312 1273
195.312 -343.75 1421
-367.188 -164.062 1292
23.4375 109.375 1219
-406.25 304.688 1421
140.625 351.562 1543
-296.875 304.688 1647
265.625 -93.75 1529
-7.8125 203.125 1268
-109.375 -93.75 1157
218.75 390.625 1445
210.938 390.625 1439
226.562 382.812 1470
273.438 -70.3125 1307
31.25 257.812 1283
-335.938 -226.562 1273
-132.812 226.562 1970
468.75 -156.25 3269
54.6875 421.875 1572
273.438 -171.875 1496
445.312 -70.3125 3539
195.312 359.375 1516
250 328.125 1557
-343.75 -226.562 1273
273.438 398.438 1439
-117.188 304.688 1663
296.875 343.75 1523
-445.312 23.4375 1197
-210.938 -257.812 1343
-312.5 -218.75 1415
-23.4375 164.062 1250
132.812 398.438 1439
250 -343.75 1421
78.125 375 1477
296.875 250 1292
234.375 -343.75 1415
101.562 -257.812 1477
-390.625 15.625 1206
132.812 320.312 1496
117.188 398.438 1439
-406.25 93.75 1241
-390.625 -312.5 1421
-7.8125 156.25 1245
242.188 343.75 1529
-500 273.438 1338
226.562 -351.562 1415
226.562 375 1477
-367.188 -343.75 1433
-7.8125 -15.625 1338
-257.812 -257.812 1322
117.188 -343.75 1427
281.25 265.625 1586
-453.125 -101.562 1153
-109.375 -109.375 1153
93.75 -148.438 1543
-484.375 15.625 1206
23.4375 375 1477
281.25 -257.812 1470
-140.625 265.625 2301
-132.812 -109.375 1149
-101.562 -85.9375 1161
-179.688 273.438 1688
132.812 -343.75 1421
-7.8125 7.8125 1283
320.312 382.812 1398
-406.25 -265.625 1241
-23.4375 140.625 1236
-476.562 15.625 1206
171.875 367.188 1529
0 343.75 1523
0 351.562 1529
39.0625 335.938 1464
-101.562 375 1579
140.625 171.875 1219
-7.8125 -70.3125 1503
125 367.188 1516
-437.5 -101.562 1153
-492.188 304.688 1398
242.188 382.812 1470
109.375 -351.562 1433
445.312 -39.0625 1404
62.5 -375 3269
476.562 -70.3125 3468
171.875 -343.75 1421
-125 421.875 1557
-398.438 -289.062 1236
281.25 -273.438 1452
210.938 335.938 1550
-281.25 -281.25 1404
7.8125 343.75 1523
-398.438 242.188 1639
257.812 273.438 1557
93.75 -265.625 1489
-7.8125 -203.125 3433
257.812 390.625 1445
187.5 -343.75 1421
101.562 -304.688 1458
-406.25 15.625 1202
-328.125 -148.438 1259
-453.125 15.625 1206
203.125 109.375 1223
-359.375 -257.812 1255
210.938 375 1470
-7.8125 187.5 1259
-85.9375 375 1572
171.875 -85.9375 1550
101.562 -335.938 1445
-179.688 265.625 1731
-171.875 -187.5 1264
242.188 0 1328
109.375 -304.688 1452
-312.5 31.25 1202
-375 23.4375 1210
-429.688 23.4375 1202
-476.562 265.625 1343
-101.562 273.438 1915
-15.625 31.25 1227
7.8125 351.562 1516
-7.8125 132.812 1232
210.938 273.438 1543
54.6875 281.25 1503
-328.125 -171.875 1297
242.188 7.8125 1292
468.75 -39.0625 3576
-7.8125 23.4375 1255
93.75 -132.812 1536
-296.875 -257.812 1343
-70.3125 -85.9375 1157
343.75 -351.562 3208
359.375 437.5 1410
-23.4375 156.25 1245
-7.8125 179.688 1255
-109.375 351.562 1564
273.438 -156.25 1516
-156.25 257.812 1970
242.188 351.562 1523
203.125 -234.375 1470
-15.625 -39.0625 1181
101.562 -250 1483
-171.875 -125 1169
265.625 320.312 1509
-265.625 351.562 1696
289.062 375 1470
-484.375 265.625 1338
-164.062 242.188 1981
31.25 265.625 1283
-320.312 -234.375 1410
-23.4375 -109.375 1145
-281.25 250 1926
265.625 -132.812 1516
-140.625 367.188 1543
-125 367.188 1557
-226.562 31.25 1210
132.812 335.938 1516
-234.375 351.562 1594
23.4375 257.812 1292
281.25 -265.625 1452
343.75 289.062 1349
-23.4375 -62.5 1165
-148.438 390.625 1543
-7.8125 328.125 1359
-281.25 -257.812 1333
101.562 -281.25 1470
-343.75 296.875 1794
101.562 -289.062 1464
15.625 289.062 1516
382.812 296.875 1312
0 109.375 1227
203.125 382.812 1439
93.75 -156.25 1536
15.625 312.5 1489
46.875 335.938 1458
-312.5 -320.312 1452
93.75 -140.625 1536
187.5 359.375 1516
-46.875 320.312 1354
140.625 390.625 1445
-367.188 -39.0625 1177
101.562 -328.125 1445
-62.5 -93.75 1153
-15.625 -46.875 1181
93.75 -93.75 1579
179.688 320.312 1572
242.188 312.5 1523
-390.625 -257.812 1245
-414.062 320.312 1421
210.938 -70.3125 1523
-179.688 -164.062 1206
-195.312 -164.062 1227
273.438 343.75 1529
-398.438 -273.438 1236
-7.8125 15.625 1268
140.625 328.125 1496
-382.812 -296.875 1236
-125 390.625 1557
-132.812 -85.9375 1161
-234.375 -257.812 1322
179.688 -343.75 1421
-343.75 -179.688 1288
-351.562 -156.25 1297
156.25 -343.75 1421
390.625 343.75 1333
-289.062 -265.625 1333
281.25 -250 1470
-398.438 23.4375 1202
39.0625 429.688 1557
-468.75 23.4375 1193
-257.812 375 1632
140.625 -343.75 1421
-132.812 382.812 1543
101.562 -312.5 1452
-304.688 304.688 1647
-460.938 23.4375 1193
39.0625 257.812 1283
-7.8125 210.938 1273
23.4375 343.75 1489
-7.8125 -62.5 1173
-375 -187.5 1273
-156.25 390.625 1536
-234.375 273.438 1883
-359.375 31.25 1193
492.188 -210.938 3238
179.688 375 1477
265.625 -70.3125 1302
-398.438 -335.938 1452
-328.125 -296.875 1433
-320.312 31.25 1197
-250 242.188 1970
242.188 -343.75 1410
-117.188 132.812 1915
-15.625 -101.562 1149
-7.8125 203.125 1268
164.062 343.75 1543
-304.688 -289.062 1452
-257.812 296.875 1823
-140.625 234.375 1981
125 -78.125 1536
-117.188 382.812 1572
-46.875 70.3125 1169
203.125 359.375 1523
-445.312 -101.562 1153
101.562 335.938 1464
234.375 375 1483
-39.0625 359.375 1387
210.938 -234.375 1470
-125 156.25 1926
46.875 351.562 1445
-15.625 39.0625 1210
-421.875 93.75 1227
-117.188 -148.438 1236
-343.75 -312.5 1421
250 -78.125 1572
93.75 -109.375 1550
203.125 367.188 1496
273.438 -164.062 1509
179.688 359.375 1516
15.625 320.312 1483
234.375 382.812 1470
281.25 359.375 1516
265.625 -117.188 1529
0 359.375 1516
281.25 -328.125 1421
125 320.312 1483
-421.875 250 1536
93.75 -125 1543
187.5 367.188 1523
-351.562 398.438 1572
93.75 -117.188 1550
156.25 398.438 1452
-23.4375 39.0625 1210
-7.8125 257.812 1283
-140.625 -148.438 1241
101.562 289.062 1503
-367.188 -265.625 1250
-492.188 234.375 1322
-273.438 -257.812 1328
218.75 -70.3125 1529
-101.562 312.5 1639
-125 164.062 1936
-70.3125 54.6875 1181
7.8125 304.688 1503
-210.938 234.375 1981
-7.8125 195.312 1264
250 382.812 1477
-78.125 39.0625 1202
382.812 367.188 1349
-265.625 226.562 1981
-304.688 320.312 1624
0 -132.812 1739
101.562 -226.562 1496
-15.625 -62.5 1173
-335.938 -273.438 1250
-500 265.625 1338
15.625 351.562 1509
23.4375 335.938 1483
-23.4375 187.5 1259
-242.188 242.188 1981
281.25 -257.812 1470
-328.125 406.25 1557
179.688 343.75 1543
171.875 375 1489
-39.0625 367.188 1398
-7.8125 -7.8125 1317
-7.8125 218.75 1273
-117.188 187.5 1959
-414.062 335.938 1421
-257.812 242.188 1981
-164.062 281.25 1696
-343.75 -203.125 1283
226.562 335.938 1557
312.5 429.688 1415
-335.938 -343.75 1452
7.8125 328.125 1489
273.438 351.562 1496
15.625 343.75 1496
-132.812 281.25 1680
-335.938 390.625 1594
437.5 70.3125 1173
-148.438 328.125 1639
164.062 70.3125 1173
390.625 109.375 1223
-195.312 320.312 1594
203.125 -359.375 1421
-109.375 375 1579
-414.062 -289.062 1236
320.312 375 1410
-234.375 281.25 1863
-187.5 31.25 1214
210.938 -54.6875 1477
125 343.75 1503
-109.375 -156.25 1232
171.875 343.75 1543
-117.188 429.688 1557
-15.625 -54.6875 1177
156.25 343.75 1543
273.438 -140.625 1516
250 343.75 1523
-125 179.688 1947
-171.875 265.625 1731
-375 -335.938 1427
-23.4375 273.438 1328
-125 226.562 1970
-101.562 390.625 1594
-460.938 -164.062 1312
140.625 343.75 1550
-7.8125 -23.4375 1359
-7.8125 -54.6875 1177
-15.625 -70.3125 1165
-304.688 265.625 1883
-398.438 382.812 1445
171.875 281.25 1550
281.25 -335.938 1415
-39.0625 -85.9375 1153
-328.125 31.25 1197
-23.4375 179.688 1255
125 328.125 1483
-85.9375 -109.375 1149
-179.688 31.25 1214
-367.188 -335.938 1427
-7.8125 140.625 1236
-218.75 31.25 1210
101.562 -296.875 1464
148.438 328.125 1586
-343.75 31.25 1193
273.438 -148.438 1516
-125 148.438 1926
-500 250 1333
-312.5 289.062 1823
210.938 109.375 1223
70.3125 296.875 1483
273.438 -156.25 1516
210.938 289.062 1529
39.0625 304.688 1483
148.438 312.5 1496
304.688 335.938 1503
-289.062 31.25 1202
218.75 335.938 1550
-320.312 -210.938 1283
-375 -351.562 1445
-468.75 15.625 1206
-492.188 289.062 1349
132.812 289.062 1529
-382.812 -226.562 1255
-156.25 -132.812 1185
-218.75 -101.562 1153
164.062 359.375 1523
-140.625 281.25 1688
343.75 296.875 1343
-15.625 -85.9375 1165
484.375 -148.438 3208
460.938 70.3125 1173
296.875 296.875 1543
109.375 70.3125 1169
85.9375 375 1477
-414.062 23.4375 1202
-414.062 398.438 1452
-257.812 31.25 1206
296.875 429.688 1445
-23.4375 23.4375 1250
93.75 289.062 1503
-187.5 -164.062 1210
242.188 -351.562 1410
-109.375 31.25 1214
-78.125 31.25 1219
-187.5 -171.875 1227
140.625 304.688 1516
179.688 -242.188 1470
-171.875 312.5 1647
250 289.062 1543
117.188 -78.125 1536
242.188 -70.3125 1536
140.625 375 1483
250 -351.562 1421
-15.625 -78.125 1165
171.875 304.688 1572
-23.4375 250 1292
101.562 -78.125 1543
132.812 375 1470
148.438 359.375 1529
-7.8125 328.125 1359
85.9375 296.875 1483
-476.562 296.875 1359
-156.25 257.812 1970
281.25 -265.625 1452
195.312 398.438 1445
-289.062 -281.25 1404
-265.625 296.875 1823
140.625 359.375 1523
-265.625 242.188 1981
-320.312 -273.438 1439
-101.562 382.812 1579
289.062 304.688 1496
-234.375 31.25 1210
-351.562 -101.562 1153
15.625 335.938 1496
117.188 375 1477
234.375 109.375 1223
-171.875 -109.375 1157
117.188 109.375 1219
-156.25 250 1970
-164.062 343.75 1543
257.812 398.438 1445
148.438 375 1496
453.125 70.3125 1173
-125 281.25 1680
250 375 1477
-343.75 -109.375 1153
-351.562 -257.812 1255
-375 -218.75 1259
156.25 359.375 1529
-93.75 -140.625 1206
187.5 -226.562 1477
-468.75 -101.562 1153
-140.625 398.438 1564
179.688 304.688 1557
195.312 -226.562 1477
54.6875 359.375 1445
-304.688 -304.688 1410
-468.75 375 1404
-117.188 148.438 1926
101.562 -304.688 1458
-390.625 398.438 1458
156.25 375 1496
-250 31.25 1206
-23.4375 171.875 1255
7.8125 62.5 1173
7.8125 359.375 1516
179.688 367.188 1529
-312.5 -312.5 1452
-54.6875 -109.375 1149
-375 -250 1250
-375 -171.875 1288
187.5 70.3125 1173
125 375 1477
226.562 390.625 1445
-187.5 273.438 1705
101.562 -273.438 1470
-437.5 -148.438 1283
-15.625 -117.188 1153
171.875 359.375 1523
-429.688 -101.562 1153
148.438 93.75 1189
132.812 367.188 1470
265.625 390.625 1445
-351.562 140.625 1853
148.438 351.562 1543
296.875 375 1477
-265.625 31.25 1206
-23.4375 281.25 1328
320.312 437.5 1410
-187.5 265.625 1748
453.125 -39.0625 3576
-234.375 -109.375 1153
203.125 -70.3125 1523
-367.188 -234.375 1264
445.312 132.812 1227
-273.438 203.125 1959
-468.75 281.25 1365
-148.438 109.375 1245
132.812 343.75 1503
-484.375 -148.438 1292
398.438 320.312 1322
257.812 359.375 1509
-125 187.5 1947
195.312 -359.375 1421
15.625 250 1288
-78.125 367.188 1639
281.25 406.25 1439
62.5 375 1477
195.312 -70.3125 1523
78.125 367.188 1452
265.625 -109.375 1536
-164.062 257.812 1981
101.562 -265.625 1470
195.312 -273.438 1452
101.562 -289.062 1464
-23.4375 203.125 1268
273.438 257.812 1292
-320.312 -179.688 1302
265.625 -125 1529
-70.3125 351.562 1663
273.438 390.625 1433
-125 140.625 1915
-335.938 -179.688 1297
-492.188 -101.562 1153
132.812 109.375 1219
226.562 -70.3125 1529
-15.625 -218.75 1564
-367.188 15.625 1202
312.5 70.3125 1177
78.125 -101.562 1609
-7.8125 187.5 1259
-367.188 304.688 1722
-85.9375 31.25 1219
125 -343.75 1427
93.75 -132.812 1536
101.562 -234.375 1489
-476.562 312.5 1370
-359.375 -171.875 1292
-429.688 -289.062 1232
156.25 296.875 1579
140.625 351.562 1543
156.25 312.5 1594
171.875 70.3125 1173
-390.625 23.4375 1206
101.562 70.3125 1169
-421.875 242.188 1536
93.75 390.625 1452
296.875 226.562 1278
281.25 -250 1470
-343.75 296.875 1794
-23.4375 226.562 1283
-125 171.875 1947
218.75 367.188 1477
-164.062 -195.312 1264
-109.375 367.188 1579
156.25 351.562 1536
0 351.562 1529
195.312 343.75 1557
101.562 234.375 1283
164.062 351.562 1523
125 234.375 1288
85.9375 406.25 1601
46.875 382.812 1483
-328.125 -289.062 1245
-421.875 -101.562 1153
-335.938 382.812 1609
-85.9375 335.938 1601
109.375 -343.75 1433
-414.062 -242.188 1250
-359.375 -156.25 1297
93.75 296.875 1489
-15.625 -101.562 1149
54.6875 382.812 1483
195.312 109.375 1223
210.938 382.812 1477
101.562 -320.312 1452
125 351.562 1516
156.25 328.125 1594
210.938 359.375 1516
148.438 273.438 1609
-250 359.375 1663
-140.625 -140.625 1219
-7.8125 414.062 1415
218.75 382.812 1470
-23.4375 242.188 1288
195.312 -343.75 1421
320.312 226.562 1283
-7.8125 -210.938 3433
109.375 406.25 1445
320.312 265.625 1302
171.875 398.438 1452
171.875 351.562 1523
109.375 234.375 1283
250 390.625 1445
281.25 -257.812 1470
39.0625 382.812 1489
-289.062 -257.812 1333
0 406.25 1609
164.062 328.125 1586
93.75 -125 1543
132.812 187.5 1223
0 328.125 1359
148.438 -343.75 1421
31.25 -93.75 1586
179.688 398.438 1445
-132.812 -187.5 1264
-398.438 -257.812 1241
-7.8125 257.812 1283
-179.688 320.312 1632
148.438 398.438 1452
187.5 398.438 1445
-132.812 242.188 1993
93.75 -171.875 1523
-382.812 -289.062 1236
273.438 109.375 1223
-359.375 -289.062 1241
109.375 -351.562 1433
203.125 343.75 1550
148.438 109.375 1219
-335.938 -210.938 1283
-109.375 257.812 1926
-218.75 101.562 1245
-304.688 101.562 1245
-156.25 -195.312 1264
171.875 367.188 1529
7.8125 351.562 1516
429.688 187.5 1236
148.438 343.75 1550
429.688 203.125 1255
203.125 -343.75 1415
-7.8125 125 1232
179.688 351.562 1516
210.938 367.188 1470
101.562 109.375 1219
-359.375 -234.375 1264
-289.062 -265.625 1333
-23.4375 257.812 1312
-351.562 -242.188 1264
0 132.812 1232
-7.8125 -70.3125 1503
-367.188 -101.562 1153
-398.438 -273.438 1236
-7.8125 421.875 1421
-265.625 312.5 1785
-328.125 -281.25 1245
54.6875 312.5 1464
312.5 109.375 1223
164.062 -343.75 1427
-93.75 335.938 1601
-132.812 117.188 1241
-23.4375 234.375 1288
-132.812 312.5 1655
140.625 320.312 1496
-132.812 281.25 1680
93.75 -101.562 1557
-406.25 312.5 1421
-460.938 312.5 1381
-109.375 390.625 1594
-414.062 -140.625 1241
-23.4375 304.688 1349
-23.4375 265.625 1322
-125 203.125 1959
85.9375 -93.75 1586
85.9375 382.812 1470
-492.188 -140.625 1206
-140.625 -93.75 1161
-406.25 -195.312 1268
179.688 281.25 1543
-39.0625 -15.625 1181
-398.438 -289.062 1236
-359.375 -101.562 1153
140.625 328.125 1496
-23.4375 296.875 1338
171.875 328.125 1579
-7.8125 39.0625 1214
148.438 -273.438 1458
-23.4375 312.5 1354
-281.25 -218.75 1343
-273.438 250 1904
484.375 -156.25 3238
93.75 234.375 1283
-7.8125 398.438 1410
-304.688 31.25 1202
-85.9375 320.312 1671
-250 62.5 1173
-414.062 375 1439
-164.062 351.562 1543
-7.8125 226.562 1278
171.875 109.375 1223
195.312 359.375 1516
281.25 -242.188 1470
54.6875 406.25 1452
-359.375 289.062 1813
-359.375 -335.938 1433
93.75 -109.375 1550
-203.125 -109.375 1149
46.875 406.25 1452
-164.062 -125 1165
-125 195.312 1959
-226.562 -257.812 1328
289.062 -39.0625 1297
-39.0625 375 1398
289.062 7.8125 1302
-156.25 257.812 1970
23.4375 406.25 1601
-468.75 320.312 1376
382.812 179.688 1255
-23.4375 195.312 1264
15.625 382.812 1477
101.562 -273.438 1470
-390.625 179.688 1680
187.5 343.75 1557
-140.625 250 1981
273.438 -148.438 1516
0 140.625 1236
-421.875 -148.438 1278
-335.938 250 1926
-382.812 164.062 1688
164.062 367.188 1496
171.875 312.5 1572
164.062 234.375 1283
156.25 -70.3125 1516
101.562 -257.812 1477
101.562 281.25 1516
234.375 -70.3125 1536
62.5 273.438 1496
-359.375 320.312 1748
-195.312 -210.938 1387
-445.312 -179.688 1273
-125 250 2005
-164.062 257.812 1981
31.25 382.812 1489
210.938 -70.3125 1523
-7.8125 367.188 1381
-328.125 -343.75 1458
-437.5 23.4375 1202
171.875 -70.3125 1523
156.25 -85.9375 1550
312.5 312.5 1477
289.062 359.375 1477
-125 312.5 1655
15.625 273.438 1550
-148.438 -85.9375 1165
101.562 -265.625 1470
273.438 398.438 1439
273.438 -132.812 1516
-320.312 -171.875 1297
7.8125 335.938 1496
-7.8125 382.812 1398
-296.875 -289.062 1421
164.062 -70.3125 1523
-140.625 390.625 1543
-296.875 -226.562 1370
242.188 382.812 1470
-15.625 39.0625 1210
273.438 -140.625 1516
101.562 -195.312 1516
-257.812 -195.312 1365
234.375 375 1483
-148.438 -140.625 1214
-117.188 -93.75 1153
-125 429.688 1543
234.375 359.375 1509
101.562 -281.25 1470
54.6875 234.375 1283
203.125 390.625 1439
476.562 -179.688 3238
-250 -171.875 1307
-93.75 343.75 1601
226.562 382.812 1470
296.875 7.8125 1302
101.562 289.062 1503
-203.125 -257.812 1349
-375 -257.812 1250
-15.625 -85.9375 1165
-500 187.5 1268
242.188 375 1483
-406.25 -296.875 1236
218.75 359.375 1523
-117.188 156.25 1926
-492.188 -148.438 1202
-453.125 23.4375 1197
-125 179.688 1947
-265.625 -218.75 1338
210.938 -234.375 1470
101.562 -250 1483
-117.188 164.062 1926
-117.188 171.875 1926
-132.812 250 1993
0 117.188 1232
-23.4375 148.438 1241
-164.062 390.625 1536
-226.562 31.25 1210
-335.938 164.062 1926
-382.812 -101.562 1149
265.625 -296.875 1439
-7.8125 210.938 1273
-289.062 -296.875 1404
-445.312 367.188 1427
15.625 328.125 1483
-273.438 -179.688 1387
109.375 -257.812 1470
375 398.438 1376
54.6875 398.438 1452
-78.125 406.25 1586
132.812 234.375 1288
-7.8125 398.438 1421
-398.438 390.625 1445
132.812 359.375 1523
265.625 382.812 1477
257.812 382.812 1477
-117.188 39.0625 1214
-62.5 46.875 1197
250 375 1483
-39.0625 39.0625 1214
101.562 -226.562 1496
-335.938 234.375 1959
15.625 406.25 1452
250 -70.3125 1550
0 148.438 1241
226.562 109.375 1223
156.25 179.688 1236
132.812 382.812 1470
-281.25 -273.438 1404
-132.812 398.438 1550
132.812 328.125 1489
281.25 -218.75 1477
328.125 257.812 1292
195.312 375 1477
-93.75 39.0625 1214
-7.8125 320.312 1349
-328.125 -164.062 1297
54.6875 320.312 1464
-93.75 382.812 1572
-484.375 265.625 1338
101.562 406.25 1445
-7.8125 312.5 1349
281.25 257.812 1292
226.562 375 1433
-7.8125 273.438 1328
-250 351.562 1688
-359.375 414.062 1477
-164.062 265.625 2301
-15.625 -125 1161
-468.75 414.062 1509
-7.8125 0 1177
-351.562 273.438 1804
-390.625 -320.312 1433
15.625 390.625 1452
62.5 234.375 1288
-7.8125 -39.0625 1185
101.562 -210.938 1509
179.688 375 1483
109.375 257.812 1278
-421.875 343.75 1415
-453.125 335.938 1387
0 335.938 1370
117.188 382.812 1477
289.062 304.688 1516
-421.875 367.188 1445
398.438 -109.375 3468
-23.4375 335.938 1365
-343.75 187.5 1873
0 132.812 1232
250 382.812 1477
195.312 351.562 1503
281.25 -31.25 1312
78.125 343.75 1452
-468.75 328.125 1381
304.688 328.125 1529
-132.812 -85.9375 1161
171.875 -343.75 1427
109.375 382.812 1477
-7.8125 335.938 1370
367.188 187.5 1259
281.25 390.625 1439
101.562 -203.125 1509
-406.25 -289.062 1241
93.75 406.25 1439
23.4375 382.812 1477
-23.4375 218.75 1273
-39.0625 382.812 1398
132.812 351.562 1516
-492.188 234.375 1210
-101.562 351.562 1564
265.625 -296.875 1433
390.625 164.062 1245
-375 -101.562 1157
273.438 -203.125 1496
164.062 265.625 1292
-398.438 -179.688 1278
140.625 335.938 1509
-296.875 31.25 1210
218.75 390.625 1445
-421.875 23.4375 1210
78.125 234.375 1283
140.625 406.25 1452
-15.625 23.4375 1197
-351.562 -265.625 1255
179.688 234.375 1283
-203.125 31.25 1219
257.812 343.75 1529
289.062 -70.3125 1302
101.562 -242.188 1489
-281.25 31.25 1214
281.25 -234.375 1470
-23.4375 164.062 1250
-500 351.562 1601
93.75 296.875 1489
-85.9375 367.188 1601
-437.5 -101.562 1153
0 343.75 1354
-359.375 390.625 1470
273.438 -156.25 1516
257.812 289.062 1543
-242.188 234.375 1981
-203.125 242.188 1993
39.0625 398.438 1452
-109.375 -148.438 1245
101.562 -296.875 1464
-375 -289.062 1236
250 -187.5 1489
0 164.062 1245
15.625 312.5 1496
117.188 -78.125 1550
-359.375 -250 1259
304.688 320.312 1523
125 265.625 1278
195.312 390.625 1421
-23.4375 39.0625 1219
304.688 359.375 1503
-125 226.562 1970
-242.188 31.25 1214
273.438 312.5 1509
234.375 335.938 1550
-335.938 -101.562 1157
187.5 304.688 1557
-445.312 398.438 1421
312.5 273.438 1470
-218.75 -109.375 1153
-421.875 -289.062 1241
-460.938 -101.562 1153
-125 187.5 1959
179.688 109.375 1223
39.0625 265.625 1278
0 125 1232
250 109.375 1223
179.688 -242.188 1477
-500 304.688 1392
-46.875 54.6875 1185
-257.812 382.812 1624
-367.188 -171.875 1292
39.0625 234.375 1283
-460.938 304.688 1370
484.375 -171.875 3092
93.75 -117.188 1564
125 109.375 1219
-187.5 -109.375 1161
-7.8125 281.25 1328
265.625 -93.75 1543
-335.938 414.062 1550
-132.812 281.25 1680
-320.312 -210.938 1278
-265.625 -273.438 1410
210.938 335.938 1557
117.188 -359.375 1439
187.5 -242.188 1477
-398.438 -101.562 1153
31.25 406.25 1445
-351.562 312.5 1748
312.5 375 1470
-132.812 242.188 1993
-7.8125 289.062 1338
171.875 320.312 1579
70.3125 406.25 1445
257.812 -132.812 1509
-132.812 -117.188 1153
218.75 335.938 1550
-312.5 -289.062 1439
312.5 367.188 1470
148.438 234.375 1288
226.562 -250 1464
-281.25 351.562 1705
281.25 -242.188 1470
132.812 335.938 1489
62.5 382.812 1477
281.25 -250 1464
-250 -234.375 1328
-62.5 39.0625 1219
242.188 109.375 1223
-476.562 351.562 1398
70.3125 367.188 1445
226.562 359.375 1516
-7.8125 171.875 1250
-7.8125 304.688 1349
210.938 390.625 1421
-171.875 312.5 1655
296.875 304.688 1516
-343.75 -156.25 1297
273.438 343.75 1543
164.062 109.375 1223
-140.625 281.25 1680
-117.188 140.625 1915
476.562 -39.0625 3503
-31.25 -39.0625 1177
289.062 398.438 1415
-492.188 265.625 1338
-117.188 281.25 1680
-140.625 -148.438 1250
-359.375 -179.688 1288
-484.375 281.25 1354
273.438 390.625 1439
234.375 367.188 1433
273.438 -226.562 1470
-117.188 148.438 1915
148.438 304.688 1529
-203.125 -132.812 1206
-140.625 250 1993
304.688 351.562 1516
148.438 281.25 1543
187.5 -343.75 1427
-179.688 390.625 1543
281.25 398.438 1439
-242.188 62.5 1173
7.8125 382.812 1489
210.938 398.438 1433
414.062 281.25 1297
-484.375 -101.562 1157
218.75 109.375 1223
-359.375 -320.312 1421
-335.938 -343.75 1452
242.188 -109.375 1536
-171.875 265.625 2286
-78.125 -93.75 1157
257.812 375 1477
-343.75 -195.312 1283
-148.438 -93.75 1161
-15.625 -210.938 1489
-171.875 -125 1185
414.062 414.062 1873
234.375 179.688 1236
-164.062 -187.5 1268
257.812 -179.688 1496
-187.5 -265.625 1381
-382.812 414.062 1464
-367.188 -187.5 1283
273.438 -140.625 1529
156.25 390.625 1458
187.5 234.375 1288
-125 281.25 1680
-164.062 -109.375 1161
210.938 367.188 1509
-101.562 -109.375 1153
-31.25 390.625 1398
-125 414.062 1550
-117.188 414.062 1557
-7.8125 164.062 1250
476.562 -195.312 3333
-7.8125 320.312 1349
156.25 -343.75 1427
-93.75 273.438 1926
187.5 -359.375 1439
-320.312 -203.125 1288
93.75 265.625 1292
242.188 390.625 1445
195.312 -359.375 1427
-164.062 257.812 1993
304.688 265.625 1292
187.5 351.562 1550
265.625 -85.9375 1550
109.375 -335.938 1445
-289.062 -304.688 1410
0 -125 1722
390.625 -54.6875 1509
109.375 -351.562 1439
257.812 -281.25 1445
-23.4375 328.125 1359
250 335.938 1550
54.6875 -93.75 1601
-140.625 242.188 1981
281.25 312.5 1503
109.375 109.375 1219
31.25 375 1470
140.625 312.5 1496
46.875 242.188 1288
406.25 -156.25 3433
210.938 -343.75 1415
93.75 109.375 1219
54.6875 -312.5 3333
265.625 359.375 1503
-203.125 -164.062 1193
39.0625 406.25 1452
85.9375 109.375 1219
140.625 109.375 1219
164.062 -359.375 1445
-117.188 -156.25 1278
-484.375 289.062 1354
-7.8125 39.0625 1219
-375 -156.25 1297
296.875 109.375 1223
218.75 -70.3125 1536
-289.062 234.375 1981
148.438 312.5 1529
-117.188 187.5 1947
304.688 375 1477
148.438 335.938 1509
257.812 -78.125 1579
0 140.625 1236
62.5 109.375 1219
46.875 398.438 1452
203.125 -234.375 1470
-148.438 320.312 1663
273.438 -132.812 1503
-476.562 -101.562 1157
62.5 398.438 1452
148.438 382.812 1489
242.188 -70.3125 1509
-390.625 -273.438 1241
-125 203.125 1959
226.562 -70.3125 1536
93.75 250 1288
-406.25 -101.562 1153
-179.688 -140.625 1197
-7.8125 421.875 1415
78.125 406.25 1439
171.875 273.438 1557
101.562 -187.5 1523
-15.625 15.625 1197
0 382.812 1376
0 156.25 1241
132.812 -343.75 1421
359.375 226.562 1283
-500 23.4375 1185
-117.188 203.125 1959
-320.312 -148.438 1264
101.562 -257.812 1483
-250 -257.812 1322
-148.438 -148.438 1250
101.562 -265.625 1483
-31.25 -351.562 3269
-15.625 7.8125 1197
0 171.875 1250
-7.8125 257.812 1288
406.25 296.875 1312
-476.562 23.4375 1206
210.938 351.562 1523
0 320.312 1349
-445.312 -242.188 1255
-101.562 -156.25 1241
179.688 -70.3125 1529
-328.125 -289.062 1250
15.625 296.875 1516
-7.8125 -54.6875 1173
-156.25 -132.812 1193
-359.375 -164.062 1297
289.062 296.875 1516
101.562 -250 1489
-46.875 39.0625 1214
-7.8125 -62.5 1165
468.75 -179.688 3365
-250 367.188 1663
148.438 320.312 1489
-7.8125 312.5 1349
0 179.688 1255
62.5 406.25 1452
218.75 367.188 1509
156.25 320.312 1601
281.25 -226.562 1470
140.625 234.375 1288
-140.625 -148.438 1250
265.625 -335.938 1421
-148.438 242.188 1970
-70.3125 39.0625 1214
281.25 343.75 1550
-460.938 -164.062 1354
-382.812 -195.312 1273
-406.25 -140.625 1259
109.375 -328.125 1445
132.812 257.812 1292
101.562 -234.375 1496
-421.875 296.875 1427
-375 -148.438 1288
-187.5 -125 1173
132.812 406.25 1452
-398.438 -148.438 1288
398.438 296.875 1312
-31.25 39.0625 1219
210.938 234.375 1288
-46.875 226.562 1959
-195.312 -93.75 1161
335.938 250 1288
-289.062 -265.625 1359
-429.688 -218.75 1259
-460.938 343.75 1381
-195.312 -218.75 1387
-15.625 -203.125 1445
0 195.312 1268
117.188 398.438 1445
328.125 398.438 1387
23.4375 296.875 1503
218.75 234.375 1283
281.25 -234.375 1470
445.312 -179.688 3399
320.312 390.625 1427
-148.438 -132.812 1202
101.562 -242.188 1489
93.75 257.812 1292
-164.062 265.625 2301
-273.438 -265.625 1338
-7.8125 351.562 1354
156.25 234.375 1288
101.562 -226.562 1496
31.25 398.438 1445
0 164.062 1245
-421.875 -242.188 1250
140.625 -70.3125 1523
-171.875 265.625 2286
-117.188 -85.9375 1161
-140.625 250 1993
273.438 -343.75 1427
-265.625 398.438 1594
-312.5 31.25 1206
109.375 -242.188 1489
-398.438 312.5 1427
-367.188 312.5 1705
-156.25 250 1981
-421.875 -148.438 1288
-351.562 132.812 1883
148.438 351.562 1550
-250 -265.625 1322
-7.8125 390.625 1392
281.25 -54.6875 1302
46.875 328.125 1464
31.25 234.375 1278
78.125 382.812 1477
289.062 390.625 1445
-117.188 171.875 1926
-132.812 406.25 1564
-164.062 281.25 1663
-15.625 -54.6875 1173
-328.125 -210.938 1278
328.125 367.188 1404
156.25 335.938 1579
289.062 -31.25 1312
-78.125 414.062 1586
117.188 -335.938 1439
351.562 -78.125 1586
-273.438 250 1915
78.125 375 1470
257.812 390.625 1445
15.625 398.438 1452
179.688 351.562 1550
156.25 -359.375 1433
-437.5 390.625 1421
-343.75 54.6875 1173
164.062 343.75 1550
398.438 328.125 1322
-179.688 273.438 1731
-7.8125 398.438 1421
-320.312 296.875 1794
-367.188 406.25 1477
-328.125 -171.875 1288
-320.312 -101.562 1157
-93.75 328.125 1624
-117.188 179.688 1947
375 -171.875 3468
203.125 -70.3125 1529
171.875 351.562 1536
62.5 328.125 1458
39.0625 398.438 1452
281.25 -218.75 1477
0 210.938 1268
281.25 296.875 1523
70.3125 398.438 1445
-117.188 -93.75 1157
125 359.375 1496
101.562 -179.688 1523
164.062 335.938 1579
195.312 -70.3125 1529
234.375 -7.8125 1343
195.312 398.438 1445
-148.438 281.25 1696
-31.25 -226.562 1572
23.4375 398.438 1445
273.438 281.25 1557
226.562 398.438 1439
-453.125 367.188 1404
-101.562 351.562 1564
-179.688 -156.25 1197
-414.062 328.125 1421
-117.188 -164.062 1245
0 187.5 1259
-7.8125 343.75 1354
-7.8125 328.125 1365
375 250 1288
187.5 359.375 1523
-421.875 -156.25 1278
-367.188 -218.75 1273
46.875 382.812 1489
210.938 375 1496
281.25 359.375 1503
-85.9375 421.875 1572
390.625 351.562 1343
-320.312 -343.75 1470
-335.938 398.438 1586
85.9375 398.438 1439
-203.125 -148.438 1202
-289.062 -234.375 1359
-125 210.938 1970
335.938 257.812 1288
-265.625 -234.375 1338
-453.125 375 1410
-343.75 -179.688 1288
265.625 289.062 1543
-117.188 164.062 1926
140.625 289.062 1523
-484.375 265.625 1338
187.5 -242.188 1477
23.4375 281.25 1529
164.062 328.125 1586
281.25 -210.938 1483
7.8125 343.75 1523
-85.9375 382.812 1609
-7.8125 273.438 1328
-117.188 195.312 1959
226.562 234.375 1283
-468.75 -156.25 1333
281.25 -226.562 1470
-429.688 -242.188 1250
312.5 289.062 1464
-7.8125 39.0625 1219
-132.812 429.688 1550
101.562 382.812 1483
242.188 359.375 1509
-125 234.375 1981
-62.5 -7.8125 1189
195.312 234.375 1288
101.562 398.438 1445
171.875 375 1489
-226.562 -250 1333
-382.812 -7.8125 1189
46.875 234.375 1283
460.938 -39.0625 3539
39.0625 382.812 1503
187.5 -70.3125 1536
-351.562 312.5 1748
-492.188 -140.625 1202
-15.625 -85.9375 1161
-250 -273.438 1427
101.562 -218.75 1503
-382.812 -226.562 1259
-421.875 375 1445
125 273.438 1543
-390.625 -101.562 1153
-328.125 -218.75 1278
-250 273.438 1883
-304.688 -226.562 1427
-15.625 -15.625 1189
15.625 335.938 1509
15.625 382.812 1477
-226.562 -78.125 1161
0 171.875 1250
-179.688 335.938 1572
93.75 375 1483
-164.062 -125 1181
367.188 -218.75 3399
-281.25 -289.062 1404
125 -359.375 1439
-15.625 -218.75 1579
187.5 335.938 1564
-351.562 31.25 1202
234.375 382.812 1470
93.75 -109.375 1557
-312.5 -203.125 1288
-273.438 31.25 1214
-343.75 171.875 1873
-484.375 23.4375 1206
-15.625 39.0625 1219
-7.8125 359.375 1354
-7.8125 320.312 1349
234.375 234.375 1283
93.75 382.812 1483
-164.062 250 1993
265.625 -78.125 1586
-93.75 421.875 1564
101.562 -203.125 1509
-257.812 320.312 1766
-304.688 -218.75 1421
179.688 -359.375 1445
218.75 343.75 1550
125 -78.125 1550
234.375 -70.3125 1509
101.562 -226.562 1496
0 156.25 1241
164.062 -343.75 1427
218.75 375 1433
312.5 351.562 1477
-484.375 218.75 1317
187.5 -226.562 1477
-93.75 31.25 1227
140.625 -343.75 1421
125 406.25 1458
-468.75 320.312 1376
-359.375 421.875 1452
328.125 351.562 1415
273.438 -132.812 1503
-265.625 -296.875 1410
-414.062 351.562 1415
31.25 382.812 1470
-7.8125 375 1376
117.188 382.812 1477
101.562 -210.938 1509
-320.312 -148.438 1264
-179.688 257.812 1970
-93.75 -109.375 1157
296.875 0 1322
-7.8125 304.688 1349
-15.625 -132.812 1197
-421.875 -164.062 1278
-335.938 -148.438 1278
-15.625 15.625 1197
-382.812 367.188 1452
289.062 -320.312 1427
78.125 257.812 1292
-250 351.562 1688
195.312 -343.75 1421
187.5 -234.375 1477
-179.688 -109.375 1161
-125 382.812 1550
23.4375 406.25 1452
-406.25 328.125 1421
54.6875 406.25 1445
-117.188 156.25 1926
-164.062 -164.062 1236
164.062 382.812 1483
132.812 382.812 1470
257.812 -320.312 1421
-7.8125 367.188 1376
132.812 398.438 1452
-281.25 -281.25 1404
-125 195.312 1959
-343.75 257.812 1863
-132.812 359.375 1543
-23.4375 289.062 1333
-390.625 -257.812 1245
-476.562 242.188 1333
218.75 437.5 1550
156.25 382.812 1496
195.312 351.562 1503
-289.062 359.375 1680
296.875 437.5 1509
0 218.75 1273
0 203.125 1268
234.375 343.75 1550
0 140.625 1236
273.438 -210.938 1483
-492.188 226.562 1210
-117.188 203.125 1959
-117.188 281.25 1680
-164.062 265.625 2301
250 359.375 1516
-187.5 335.938 1572
101.562 -187.5 1523
-281.25 289.062 1833
-171.875 273.438 1713
-234.375 343.75 1586
54.6875 -289.062 3365
-375 367.188 1458
-257.812 -257.812 1333
273.438 -117.188 1503
-171.875 265.625 2286
-117.188 187.5 1947
-289.062 31.25 1214
273.438 -218.75 1477
-179.688 -164.062 1232
-7.8125 -70.3125 1165
-85.9375 343.75 1601
257.812 -70.3125 1550
-445.312 -101.562 1153
226.562 -117.188 1529
-140.625 250 1993
15.625 304.688 1503
-312.5 -101.562 1157
289.062 414.062 1415
-195.312 -109.375 1157
234.375 359.375 1433
-328.125 382.812 1616
-476.562 250 1338
-93.75 359.375 1572
-460.938 351.562 1392
70.3125 382.812 1483
-15.625 -101.562 1153
148.438 -343.75 1421
70.3125 265.625 1288
-226.562 31.25 1219
242.188 -70.3125 1509
-7.8125 351.562 1354
-148.438 -109.375 1157
265.625 382.812 1477
195.312 -242.188 1470
-148.438 250 1970
-429.688 -281.25 1236
257.812 281.25 1550
-367.188 421.875 1452
0 179.688 1255
-273.438 -257.812 1338
-468.75 179.688 1365
234.375 421.875 1564
-273.438 15.625 1206
78.125 109.375 1214
0 195.312 1268
148.438 -70.3125 1523
109.375 406.25 1445
15.625 429.688 1557
156.25 109.375 1223
171.875 335.938 1557
-195.312 -148.438 1202
-351.562 320.312 1748
468.75 0 1317
-304.688 -289.062 1452
-7.8125 335.938 1370
-437.5 195.312 1464
85.9375 70.3125 1169
140.625 335.938 1509
281.25 -218.75 1477
187.5 328.125 1564
492.188 -164.062 3092
-7.8125 203.125 1268
-203.125 -132.812 1206
-367.188 398.438 1470
125 257.812 1288
-250 -257.812 1322
101.562 -257.812 1483
117.188 257.812 1278
85.9375 406.25 1439
-343.75 179.688 1873
-406.25 250 1579
195.312 -234.375 1470
-171.875 320.312 1639
7.8125 398.438 1445
-7.8125 343.75 1354
-132.812 31.25 1227
320.312 109.375 1223
-234.375 31.25 1214
-179.688 273.438 1731
148.438 171.875 1255
-117.188 210.938 1959
-46.875 273.438 1915
23.4375 320.312 1489
-85.9375 70.3125 1173
46.875 226.562 1278
117.188 70.3125 1169
273.438 328.125 1509
101.562 -382.812 3269
242.188 335.938 1550
101.562 -148.438 1536
156.25 328.125 1586
179.688 359.375 1523
-414.062 -140.625 1259
-148.438 359.375 1543
0 187.5 1259
-453.125 382.812 1410
101.562 -164.062 1529
7.8125 320.312 1503
-132.812 -85.9375 1161
-484.375 312.5 1415
-429.688 -257.812 1241
-429.688 -226.562 1255
281.25 -210.938 1483
171.875 -343.75 1427
-320.312 -210.938 1278
195.312 -226.562 1477
242.188 367.188 1433
320.312 328.125 1452
265.625 0 1307
101.562 -273.438 1470
234.375 367.188 1433
23.4375 -101.562 1632
-289.062 -289.062 1410
-156.25 367.188 1543
289.062 343.75 1550
-234.375 -242.188 1328
-15.625 -23.4375 1189
46.875 406.25 1445
85.9375 343.75 1458
-85.9375 39.0625 1210
-328.125 -250 1264
-343.75 -320.312 1427
101.562 -171.875 1529
101.562 -195.312 1516
-429.688 -250 1245
445.312 70.3125 1173
492.188 -218.75 3269
-468.75 -109.375 1161
390.625 70.3125 1177
117.188 -250 1483
15.625 406.25 1452
-117.188 -85.9375 1161
-54.6875 39.0625 1223
-7.8125 -39.0625 1185
296.875 70.3125 1173
0 164.062 1245
0 398.438 1445
-15.625 414.062 1415
-343.75 -265.625 1259
109.375 382.812 1477
476.562 -171.875 3238
0 226.562 1278
54.6875 398.438 1452
0 335.938 1370
-312.5 -210.938 1278
-375 -218.75 1264
-320.312 226.562 1970
453.125 -171.875 3365
-7.8125 375 1376
-367.188 -226.562 1268
140.625 -328.125 1439
257.812 382.812 1477
0 382.812 1376
-375 304.688 1705
179.688 -70.3125 1529
-187.5 390.625 1543
468.75 109.375 1173
-281.25 15.625 1206
257.812 375 1477
-265.625 -304.688 1415
46.875 335.938 1464
109.375 -343.75 1439
-15.625 -93.75 1157
140.625 265.625 1292
195.312 335.938 1557
-398.438 304.688 1421
125 382.812 1470
140.625 257.812 1292
-117.188 117.188 1245
23.4375 234.375 1278
-7.8125 406.25 1415
-125 171.875 1936
109.375 398.438 1445
-429.688 -265.625 1241
-312.5 -195.312 1302
-335.938 -265.625 1259
203.125 375 1483
-7.8125 382.812 1381
-140.625 320.312 1663
-7.8125 390.625 1392
-453.125 -171.875 1398
-7.8125 -46.875 1185
-250 -265.625 1322
7.8125 406.25 1445
-398.438 -140.625 1259
296.875 390.625 1421
-117.188 195.312 1959
0 203.125 1268
148.438 406.25 1458
226.562 343.75 1550
101.562 257.812 1288
156.25 351.562 1543
15.625 398.438 1452
250 367.188 1489
23.4375 398.438 1445
234.375 390.625 1452
-164.062 -179.688 1255
-429.688 -210.938 1264
-390.625 -250 1250
-7.8125 398.438 1421
7.8125 335.938 1516
125 398.438 1445
-93.75 -93.75 1161
164.062 351.562 1536
101.562 375 1489
-367.188 -273.438 1245
78.125 398.438 1439
93.75 296.875 1489
281.25 -203.125 1496
-132.812 39.0625 1214
-210.938 -257.812 1338
257.812 359.375 1509
273.438 -54.6875 1302
203.125 359.375 1503
-367.188 -187.5 1283
101.562 -179.688 1523
-328.125 -304.688 1427
0 23.4375 1264
281.25 -187.5 1496
-468.75 273.438 1354
101.562 -187.5 1523
-203.125 -140.625 1210
179.688 328.125 1579
0 -117.188 1647
164.062 359.375 1523
-390.625 -140.625 1255
-125 234.375 1981
-148.438 257.812 1970
-265.625 234.375 1970
-132.812 234.375 1970
312.5 375 1470
109.375 -320.312 1445
-171.875 23.4375 1210
0 218.75 1273
-328.125 -257.812 1264
-328.125 -273.438 1245
109.375 -70.3125 1523
85.9375 257.812 1288
-453.125 328.125 1387
179.688 304.688 1557
-414.062 382.812 1439
140.625 406.25 1452
-62.5 -85.9375 1157
-257.812 62.5 1173
70.3125 320.312 1464
335.938 109.375 1223
-250 -273.438 1427
-7.8125 367.188 1376
23.4375 328.125 1489
0 406.25 1415
-359.375 -140.625 1250
-328.125 -265.625 1259
179.688 335.938 1579
-7.8125 289.062 1338
148.438 398.438 1452
234.375 335.938 1550
-46.875 -46.875 1169
125 -273.438 1470
382.812 -273.438 3300
-382.812 -304.688 1236
-171.875 273.438 1713
101.562 406.25 1445
39.0625 406.25 1452
-250 -281.25 1427
156.25 406.25 1464
-390.625 -210.938 1264
-257.812 31.25 1210
-320.312 31.25 1206
-265.625 250 1959
-148.438 429.688 1550
46.875 398.438 1452
-156.25 281.25 1705
164.062 -70.3125 1529
-468.75 23.4375 1206
62.5 398.438 1452
7.8125 234.375 1283
0 179.688 1255
-85.9375 -85.9375 1161
117.188 398.438 1445
367.188 289.062 1307
-375 -226.562 1259
273.438 -85.9375 1550
-421.875 -226.562 1255
-242.188 -164.062 1322
-265.625 -289.062 1410
-109.375 117.188 1236
-296.875 -289.062 1410
250 234.375 1288
-304.688 -195.312 1381
0 210.938 1268
273.438 375 1477
-398.438 -187.5 1273
320.312 375 1433
187.5 -242.188 1477
0 -15.625 1354
23.4375 304.688 1489
-250 242.188 1981
-15.625 -39.0625 1181
171.875 -70.3125 1529
-476.562 304.688 1359
101.562 273.438 1529
0 -46.875 1185
-328.125 -210.938 1278
156.25 281.25 1586
-15.625 -125 1161
-460.938 23.4375 1202
-453.125 -195.312 3300
-421.875 304.688 1421
210.938 -70.3125 1529
-179.688 273.438 1731
132.812 335.938 1489
132.812 445.312 1529
-179.688 -156.25 1197
265.625 -164.062 1509
-375 -242.188 1255
242.188 234.375 1288
-484.375 257.812 1338
-328.125 -148.438 1278
226.562 351.562 1523
-250 335.938 1722
-476.562 281.25 1354
-7.8125 359.375 1354
0 218.75 1273
-398.438 -195.312 1268
-351.562 -156.25 1297
-109.375 382.812 1550
-39.0625 39.0625 1214
-7.8125 429.688 1415
-335.938 242.188 1947
382.812 406.25 1376
-7.8125 437.5 1421
-179.688 281.25 1663
-265.625 -164.062 1328
-7.8125 390.625 1392
-93.75 328.125 1624
-179.688 328.125 1572
-429.688 -273.438 1236
-468.75 265.625 1349
-460.938 296.875 1370
312.5 335.938 1489
7.8125 382.812 1489
148.438 359.375 1477
289.062 -312.5 1427
-390.625 0 1193
-476.562 -148.438 1312
-414.062 289.062 1433
171.875 343.75 1550
-62.5 39.0625 1219
-367.188 -195.312 1283
-125 218.75 1970
-265.625 31.25 1210
-117.188 312.5 1655
-101.562 -93.75 1161
273.438 382.812 1439
-250 -289.062 1427
0 15.625 1273
187.5 343.75 1557
-437.5 31.25 1193
-109.375 398.438 1586
250 -70.3125 1550
320.312 -39.0625 1445
210.938 -234.375 1470
-125 359.375 1550
250 375 1483
210.938 -101.562 1536
-328.125 -281.25 1245
179.688 -234.375 1477
23.4375 406.25 1452
-343.75 195.312 1863
-484.375 250 1338
-15.625 0 1177
140.625 398.438 1452
-23.4375 39.0625 1219
0 140.625 1236
148.438 320.312 1489
171.875 187.5 1223
70.3125 296.875 1489
-250 343.75 1713
-132.812 -171.875 1250
101.562 -226.562 1496
-328.125 101.562 1241
-304.688 -101.562 1157
265.625 375 1477
-54.6875 70.3125 1173
273.438 -101.562 1523
-359.375 -335.938 1439
-445.312 390.625 1421
187.5 375 1477
117.188 -351.562 1439
15.625 359.375 1516
-171.875 265.625 2286
171.875 359.375 1523
-375 -187.5 1278
-117.188 125 1894
273.438 -148.438 1516
-476.562 234.375 1328
-500 359.375 1594
-101.562 -148.438 1241
-390.625 -171.875 1278
171.875 328.125 1579
-250 -296.875 1421
101.562 -218.75 1503
281.25 -218.75 1477
7.8125 398.438 1445
101.562 -210.938 1509
0 -39.0625 1185
-367.188 -218.75 1273
-195.312 289.062 1663
-156.25 250 1981
-117.188 210.938 1959
281.25 -195.312 1489
273.438 -109.375 1523
-7.8125 406.25 1415
148.438 312.5 1529
15.625 320.312 1496
289.062 -296.875 1433
257.812 437.5 1536
0 226.562 1278
-15.625 -46.875 1181
164.062 -93.75 1550
-156.25 351.562 1543
171.875 312.5 1579
-7.8125 218.75 1273
-250 31.25 1210
-398.438 398.438 1445
-164.062 -140.625 1202
-109.375 281.25 1680
-234.375 234.375 1981
320.312 390.625 1427
281.25 312.5 1503
-164.062 281.25 1663
367.188 226.562 1283
-125 -109.375 1153
-500 234.375 1210
320.312 296.875 1464
257.812 328.125 1509
0 31.25 1236
437.5 -210.938 3333
296.875 7.8125 1312
320.312 320.312 1452
70.3125 406.25 1445
273.438 -117.188 1503
375 -85.9375 1624
179.688 -343.75 1427
101.562 -203.125 1509
-492.188 203.125 1292
281.25 281.25 1557
242.188 437.5 1529
-7.8125 398.438 1421
101.562 -195.312 1516
15.625 445.312 1529
0 -85.9375 1572
429.688 -93.75 3503
7.8125 375 1376
289.062 312.5 1503
70.3125 -93.75 1601
-117.188 218.75 1970
62.5 257.812 1288
-429.688 -101.562 1153
132.812 328.125 1489
109.375 335.938 1464
-500 296.875 1392
-492.188 234.375 1210
234.375 398.438 1445
-328.125 31.25 1206
-429.688 257.812 1483
367.188 437.5 1404
23.4375 445.312 1536
93.75 -85.9375 1564
-171.875 421.875 1550
23.4375 335.938 1489
-273.438 335.938 1722
-281.25 -109.375 1157
-335.938 -210.938 1278
0 164.062 1245
-289.062 -257.812 1349
70.3125 109.375 1214
398.438 125 1223
101.562 -187.5 1523
-7.8125 31.25 1236
-500 281.25 1415
46.875 265.625 1302
-117.188 203.125 1959
335.938 70.3125 1177
492.188 70.3125 1173
289.062 -328.125 1421
31.25 406.25 1445
281.25 -203.125 1496
312.5 265.625 1292
-210.938 -140.625 1210
-296.875 -101.562 1157
-398.438 -265.625 1241
-500 265.625 1338
156.25 265.625 1292
-15.625 -78.125 1165
484.375 -234.375 3238
-398.438 54.6875 1169
-429.688 -203.125 1264
15.625 281.25 1349
140.625 -281.25 1458
265.625 -70.3125 1312
-148.438 257.812 1970
-7.8125 429.688 1415
296.875 343.75 1543
289.062 328.125 1579
-148.438 -195.312 1264
39.0625 257.812 1292
0 0 1177
54.6875 257.812 1292
54.6875 429.688 1564
148.438 179.688 1236
484.375 -62.5 3010
304.688 343.75 1516
-54.6875 54.6875 1185
-273.438 -101.562 1157
0 39.0625 1219
164.062 320.312 1586
-343.75 -101.562 1157
-203.125 -15.625 1193
-320.312 -164.062 1297
281.25 273.438 1579
234.375 -140.625 1523
156.25 -343.75 1427
-156.25 257.812 1981
109.375 -343.75 1439
-421.875 -171.875 1278
156.25 320.312 1601
-132.812 359.375 1543
0 320.312 1349
-460.938 335.938 1381
101.562 375 1489
-148.438 320.312 1663
312.5 343.75 1483
-15.625 -70.3125 1165
-351.562 -218.75 1273
0 23.4375 1264
250 343.75 1543
31.25 257.812 1292
23.4375 257.812 1292
-406.25 -140.625 1259
101.562 -132.812 1543
359.375 187.5 1259
250 414.062 1439
-78.125 15.625 1197
-382.812 398.438 1452
210.938 375 1496
-140.625 39.0625 1214
-148.438 398.438 1536
-265.625 -289.062 1410
-15.625 -62.5 1165
-437.5 414.062 1427
