ply
format ascii 1.0
comment Created by Open3D
element vertex 2487
property double x
property double y
property double z
end_header
484.375 54.6875 1241
-429.688 -164.062 2744
-289.062 343.75 887
226.562 156.25 837
-437.5 -296.875 2618
242.188 -7.8125 1004
15.625 289.062 1141
-257.812 328.125 878
195.312 257.812 825
-414.062 -39.0625 2958
-7.8125 351.562 862
-453.125 -289.062 2639
-117.188 351.562 956
-289.062 421.875 970
476.562 54.6875 1241
335.938 195.312 819
406.25 54.6875 1250
351.562 -15.625 3178
429.688 132.812 973
-429.688 -156.25 2789
289.062 85.9375 978
156.25 7.8125 981
296.875 195.312 813
-132.812 -93.75 3037
375 171.875 903
148.438 226.562 858
468.75 304.688 918
265.625 171.875 821
250 93.75 995
242.188 156.25 837
15.625 312.5 1115
132.812 140.625 1016
492.188 54.6875 1227
23.4375 257.812 984
296.875 312.5 880
-281.25 242.188 970
-210.938 445.312 790
148.438 359.375 880
-468.75 -460.938 2415
390.625 54.6875 1250
78.125 23.4375 1022
125 109.375 992
148.438 195.312 1057
296.875 109.375 984
54.6875 101.562 1054
164.062 265.625 860
-125 453.125 796
148.438 210.938 862
-39.0625 453.125 805
70.3125 54.6875 1028
125 -7.8125 998
148.438 281.25 894
289.062 242.188 835
-156.25 312.5 998
148.438 203.125 864
101.562 62.5 992
-250 398.438 920
226.562 226.562 813
390.625 179.688 906
15.625 179.688 1077
148.438 234.375 858
218.75 132.812 1007
23.4375 421.875 992
468.75 289.062 935
7.8125 382.812 1034
250 7.8125 1001
-39.0625 437.5 813
132.812 164.062 1025
148.438 -39.0625 998
328.125 156.25 833
148.438 351.562 889
-23.4375 445.312 819
0 195.312 1264
140.625 296.875 943
23.4375 437.5 975
-289.062 414.062 978
109.375 132.812 1022
101.562 156.25 1105
148.438 218.75 860
140.625 101.562 984
15.625 242.188 1013
398.438 -15.625 3178
7.8125 398.438 1016
-265.625 234.375 978
-500 187.5 1210
7.8125 359.375 1060
7.8125 375 1044
468.75 -15.625 3120
0 -15.625 3178
375 93.75 1010
46.875 78.125 1210
257.812 273.438 843
-78.125 312.5 918
328.125 70.3125 970
156.25 179.688 837
15.625 320.312 1105
304.688 70.3125 973
-312.5 273.438 940
437.5 -15.625 3149
23.4375 273.438 967
7.8125 351.562 1070
250 328.125 878
320.312 171.875 821
23.4375 265.625 975
-54.6875 406.25 817
304.688 171.875 823
203.125 46.875 970
195.312 218.75 803
-265.625 429.688 915
242.188 46.875 987
-46.875 390.625 829
-70.3125 445.312 802
343.75 203.125 823
117.188 93.75 989
242.188 203.125 803
0 218.75 1236
328.125 93.75 970
7.8125 179.688 1292
210.938 23.4375 975
421.875 125 984
320.312 226.562 835
93.75 7.8125 1016
-304.688 320.312 903
23.4375 289.062 954
429.688 156.25 903
406.25 109.375 998
-140.625 257.812 995
0 234.375 1214
375 257.812 959
7.8125 343.75 1077
-93.75 367.188 845
-320.312 296.875 928
-132.812 437.5 789
7.8125 335.938 1087
7.8125 234.375 1214
0 187.5 1278
289.062 328.125 887
492.188 382.812 825
15.625 296.875 1130
164.062 250 862
125 -31.25 1013
390.625 203.125 915
-414.062 -54.6875 2883
15.625 328.125 1094
210.938 140.625 1013
0 226.562 1227
0 210.938 1245
-101.562 296.875 946
164.062 226.562 856
-117.188 273.438 964
289.062 85.9375 978
140.625 273.438 967
257.812 46.875 995
-85.9375 429.688 805
-39.0625 382.812 835
7.8125 164.062 1312
164.062 210.938 854
156.25 242.188 869
250 156.25 837
-296.875 398.438 992
265.625 31.25 1013
367.188 179.688 908
23.4375 93.75 1202
93.75 85.9375 1004
-78.125 445.312 802
-421.875 -125 2812
343.75 164.062 829
328.125 210.938 825
7.8125 242.188 1202
-54.6875 398.438 819
-85.9375 445.312 800
7.8125 406.25 1010
-117.188 359.375 951
367.188 187.5 908
312.5 117.188 978
296.875 101.562 981
23.4375 296.875 948
296.875 109.375 984
15.625 171.875 1087
-234.375 421.875 817
-15.625 -15.625 3178
23.4375 429.688 981
-226.562 421.875 817
-437.5 -304.688 2639
15.625 304.688 1123
-429.688 -210.938 2701
304.688 125 970
-421.875 -156.25 2789
226.562 85.9375 978
-39.0625 375 843
476.562 -15.625 3149
125 164.062 1097
312.5 78.125 970
390.625 250 959
-281.25 414.062 913
195.312 320.312 860
23.4375 281.25 964
-54.6875 343.75 878
289.062 335.938 894
-445.312 -156.25 2541
7.8125 414.062 1001
7.8125 390.625 1025
15.625 281.25 1149
328.125 195.312 819
453.125 -15.625 3149
429.688 140.625 970
-62.5 335.938 898
218.75 187.5 807
-265.625 382.812 933
218.75 179.688 819
218.75 234.375 813
-296.875 390.625 1001
257.812 31.25 1001
-39.0625 445.312 809
0 203.125 1255
-117.188 335.938 975
140.625 289.062 896
-500 -164.062 1993
101.562 7.8125 1010
70.3125 15.625 1044
304.688 140.625 847
414.062 -15.625 3149
296.875 -15.625 3149
218.75 289.062 843
-289.062 421.875 970
101.562 -23.4375 1028
468.75 335.938 889
-273.438 351.562 875
125 148.438 1019
164.062 257.812 864
-109.375 437.5 796
250 203.125 805
164.062 195.312 841
476.562 289.062 928
304.688 70.3125 973
-460.938 -335.938 2598
-429.688 -195.312 2680
140.625 93.75 981
375 140.625 1013
-460.938 -375 2522
-476.562 -351.562 2618
429.688 148.438 970
156.25 312.5 882
289.062 343.75 891
117.188 156.25 1105
-296.875 335.938 1060
367.188 148.438 959
-281.25 382.812 933
210.938 187.5 807
289.062 70.3125 975
304.688 312.5 880
-421.875 -109.375 2835
-242.188 226.562 989
-281.25 437.5 956
85.9375 46.875 1010
-85.9375 312.5 928
7.8125 226.562 1028
0 195.312 1264
335.938 179.688 817
-312.5 312.5 1084
289.062 93.75 1193
367.188 -15.625 3149
343.75 -15.625 3178
312.5 70.3125 967
187.5 0 981
23.4375 453.125 962
-304.688 296.875 918
-109.375 296.875 956
7.8125 234.375 1214
0 179.688 1292
7.8125 367.188 1054
-54.6875 -15.625 3149
-273.438 437.5 956
-78.125 414.062 809
320.312 218.75 827
7.8125 437.5 981
15.625 273.438 1157
304.688 179.688 815
-132.812 445.312 790
-15.625 382.812 839
140.625 281.25 894
-234.375 445.312 918
-296.875 250 954
7.8125 421.875 995
-70.3125 351.562 860
7.8125 242.188 1202
0 250 1189
304.688 281.25 860
7.8125 429.688 984
312.5 -15.625 3178
281.25 54.6875 1041
0 281.25 1153
367.188 171.875 906
273.438 218.75 819
273.438 218.75 819
-226.562 437.5 918
179.688 335.938 869
226.562 54.6875 973
7.8125 398.438 1016
140.625 109.375 987
359.375 -179.688 2908
-484.375 85.9375 2317
109.375 171.875 1084
210.938 335.938 875
-132.812 265.625 987
-234.375 437.5 915
23.4375 296.875 948
382.812 156.25 984
210.938 187.5 807
0 210.938 1245
15.625 359.375 1060
-125 351.562 956
15.625 320.312 1105
46.875 85.9375 1202
265.625 171.875 821
359.375 -15.625 3149
-125 343.75 967
171.875 210.938 833
-281.25 359.375 964
421.875 -15.625 3149
-125 265.625 970
359.375 179.688 910
15.625 375 1044
-156.25 304.688 1004
-296.875 406.25 984
23.4375 375 873
15.625 343.75 1077
0 273.438 1161
-460.938 398.438 967
-62.5 398.438 819
164.062 234.375 856
312.5 78.125 970
375 179.688 903
0 218.75 1236
0 257.812 1181
-445.312 -445.312 2450
140.625 203.125 1044
-328.125 281.25 1119
164.062 242.188 858
0 187.5 1278
109.375 62.5 989
23.4375 328.125 913
-156.25 445.312 780
7.8125 226.562 1028
-85.9375 453.125 794
375 187.5 906
296.875 125 970
-164.062 234.375 1013
23.4375 250 995
15.625 312.5 1115
-7.8125 -15.625 3178
-101.562 375 837
242.188 -15.625 1010
7.8125 234.375 1214
476.562 351.562 871
-328.125 -406.25 2541
132.812 -23.4375 1004
54.6875 101.562 1054
-445.312 -414.062 2503
265.625 156.25 835
23.4375 445.312 813
289.062 93.75 1193
468.75 312.5 908
234.375 117.188 998
296.875 109.375 984
164.062 250 862
484.375 375 847
23.4375 242.188 1013
289.062 281.25 858
148.438 187.5 1067
320.312 164.062 829
187.5 78.125 970
85.9375 70.3125 1007
281.25 78.125 1016
-187.5 304.688 1001
187.5 62.5 970
54.6875 70.3125 1047
257.812 85.9375 1007
304.688 273.438 854
257.812 46.875 995
-46.875 382.812 837
203.125 54.6875 970
-70.3125 453.125 796
23.4375 320.312 928
-281.25 429.688 964
-78.125 234.375 1202
23.4375 304.688 928
226.562 187.5 807
140.625 265.625 975
0 226.562 1227
85.9375 31.25 1013
23.4375 289.062 954
320.312 171.875 821
117.188 179.688 1073
257.812 39.0625 998
-296.875 312.5 906
140.625 39.0625 978
0 265.625 1173
0 203.125 1255
-62.5 -15.625 3149
23.4375 312.5 928
296.875 117.188 978
-437.5 -328.125 2598
265.625 171.875 821
484.375 390.625 833
7.8125 445.312 978
23.4375 398.438 851
7.8125 218.75 1232
265.625 179.688 819
23.4375 281.25 964
421.875 132.812 984
398.438 109.375 1004
195.312 78.125 970
359.375 54.6875 1255
367.188 109.375 1016
-242.188 414.062 817
156.25 78.125 975
351.562 171.875 821
-62.5 414.062 813
132.812 46.875 978
117.188 171.875 1084
375 101.562 1013
242.188 273.438 837
15.625 164.062 1307
359.375 148.438 956
289.062 195.312 813
-70.3125 320.312 903
0 242.188 1202
-85.9375 421.875 803
312.5 242.188 839
15.625 351.562 1070
312.5 70.3125 967
304.688 93.75 984
-39.0625 351.562 867
210.938 179.688 819
289.062 335.938 894
-54.6875 453.125 798
109.375 15.625 998
-320.312 265.625 943
187.5 320.312 860
281.25 179.688 815
242.188 0 1001
109.375 70.3125 989
312.5 93.75 981
484.375 382.812 839
195.312 39.0625 970
-289.062 320.312 898
15.625 382.812 1038
164.062 359.375 880
-54.6875 398.438 819
203.125 296.875 847
195.312 328.125 864
-273.438 429.688 948
156.25 296.875 885
23.4375 367.188 878
7.8125 242.188 1202
-296.875 335.938 1060
-125 328.125 981
-70.3125 328.125 906
289.062 328.125 887
-117.188 289.062 967
-93.75 -15.625 3178
140.625 343.75 896
-117.188 -15.625 3178
250 15.625 998
23.4375 437.5 975
-281.25 382.812 933
257.812 156.25 835
23.4375 382.812 871
-78.125 437.5 805
23.4375 414.062 845
164.062 218.75 856
187.5 312.5 854
367.188 171.875 906
328.125 132.812 854
-140.625 312.5 998
171.875 132.812 995
140.625 359.375 880
171.875 179.688 831
-296.875 390.625 1001
312.5 148.438 845
281.25 62.5 1028
-39.0625 210.938 1241
265.625 343.75 889
265.625 62.5 1007
23.4375 335.938 913
273.438 179.688 815
-31.25 445.312 813
23.4375 390.625 858
7.8125 226.562 1028
7.8125 179.688 1292
-289.062 421.875 970
0 218.75 1236
359.375 179.688 910
296.875 304.688 873
-281.25 335.938 887
164.062 242.188 858
406.25 210.938 901
0 250 1189
23.4375 257.812 984
23.4375 406.25 845
23.4375 265.625 975
304.688 78.125 978
226.562 125 1001
-39.0625 -15.625 3149
-140.625 328.125 981
23.4375 421.875 992
31.25 -15.625 3149
234.375 0 992
23.4375 328.125 913
7.8125 406.25 1010
23.4375 351.562 1067
-109.375 367.188 943
132.812 320.312 918
93.75 156.25 1105
23.4375 343.75 1077
23.4375 375 873
281.25 70.3125 1016
156.25 187.5 837
23.4375 429.688 981
23.4375 453.125 962
23.4375 296.875 948
250 7.8125 1001
484.375 -15.625 3092
78.125 46.875 1016
375 54.6875 1250
-289.062 351.562 962
7.8125 218.75 1232
257.812 54.6875 998
7.8125 414.062 1001
23.4375 359.375 1057
304.688 132.812 847
-453.125 -351.562 2541
0 257.812 1181
351.562 179.688 817
-78.125 406.25 811
-101.562 -15.625 3178
-250 406.25 915
-15.625 453.125 835
273.438 281.25 854
23.4375 273.438 967
-101.562 367.188 946
156.25 195.312 841
0 234.375 1214
-46.875 -15.625 3149
-210.938 437.5 794
23.4375 -15.625 3149
23.4375 445.312 813
-125 281.25 975
164.062 234.375 856
328.125 140.625 854
0 210.938 1245
406.25 117.188 1001
-312.5 312.5 1084
367.188 101.562 1016
23.4375 312.5 928
15.625 367.188 1054
132.812 312.5 925
210.938 179.688 819
23.4375 398.438 851
-156.25 289.062 1013
-132.812 257.812 987
-46.875 375 845
156.25 289.062 878
-7.8125 343.75 869
-296.875 406.25 984
15.625 390.625 1022
15.625 156.25 1328
7.8125 195.312 1268
23.4375 304.688 928
328.125 109.375 970
15.625 398.438 1016
203.125 335.938 871
62.5 117.188 1157
23.4375 390.625 858
7.8125 382.812 1034
296.875 296.875 871
304.688 62.5 970
-148.438 250 1004
-210.938 304.688 995
-234.375 414.062 817
265.625 312.5 871
-23.4375 453.125 841
281.25 78.125 1016
-273.438 132.812 1338
0 273.438 1161
148.438 203.125 864
382.812 -15.625 3149
390.625 187.5 906
23.4375 437.5 975
15.625 328.125 1094
0 195.312 1264
23.4375 414.062 845
328.125 125 975
382.812 54.6875 1255
23.4375 281.25 964
-289.062 398.438 928
15.625 406.25 1010
312.5 125 970
304.688 78.125 978
195.312 85.9375 970
484.375 359.375 862
-437.5 -320.312 2618
140.625 351.562 889
359.375 187.5 913
257.812 187.5 809
-140.625 250 992
-296.875 398.438 992
406.25 187.5 903
-406.25 -15.625 2984
156.25 257.812 878
15.625 148.438 1123
-289.062 359.375 964
7.8125 187.5 1278
-39.0625 429.688 819
109.375 132.812 1022
15.625 -15.625 3149
406.25 101.562 998
460.938 -15.625 3120
7.8125 203.125 1250
296.875 85.9375 978
359.375 203.125 928
312.5 62.5 964
-500 179.688 1232
0 226.562 1227
0 242.188 1202
296.875 78.125 975
0 289.062 1141
23.4375 453.125 962
335.938 156.25 831
-132.812 343.75 967
-484.375 -351.562 2618
23.4375 359.375 1057
0 265.625 1173
320.312 117.188 981
23.4375 406.25 845
382.812 218.75 915
179.688 265.625 829
23.4375 375 873
460.938 328.125 894
-484.375 281.25 1101
343.75 148.438 970
7.8125 234.375 1214
23.4375 382.812 871
7.8125 210.938 1241
328.125 93.75 970
-226.562 445.312 920
23.4375 289.062 954
23.4375 343.75 1077
23.4375 250 995
-31.25 382.812 837
421.875 148.438 984
351.562 203.125 823
23.4375 429.688 981
398.438 257.812 970
-70.3125 -15.625 3178
320.312 132.812 849
320.312 148.438 843
23.4375 328.125 913
453.125 218.75 1010
421.875 140.625 984
70.3125 125 1145
15.625 289.062 1141
328.125 101.562 970
23.4375 320.312 928
148.438 179.688 1070
226.562 93.75 981
-328.125 289.062 1112
140.625 250 989
250 15.625 998
23.4375 351.562 1067
273.438 62.5 1022
-265.625 242.188 975
468.75 390.625 835
132.812 328.125 913
328.125 62.5 967
304.688 -15.625 3149
7.8125 156.25 1328
257.812 171.875 821
242.188 304.688 860
0 250 1189
23.4375 437.5 975
-31.25 -15.625 3149
93.75 109.375 1016
492.188 -15.625 3092
23.4375 398.438 851
140.625 156.25 1025
23.4375 390.625 858
304.688 101.562 981
-85.9375 -15.625 3149
289.062 70.3125 975
-62.5 328.125 898
210.938 187.5 807
-328.125 273.438 1130
312.5 156.25 837
289.062 62.5 978
320.312 210.938 823
-140.625 453.125 796
164.062 226.562 856
-164.062 304.688 1007
0 257.812 1181
15.625 414.062 1001
23.4375 445.312 813
-312.5 257.812 943
70.3125 93.75 1038
289.062 101.562 1181
328.125 93.75 970
351.562 101.562 1013
23.4375 335.938 913
156.25 203.125 864
15.625 437.5 978
320.312 203.125 819
468.75 343.75 878
-39.0625 375 843
257.812 46.875 995
-148.438 312.5 998
210.938 343.75 880
187.5 15.625 975
0 296.875 1134
-46.875 437.5 811
-39.0625 453.125 805
328.125 171.875 821
70.3125 70.3125 1028
-234.375 429.688 915
148.438 171.875 1080
437.5 140.625 954
15.625 429.688 981
-460.938 -15.625 3178
-132.812 -15.625 3178
304.688 195.312 815
23.4375 453.125 962
7.8125 210.938 1241
296.875 125 970
0 281.25 1153
23.4375 414.062 845
-289.062 429.688 964
242.188 234.375 817
-429.688 -218.75 2701
39.0625 54.6875 1245
296.875 250 839
179.688 351.562 878
109.375 109.375 998
156.25 281.25 885
-117.188 359.375 951
-93.75 304.688 935
328.125 85.9375 973
257.812 54.6875 998
273.438 179.688 815
210.938 156.25 835
140.625 242.188 1001
273.438 226.562 823
7.8125 226.562 1028
-125 335.938 975
-109.375 289.062 956
156.25 85.9375 975
296.875 132.812 849
140.625 234.375 1010
23.4375 421.875 992
-15.625 445.312 829
-273.438 335.938 882
-85.9375 437.5 805
289.062 328.125 887
132.812 -54.6875 1019
7.8125 148.438 1338
0 273.438 1161
234.375 328.125 873
-289.062 382.812 933
382.812 179.688 903
367.188 179.688 908
7.8125 195.312 1268
-54.6875 382.812 839
132.812 335.938 903
320.312 250 845
320.312 70.3125 967
210.938 31.25 975
23.4375 367.188 878
171.875 0 981
0 289.062 1141
250 273.438 843
-203.125 304.688 998
-281.25 437.5 956
476.562 312.5 908
-70.3125 406.25 811
390.625 54.6875 1250
7.8125 218.75 1232
15.625 359.375 1060
328.125 78.125 970
281.25 62.5 1028
109.375 78.125 989
156.25 234.375 858
31.25 437.5 813
312.5 234.375 837
335.938 171.875 821
-406.25 23.4375 3064
218.75 242.188 819
46.875 93.75 1193
265.625 62.5 1007
156.25 226.562 858
-85.9375 429.688 805
234.375 101.562 984
0 265.625 1173
226.562 226.562 813
304.688 85.9375 978
0 304.688 1119
398.438 195.312 903
7.8125 203.125 1250
-132.812 453.125 796
39.0625 70.3125 1223
335.938 140.625 854
-421.875 -148.438 2812
-62.5 445.312 802
304.688 140.625 847
156.25 265.625 880
-70.3125 398.438 821
-39.0625 -296.875 2744
-140.625 250 992
164.062 218.75 856
289.062 171.875 821
289.062 101.562 1181
-7.8125 171.875 1302
492.188 375 829
281.25 85.9375 1202
-46.875 367.188 854
-39.0625 359.375 860
328.125 93.75 970
312.5 171.875 821
-460.938 -367.188 2541
140.625 218.75 1028
304.688 148.438 845
-179.688 281.25 1010
460.938 296.875 923
-7.8125 406.25 1007
-296.875 257.812 954
93.75 -15.625 1034
414.062 125 992
-117.188 437.5 792
296.875 140.625 849
-171.875 226.562 1013
-242.188 226.562 989
289.062 85.9375 978
250 156.25 837
-62.5 406.25 813
265.625 218.75 815
-453.125 -367.188 2541
179.688 289.062 843
156.25 210.938 862
320.312 195.312 817
-23.4375 218.75 1236
195.312 312.5 856
85.9375 7.8125 1022
320.312 187.5 817
171.875 101.562 975
210.938 218.75 805
0 281.25 1153
-46.875 210.938 1241
-109.375 375 837
132.812 296.875 906
-250 406.25 920
140.625 -23.4375 1001
328.125 85.9375 973
-265.625 234.375 984
-445.312 -437.5 2450
296.875 117.188 981
328.125 109.375 973
-54.6875 437.5 813
7.8125 242.188 1016
304.688 218.75 829
0 289.062 1145
70.3125 62.5 1022
250 23.4375 1004
406.25 54.6875 1255
328.125 101.562 973
390.625 242.188 906
140.625 226.562 871
156.25 273.438 860
-140.625 320.312 992
15.625 421.875 998
23.4375 460.938 807
257.812 171.875 827
234.375 335.938 880
-304.688 328.125 903
-273.438 375 860
367.188 156.25 992
0 296.875 1134
179.688 -54.6875 987
148.438 31.25 978
93.75 164.062 1097
156.25 195.312 837
132.812 101.562 984
-296.875 390.625 940
-242.188 406.25 815
367.188 171.875 908
0 312.5 1115
250 85.9375 1004
343.75 179.688 819
7.8125 210.938 1047
-226.562 429.688 792
242.188 101.562 1001
101.562 15.625 1004
148.438 179.688 839
218.75 46.875 978
-289.062 375 978
-46.875 328.125 885
328.125 70.3125 973
140.625 359.375 885
156.25 320.312 869
0 320.312 1108
148.438 -15.625 992
250 171.875 827
-468.75 -335.938 2639
218.75 0 992
7.8125 250 1193
-289.062 421.875 975
-281.25 250 970
7.8125 203.125 1047
351.562 62.5 970
78.125 46.875 1013
-109.375 359.375 954
296.875 289.062 869
367.188 179.688 908
-78.125 359.375 864
304.688 85.9375 975
328.125 78.125 975
234.375 234.375 821
93.75 148.438 1044
7.8125 195.312 1063
460.938 304.688 923
328.125 148.438 839
0 335.938 1087
-62.5 343.75 882
-296.875 320.312 903
320.312 109.375 973
218.75 39.0625 978
148.438 195.312 837
70.3125 23.4375 1031
281.25 343.75 894
15.625 445.312 970
414.062 117.188 992
187.5 320.312 862
-375 23.4375 3120
242.188 70.3125 992
-328.125 289.062 938
-62.5 390.625 833
351.562 187.5 910
0 234.375 1025
257.812 93.75 1022
-109.375 289.062 951
-54.6875 390.625 833
421.875 132.812 978
7.8125 437.5 978
-132.812 445.312 802
-445.312 -421.875 2485
-312.5 289.062 928
0 304.688 1126
492.188 54.6875 1245
359.375 101.562 1016
-78.125 445.312 807
296.875 125 978
484.375 320.312 862
242.188 93.75 998
460.938 335.938 891
-242.188 421.875 915
-296.875 367.188 975
343.75 93.75 995
0 343.75 1080
289.062 312.5 880
273.438 156.25 839
-281.25 382.812 933
250 93.75 1007
312.5 171.875 827
93.75 7.8125 1013
429.688 -15.625 3149
-132.812 273.438 984
109.375 156.25 1108
23.4375 132.812 1145
117.188 -15.625 1013
250 117.188 1013
7.8125 -15.625 3149
0 328.125 1097
-156.25 234.375 1010
164.062 7.8125 981
-289.062 351.562 885
296.875 93.75 984
437.5 132.812 956
46.875 70.3125 1063
-31.25 445.312 823
296.875 195.312 819
296.875 7.8125 3178
-187.5 265.625 1013
-117.188 367.188 948
281.25 195.312 815
132.812 46.875 978
312.5 195.312 819
343.75 101.562 1013
7.8125 265.625 1173
328.125 70.3125 973
484.375 398.438 831
-289.062 367.188 975
234.375 -7.8125 1010
101.562 171.875 1087
265.625 179.688 817
210.938 179.688 821
148.438 171.875 841
304.688 109.375 984
164.062 156.25 841
7.8125 257.812 1185
273.438 62.5 1028
-140.625 445.312 796
492.188 62.5 1227
265.625 265.625 845
-289.062 429.688 967
-257.812 398.438 923
226.562 109.375 992
-148.438 242.188 1001
203.125 187.5 813
289.062 109.375 984
460.938 289.062 938
140.625 -15.625 995
296.875 148.438 847
-46.875 375 845
-78.125 406.25 815
15.625 257.812 1185
7.8125 164.062 1108
-296.875 414.062 981
39.0625 78.125 1070
101.562 62.5 992
-171.875 218.75 1016
273.438 226.562 827
0 351.562 1073
281.25 85.9375 984
-23.4375 -15.625 3149
-54.6875 351.562 869
-140.625 265.625 992
-265.625 328.125 894
296.875 70.3125 975
140.625 210.938 1041
-250 320.312 978
132.812 289.062 901
179.688 265.625 829
-320.312 304.688 1094
-148.438 320.312 992
-234.375 429.688 920
-132.812 453.125 798
195.312 117.188 989
117.188 164.062 1097
320.312 125 975
171.875 23.4375 975
320.312 195.312 821
148.438 242.188 871
7.8125 187.5 1073
375 218.75 928
359.375 62.5 1245
-93.75 429.688 809
257.812 62.5 1004
210.938 234.375 815
289.062 101.562 984
343.75 187.5 817
7.8125 179.688 1084
-93.75 445.312 803
7.8125 195.312 1063
242.188 78.125 992
117.188 39.0625 989
406.25 195.312 906
-93.75 453.125 798
46.875 101.562 1181
218.75 312.5 862
257.812 171.875 827
281.25 312.5 880
-312.5 320.312 1077
0 375 1044
15.625 453.125 819
54.6875 109.375 1047
-226.562 414.062 803
203.125 39.0625 975
320.312 156.25 839
195.312 46.875 973
117.188 70.3125 987
15.625 265.625 992
476.562 367.188 860
-101.562 429.688 803
281.25 335.938 894
7.8125 281.25 1153
93.75 -23.4375 1031
156.25 250 864
125 -23.4375 1007
-296.875 343.75 967
203.125 335.938 878
273.438 54.6875 1028
7.8125 250 1193
7.8125 273.438 1165
125 31.25 987
382.812 62.5 1245
148.438 187.5 837
289.062 70.3125 981
0 367.188 1050
250 46.875 998
335.938 164.062 837
289.062 109.375 984
195.312 62.5 973
-46.875 234.375 1210
132.812 343.75 898
-203.125 218.75 1010
0 312.5 1115
156.25 304.688 867
-500 179.688 1232
296.875 140.625 847
-101.562 445.312 802
-109.375 304.688 954
15.625 406.25 1013
148.438 156.25 1025
335.938 101.562 975
62.5 78.125 1034
421.875 54.6875 1255
-156.25 312.5 1001
-265.625 390.625 928
156.25 257.812 867
-15.625 328.125 1094
281.25 328.125 887
-289.062 382.812 933
78.125 70.3125 1013
-78.125 320.312 910
468.75 335.938 891
-296.875 406.25 987
-304.688 265.625 948
242.188 101.562 1001
312.5 250 847
-46.875 429.688 823
0 343.75 1080
125 179.688 1080
-304.688 328.125 903
0 359.375 1060
0 398.438 1019
234.375 187.5 813
-62.5 398.438 825
148.438 296.875 891
343.75 179.688 819
265.625 62.5 1019
-70.3125 335.938 898
312.5 226.562 833
-289.062 242.188 973
156.25 203.125 849
109.375 125 1007
250 320.312 873
-132.812 335.938 975
0 320.312 1108
125 125 1001
-62.5 390.625 833
234.375 109.375 998
0 406.25 1013
195.312 31.25 975
195.312 132.812 998
-125 351.562 962
148.438 312.5 889
140.625 195.312 1057
156.25 242.188 862
296.875 70.3125 975
-281.25 429.688 962
54.6875 54.6875 1044
-54.6875 445.312 809
-234.375 421.875 800
-117.188 445.312 803
-320.312 281.25 938
-132.812 343.75 970
140.625 203.125 1047
-242.188 242.188 992
0 351.562 1073
250 78.125 1001
-273.438 406.25 923
7.8125 296.875 1134
242.188 328.125 878
414.062 171.875 908
210.938 242.188 821
-250 421.875 913
-179.688 242.188 1016
46.875 85.9375 1047
-265.625 421.875 915
132.812 93.75 981
359.375 171.875 910
-54.6875 382.812 837
7.8125 257.812 1185
-296.875 414.062 981
15.625 257.812 1185
-15.625 281.25 1157
132.812 265.625 978
-289.062 414.062 928
335.938 203.125 823
390.625 109.375 1007
234.375 304.688 862
-218.75 437.5 792
234.375 273.438 841
-304.688 398.438 998
-78.125 453.125 802
492.188 289.062 864
125 85.9375 984
140.625 218.75 1028
132.812 109.375 987
140.625 117.188 992
-164.062 304.688 1007
7.8125 289.062 1145
15.625 296.875 967
7.8125 304.688 1126
0 414.062 1007
460.938 312.5 915
203.125 54.6875 973
351.562 179.688 910
-289.062 429.688 967
-70.3125 398.438 825
7.8125 179.688 1084
179.688 320.312 862
320.312 70.3125 973
335.938 187.5 817
281.25 93.75 1197
187.5 328.125 867
-78.125 328.125 910
148.438 210.938 847
-320.312 312.5 1087
320.312 171.875 827
203.125 31.25 975
-281.25 390.625 930
289.062 78.125 984
250 171.875 827
7.8125 265.625 1173
-46.875 273.438 1161
187.5 351.562 885
15.625 390.625 871
85.9375 31.25 1010
-156.25 320.312 992
250 31.25 1001
351.562 31.25 3178
390.625 257.812 970
-125 359.375 954
156.25 218.75 856
-148.438 -15.625 3178
343.75 23.4375 3208
492.188 398.438 807
257.812 218.75 815
265.625 226.562 823
398.438 218.75 906
39.0625 78.125 1070
476.562 375 851
367.188 179.688 908
-109.375 437.5 807
304.688 78.125 970
-210.938 226.562 1007
289.062 320.312 885
-101.562 304.688 943
15.625 429.688 987
-164.062 -15.625 3208
15.625 437.5 978
-273.438 421.875 925
-62.5 -15.625 3149
476.562 281.25 938
-7.8125 421.875 995
7.8125 281.25 1153
226.562 0 995
218.75 226.562 813
-85.9375 414.062 811
328.125 62.5 970
210.938 179.688 821
0 421.875 998
-23.4375 414.062 1007
250 23.4375 1004
7.8125 312.5 1112
304.688 257.812 851
0 429.688 987
-210.938 218.75 1007
-117.188 296.875 962
-85.9375 312.5 923
304.688 85.9375 975
23.4375 296.875 967
15.625 289.062 967
234.375 -15.625 1016
-296.875 359.375 970
328.125 179.688 821
-85.9375 367.188 851
117.188 148.438 1041
273.438 335.938 894
15.625 304.688 943
171.875 15.625 978
-78.125 -15.625 3178
179.688 265.625 829
476.562 398.438 833
0 234.375 1025
0 437.5 978
343.75 171.875 825
-453.125 15.625 3092
39.0625 85.9375 1210
0 375 1044
-218.75 304.688 998
-62.5 453.125 805
-125 273.438 970
-281.25 281.25 962
15.625 398.438 1016
296.875 132.812 973
70.3125 46.875 1028
187.5 304.688 851
-281.25 367.188 970
-125 -15.625 3178
132.812 351.562 889
-148.438 257.812 1001
23.4375 257.812 989
304.688 93.75 984
328.125 85.9375 973
15.625 445.312 970
382.812 210.938 920
0 406.25 1013
15.625 335.938 1087
15.625 281.25 970
0 242.188 1206
-109.375 375 837
46.875 101.562 1181
156.25 242.188 862
15.625 312.5 938
-101.562 312.5 943
7.8125 320.312 1108
-109.375 -15.625 3178
-62.5 343.75 882
281.25 335.938 894
492.188 328.125 851
406.25 148.438 998
-265.625 328.125 894
-23.4375 406.25 1013
218.75 54.6875 978
-304.688 250 956
15.625 375 878
-31.25 453.125 847
-54.6875 375 845
328.125 156.25 839
-289.062 359.375 970
-85.9375 320.312 923
398.438 117.188 1004
125 328.125 915
492.188 312.5 864
359.375 171.875 910
179.688 156.25 839
-328.125 273.438 940
-250 226.562 998
218.75 85.9375 981
281.25 93.75 1197
421.875 140.625 978
-296.875 421.875 973
-312.5 265.625 948
-328.125 296.875 1105
-320.312 273.438 940
15.625 343.75 1080
15.625 367.188 1054
7.8125 382.812 1038
-289.062 382.812 933
15.625 265.625 992
15.625 453.125 819
203.125 343.75 880
-85.9375 406.25 815
7.8125 343.75 1080
0 226.562 1028
328.125 78.125 975
156.25 234.375 860
234.375 171.875 825
7.8125 335.938 1090
7.8125 328.125 1097
15.625 437.5 978
39.0625 62.5 1060
15.625 320.312 938
15.625 351.562 1073
-296.875 343.75 967
15.625 445.312 970
289.062 109.375 984
15.625 398.438 1016
7.8125 351.562 1073
203.125 187.5 813
148.438 359.375 885
-54.6875 390.625 833
351.562 62.5 970
398.438 289.062 940
132.812 359.375 885
-304.688 390.625 1004
273.438 78.125 1016
101.562 46.875 992
15.625 382.812 871
15.625 328.125 1097
476.562 359.375 867
226.562 31.25 984
-7.8125 218.75 1236
390.625 62.5 1245
15.625 421.875 998
312.5 210.938 823
15.625 429.688 987
-85.9375 437.5 809
140.625 187.5 1067
101.562 132.812 1028
15.625 390.625 871
218.75 273.438 837
265.625 179.688 817
31.25 390.625 860
242.188 7.8125 1004
351.562 132.812 964
-476.562 125 1322
-7.8125 195.312 1268
156.25 226.562 858
93.75 15.625 1010
-15.625 -15.625 3178
15.625 296.875 967
-70.3125 335.938 898
15.625 304.688 943
-164.062 226.562 1016
296.875 78.125 981
148.438 289.062 891
109.375 140.625 1028
296.875 273.438 858
148.438 203.125 849
289.062 117.188 981
320.312 171.875 827
-304.688 335.938 1063
93.75 171.875 1084
460.938 335.938 891
375 62.5 1241
-7.8125 226.562 1232
-62.5 398.438 825
250 70.3125 1001
7.8125 304.688 1126
15.625 375 878
210.938 62.5 975
-250 414.062 915
359.375 62.5 1245
-132.812 351.562 962
156.25 210.938 847
195.312 109.375 981
-46.875 203.125 1250
210.938 281.25 841
148.438 250 875
265.625 281.25 854
15.625 414.062 1004
15.625 359.375 898
15.625 437.5 978
15.625 312.5 938
296.875 312.5 880
132.812 85.9375 981
15.625 351.562 1073
132.812 257.812 987
-39.0625 445.312 813
-117.188 257.812 978
0 226.562 1028
195.312 39.0625 973
-78.125 398.438 823
281.25 312.5 880
250 171.875 827
320.312 125 975
382.812 242.188 908
-46.875 445.312 813
148.438 85.9375 978
-289.062 437.5 959
-7.8125 187.5 1288
7.8125 359.375 1063
304.688 242.188 839
210.938 31.25 978
7.8125 179.688 1084
281.25 328.125 887
15.625 367.188 1054
320.312 140.625 845
15.625 343.75 1080
-7.8125 242.188 1206
-7.8125 250 1193
7.8125 171.875 1307
-78.125 320.312 910
-304.688 304.688 915
-273.438 382.812 935
-140.625 257.812 989
0 234.375 1025
-335.938 281.25 1119
-273.438 234.375 984
468.75 351.562 873
304.688 85.9375 975
0 242.188 1206
-234.375 437.5 923
335.938 179.688 819
15.625 281.25 970
304.688 70.3125 970
-296.875 375 978
15.625 453.125 819
15.625 406.25 1013
195.312 296.875 849
-93.75 421.875 807
453.125 304.688 923
-132.812 429.688 794
-7.8125 203.125 1264
320.312 164.062 831
15.625 257.812 1185
132.812 242.188 1004
-242.188 414.062 817
234.375 0 1004
195.312 101.562 978
-281.25 343.75 885
-484.375 273.438 1112
304.688 78.125 970
289.062 125 978
273.438 78.125 1016
242.188 171.875 827
39.0625 85.9375 1210
15.625 390.625 871
54.6875 117.188 1161
164.062 148.438 1010
250 39.0625 1001
-195.312 304.688 1007
-218.75 218.75 1004
382.812 54.6875 1259
0 218.75 1038
234.375 109.375 998
-132.812 265.625 984
-7.8125 257.812 1185
460.938 343.75 882
234.375 54.6875 984
-195.312 218.75 1013
-39.0625 226.562 1223
125 187.5 1070
117.188 343.75 898
15.625 429.688 987
132.812 281.25 901
7.8125 375 1047
-117.188 367.188 948
93.75 46.875 1001
132.812 250 995
85.9375 148.438 1119
-7.8125 234.375 1219
-109.375 453.125 796
-304.688 398.438 998
296.875 78.125 981
468.75 312.5 910
85.9375 132.812 1057
210.938 195.312 809
7.8125 296.875 1134
0 226.562 1028
117.188 109.375 992
320.312 117.188 973
-328.125 265.625 1138
476.562 351.562 873
-500 171.875 1245
7.8125 164.062 1108
15.625 265.625 992
15.625 335.938 1087
187.5 312.5 858
7.8125 406.25 1013
15.625 382.812 871
15.625 289.062 967
140.625 39.0625 978
-7.8125 210.938 1250
7.8125 367.188 1054
312.5 187.5 819
15.625 328.125 1097
476.562 390.625 839
-7.8125 195.312 1268
281.25 101.562 1181
-70.3125 328.125 898
226.562 328.125 875
250 46.875 998
7.8125 390.625 1025
-93.75 437.5 809
117.188 132.812 1010
234.375 218.75 811
132.812 46.875 978
62.5 125 1153
148.438 367.188 875
-187.5 234.375 1013
179.688 148.438 839
-187.5 453.125 792
242.188 335.938 882
281.25 93.75 1197
-328.125 296.875 1105
-46.875 375 845
289.062 296.875 871
15.625 273.438 1161
62.5 62.5 1034
375 179.688 908
203.125 179.688 821
257.812 218.75 815
226.562 187.5 813
289.062 85.9375 984
-234.375 414.062 817
367.188 179.688 908
15.625 414.062 1004
93.75 62.5 1001
-273.438 437.5 933
-273.438 242.188 978
289.062 132.812 862
289.062 117.188 981
242.188 93.75 998
210.938 132.812 1004
-62.5 382.812 839
7.8125 382.812 1038
-296.875 414.062 981
15.625 351.562 1073
15.625 250 1004
335.938 164.062 837
312.5 164.062 833
-109.375 296.875 951
-31.25 218.75 1236
-117.188 359.375 956
15.625 421.875 998
125 78.125 981
312.5 148.438 847
15.625 398.438 1016
-312.5 437.5 954
429.688 148.438 962
15.625 437.5 978
140.625 257.812 878
148.438 265.625 885
148.438 273.438 887
156.25 265.625 867
15.625 375 878
382.812 101.562 1010
0 398.438 1019
15.625 320.312 938
351.562 109.375 1016
281.25 320.312 882
-85.9375 421.875 811
125 343.75 898
117.188 -23.4375 1013
0 218.75 1038
140.625 125 992
226.562 117.188 998
421.875 156.25 973
148.438 281.25 894
289.062 312.5 880
7.8125 343.75 1080
203.125 54.6875 973
-312.5 296.875 923
187.5 -54.6875 984
15.625 304.688 943
367.188 226.562 920
367.188 101.562 1013
-7.8125 226.562 1232
-7.8125 187.5 1288
320.312 101.562 973
140.625 367.188 875
15.625 445.312 970
156.25 226.562 858
203.125 -15.625 992
-296.875 421.875 973
-140.625 445.312 796
0 414.062 1007
148.438 78.125 978
-93.75 429.688 809
-46.875 437.5 815
15.625 359.375 898
-304.688 390.625 1004
-304.688 335.938 1063
304.688 101.562 984
312.5 203.125 821
-218.75 390.625 823
-148.438 328.125 984
-93.75 414.062 811
406.25 125 998
93.75 -31.25 1025
-31.25 453.125 847
140.625 335.938 906
0 210.938 1047
273.438 257.812 845
15.625 312.5 938
484.375 31.25 3092
414.062 132.812 989
375 109.375 1013
296.875 148.438 847
304.688 171.875 827
-156.25 250 1013
-70.3125 390.625 833
-23.4375 453.125 837
125 304.688 938
-46.875 359.375 864
15.625 343.75 1080
148.438 148.438 1013
-304.688 406.25 987
7.8125 414.062 1004
-289.062 250 967
312.5 117.188 981
-320.312 257.812 954
-125 289.062 967
320.312 93.75 975
70.3125 46.875 1028
382.812 250 959
-242.188 429.688 915
-289.062 382.812 933
304.688 234.375 837
242.188 273.438 843
-257.812 406.25 920
156.25 -31.25 989
70.3125 85.9375 1025
359.375 179.688 908
7.8125 289.062 1145
101.562 140.625 1038
210.938 39.0625 978
-335.938 281.25 1119
289.062 140.625 862
-281.25 335.938 887
-289.062 429.688 967
-7.8125 242.188 1206
242.188 15.625 1001
-7.8125 210.938 1250
-257.812 320.312 975
250 54.6875 998
-15.625 453.125 835
-148.438 453.125 802
-39.0625 367.188 851
460.938 351.562 878
15.625 296.875 967
-117.188 343.75 973
7.8125 437.5 978
281.25 101.562 1181
164.062 -7.8125 987
320.312 85.9375 973
179.688 320.312 862
304.688 250 847
-117.188 437.5 796
210.938 46.875 975
132.812 156.25 1019
273.438 85.9375 1022
289.062 125 978
-7.8125 218.75 1236
93.75 101.562 1010
-7.8125 234.375 1219
148.438 -31.25 995
-78.125 406.25 815
7.8125 320.312 1108
7.8125 351.562 1073
-148.438 250 1001
-54.6875 367.188 856
-7.8125 203.125 1264
15.625 367.188 1054
78.125 15.625 1022
-320.312 312.5 1087
93.75 15.625 1010
-101.562 304.688 943
132.812 70.3125 981
-140.625 273.438 995
62.5 70.3125 1034
140.625 171.875 1084
218.75 171.875 827
250 203.125 811
468.75 359.375 869
-140.625 257.812 989
-132.812 281.25 987
164.062 23.4375 978
7.8125 398.438 1016
125 351.562 891
85.9375 78.125 1007
312.5 195.312 819
414.062 125 989
164.062 -31.25 989
0 218.75 1038
140.625 179.688 1077
320.312 93.75 975
320.312 101.562 973
304.688 125 975
453.125 335.938 894
226.562 -7.8125 1001
148.438 257.812 878
-70.3125 406.25 819
7.8125 156.25 1123
320.312 125 975
0 -15.625 3178
218.75 109.375 987
0 226.562 1028
-7.8125 195.312 1268
476.562 382.812 845
-125 359.375 954
398.438 62.5 1241
-304.688 257.812 956
132.812 359.375 885
218.75 187.5 813
132.812 226.562 1022
265.625 226.562 823
0 429.688 987
125 93.75 987
-289.062 437.5 959
-7.8125 281.25 1161
257.812 187.5 813
-7.8125 226.562 1232
-117.188 289.062 962
-320.312 289.062 938
-140.625 453.125 800
-7.8125 187.5 1288
421.875 148.438 975
195.312 187.5 813
0 171.875 1307
-7.8125 289.062 1145
296.875 85.9375 984
-23.4375 445.312 831
320.312 109.375 973
281.25 281.25 860
0 210.938 1047
320.312 85.9375 973
203.125 140.625 1010
289.062 140.625 862
359.375 171.875 910
273.438 70.3125 1025
-78.125 351.562 867
-70.3125 343.75 901
0 203.125 1259
382.812 62.5 1245
320.312 78.125 973
210.938 312.5 860
289.062 132.812 862
0 195.312 1268
226.562 281.25 845
-85.9375 406.25 815
226.562 39.0625 981
257.812 179.688 819
-7.8125 273.438 1169
390.625 195.312 908
296.875 140.625 847
203.125 343.75 880
492.188 62.5 1227
218.75 125 998
328.125 117.188 973
148.438 234.375 871
250 195.312 811
242.188 62.5 989
85.9375 156.25 1108
328.125 203.125 823
156.25 156.25 843
125 296.875 948
-7.8125 265.625 1177
-7.8125 242.188 1206
-171.875 304.688 1007
132.812 218.75 1031
0 203.125 1259
101.562 46.875 992
93.75 23.4375 1004
-140.625 328.125 984
148.438 203.125 849
312.5 125 975
0 187.5 1283
164.062 7.8125 981
109.375 117.188 1004
468.75 343.75 880
195.312 187.5 813
-85.9375 445.312 805
273.438 343.75 894
406.25 117.188 998
281.25 320.312 882
-250 226.562 998
-296.875 351.562 967
242.188 23.4375 995
226.562 195.312 807
148.438 226.562 871
39.0625 93.75 1197
257.812 320.312 875
-7.8125 257.812 1185
7.8125 148.438 1130
250 218.75 813
312.5 132.812 854
273.438 85.9375 1022
-312.5 304.688 915
343.75 171.875 825
-7.8125 234.375 1219
-54.6875 437.5 813
-7.8125 218.75 1236
-148.438 304.688 1007
304.688 132.812 854
273.438 78.125 1016
187.5 132.812 998
0 164.062 1322
320.312 93.75 975
-179.688 328.125 978
-406.25 -31.25 2984
359.375 179.688 908
132.812 210.938 1041
-296.875 367.188 975
-7.8125 179.688 1297
-54.6875 375 845
468.75 367.188 860
101.562 54.6875 992
-62.5 343.75 882
-93.75 312.5 930
-156.25 242.188 1013
31.25 62.5 1241
156.25 218.75 856
109.375 164.062 1097
-218.75 226.562 1001
140.625 312.5 925
296.875 85.9375 984
-117.188 375 835
-101.562 453.125 796
171.875 320.312 862
-164.062 242.188 1019
101.562 179.688 1080
-46.875 242.188 1202
70.3125 31.25 1028
242.188 171.875 827
242.188 85.9375 995
257.812 23.4375 1013
-335.938 273.438 1134
-101.562 429.688 803
281.25 109.375 1169
-7.8125 304.688 1126
125 335.938 906
132.812 203.125 1047
-304.688 406.25 987
-39.0625 445.312 813
109.375 195.312 1060
187.5 39.0625 973
-156.25 320.312 992
414.062 140.625 989
-7.8125 273.438 1169
320.312 70.3125 973
382.812 109.375 1010
0 203.125 1259
312.5 101.562 978
140.625 195.312 1057
-7.8125 250 1193
125 281.25 962
312.5 156.25 841
-320.312 257.812 954
125 289.062 956
273.438 140.625 851
-23.4375 210.938 1250
7.8125 406.25 1013
320.312 148.438 845
-296.875 429.688 964
312.5 85.9375 973
-226.562 304.688 995
-7.8125 289.062 1145
-7.8125 312.5 1115
-296.875 382.812 1010
7.8125 453.125 964
335.938 179.688 819
0 210.938 1047
-62.5 390.625 833
-273.438 328.125 891
-7.8125 328.125 1094
-7.8125 335.938 1087
281.25 328.125 887
125 46.875 981
320.312 156.25 839
320.312 117.188 973
148.438 257.812 878
132.812 62.5 978
7.8125 367.188 1054
93.75 -15.625 1028
164.062 15.625 978
203.125 234.375 815
-250 421.875 913
226.562 273.438 839
62.5 23.4375 1041
226.562 -7.8125 1001
-171.875 242.188 1019
-70.3125 445.312 807
-312.5 328.125 1070
460.938 320.312 906
-93.75 406.25 817
-226.562 421.875 800
0 156.25 1333
125 101.562 987
-7.8125 296.875 1134
-320.312 312.5 1087
140.625 187.5 1067
390.625 117.188 1007
-7.8125 281.25 1161
140.625 304.688 901
148.438 218.75 856
234.375 7.8125 995
328.125 156.25 839
-304.688 312.5 913
226.562 0 995
-7.8125 320.312 1108
-54.6875 453.125 805
-257.812 406.25 920
148.438 242.188 871
31.25 70.3125 1227
289.062 281.25 862
-101.562 421.875 803
-54.6875 242.188 1202
-109.375 367.188 948
304.688 218.75 829
289.062 70.3125 981
15.625 242.188 1016
-7.8125 367.188 1050
7.8125 421.875 998
109.375 54.6875 989
148.438 250 875
156.25 250 864
468.75 390.625 839
-7.8125 210.938 1250
7.8125 437.5 978
0 195.312 1268
367.188 62.5 1241
289.062 148.438 847
-296.875 421.875 973
210.938 226.562 811
187.5 54.6875 973
-421.875 -117.188 2859
-125 437.5 796
250 62.5 998
265.625 257.812 839
-62.5 351.562 869
210.938 132.812 1004
132.812 187.5 1070
453.125 296.875 930
382.812 242.188 908
257.812 179.688 819
101.562 148.438 1038
484.375 62.5 1241
-7.8125 343.75 1077
101.562 164.062 1097
-328.125 265.625 1138
-7.8125 351.562 1067
101.562 109.375 1004
-54.6875 429.688 819
23.4375 437.5 817
218.75 132.812 1007
-54.6875 351.562 869
296.875 117.188 981
320.312 85.9375 973
148.438 210.938 847
0 187.5 1283
7.8125 273.438 1165
7.8125 265.625 1173
-7.8125 359.375 1060
-289.062 390.625 935
171.875 54.6875 978
289.062 31.25 3178
-78.125 421.875 827
140.625 23.4375 984
281.25 101.562 984
-265.625 398.438 843
203.125 179.688 827
0 148.438 1349
203.125 39.0625 978
195.312 148.438 854
-125 281.25 962
320.312 70.3125 975
-296.875 328.125 898
-148.438 445.312 798
312.5 78.125 973
31.25 78.125 1067
-31.25 179.688 1307
273.438 335.938 896
414.062 164.062 918
-156.25 242.188 1007
242.188 85.9375 1001
-429.688 -164.062 2789
359.375 226.562 935
-62.5 382.812 843
-218.75 218.75 1013
234.375 70.3125 992
281.25 312.5 882
164.062 218.75 813
132.812 195.312 1063
-62.5 375 849
85.9375 7.8125 1019
234.375 101.562 1001
187.5 31.25 978
187.5 46.875 978
148.438 242.188 864
-70.3125 390.625 835
-7.8125 296.875 1141
125 265.625 984
-85.9375 351.562 864
-7.8125 335.938 1094
-335.938 289.062 943
-7.8125 312.5 1123
-148.438 335.938 981
281.25 109.375 981
375 132.812 1019
-140.625 453.125 802
109.375 203.125 1054
234.375 203.125 811
148.438 234.375 862
125 343.75 903
7.8125 453.125 964
273.438 328.125 889
-164.062 234.375 1013
-250 234.375 998
281.25 78.125 987
-7.8125 375 1050
-234.375 429.688 798
132.812 179.688 1080
375 210.938 918
242.188 234.375 823
343.75 210.938 933
7.8125 250 1004
70.3125 70.3125 1019
-7.8125 304.688 1134
-7.8125 304.688 1134
390.625 203.125 908
-148.438 265.625 992
203.125 31.25 981
242.188 320.312 873
406.25 132.812 989
-257.812 226.562 998
218.75 226.562 819
-296.875 320.312 903
179.688 -15.625 992
-62.5 437.5 815
-242.188 421.875 805
-23.4375 390.625 1031
312.5 171.875 831
-132.812 351.562 967
7.8125 429.688 835
-93.75 367.188 858
171.875 312.5 858
328.125 179.688 829
218.75 78.125 984
-179.688 218.75 1022
375 242.188 915
-70.3125 343.75 885
-109.375 429.688 809
-101.562 437.5 811
-7.8125 421.875 998
7.8125 312.5 1119
7.8125 257.812 992
0 187.5 1080
7.8125 421.875 835
164.062 265.625 835
0 265.625 1181
195.312 187.5 817
-70.3125 453.125 809
7.8125 437.5 823
7.8125 359.375 891
296.875 85.9375 981
-117.188 351.562 964
0 250 1197
-296.875 242.188 975
7.8125 296.875 1138
-7.8125 390.625 1031
210.938 203.125 811
125 70.3125 981
0 257.812 1193
195.312 296.875 851
-320.312 265.625 954
351.562 171.875 910
0 281.25 1161
46.875 109.375 1063
273.438 93.75 1202
406.25 171.875 908
7.8125 453.125 964
-328.125 281.25 943
132.812 234.375 871
195.312 132.812 1001
0 195.312 1070
0 203.125 1063
218.75 125 1004
7.8125 289.062 964
-125 445.312 805
7.8125 398.438 858
-117.188 281.25 959
492.188 335.938 845
-7.8125 257.812 1193
-7.8125 406.25 1019
7.8125 414.062 841
-296.875 382.812 940
-320.312 296.875 930
273.438 85.9375 987
484.375 289.062 862
-312.5 328.125 1077
-304.688 414.062 981
312.5 164.062 839
-203.125 296.875 1013
7.8125 281.25 967
-281.25 375 860
-7.8125 343.75 1087
-312.5 250 964
-328.125 304.688 1101
171.875 78.125 978
257.812 179.688 823
7.8125 406.25 854
-296.875 429.688 967
304.688 210.938 827
-54.6875 406.25 843
320.312 78.125 978
-7.8125 242.188 1210
187.5 335.938 875
-78.125 445.312 811
468.75 382.812 851
-164.062 453.125 805
312.5 132.812 981
7.8125 445.312 821
140.625 296.875 885
39.0625 101.562 1189
7.8125 429.688 835
140.625 210.938 862
-226.562 218.75 1013
-7.8125 382.812 1041
-7.8125 398.438 1025
-15.625 171.875 1312
-7.8125 367.188 1054
-484.375 -7.8125 2198
-164.062 304.688 1013
484.375 62.5 1250
281.25 304.688 878
140.625 289.062 882
-54.6875 367.188 856
-281.25 234.375 989
148.438 226.562 862
-164.062 437.5 792
-93.75 312.5 925
-242.188 312.5 992
7.8125 390.625 1028
140.625 203.125 862
7.8125 343.75 915
7.8125 375 1047
242.188 31.25 1001
453.125 312.5 920
101.562 156.25 1038
-78.125 335.938 903
-156.25 437.5 796
-484.375 54.6875 2286
-7.8125 320.312 1115
7.8125 421.875 835
468.75 375 858
140.625 195.312 845
7.8125 453.125 964
7.8125 437.5 823
-7.8125 359.375 1063
296.875 78.125 978
-109.375 453.125 802
-7.8125 234.375 1223
210.938 78.125 981
140.625 273.438 880
0 273.438 1169
234.375 85.9375 995
7.8125 359.375 891
-468.75 117.188 1333
359.375 179.688 908
-304.688 398.438 1001
-414.062 -39.0625 2958
-7.8125 351.562 1077
85.9375 62.5 1004
7.8125 351.562 1077
140.625 85.9375 981
125 320.312 925
125 250 1001
304.688 203.125 823
-7.8125 414.062 1010
296.875 148.438 854
7.8125 304.688 1130
312.5 70.3125 973
-132.812 429.688 800
109.375 70.3125 989
304.688 187.5 823
93.75 179.688 1084
265.625 78.125 995
257.812 226.562 825
-210.938 398.438 811
7.8125 414.062 841
117.188 328.125 920
265.625 250 839
273.438 93.75 1202
203.125 281.25 843
-7.8125 421.875 998
242.188 70.3125 998
-304.688 343.75 1057
187.5 296.875 851
468.75 398.438 837
234.375 7.8125 1004
289.062 273.438 858
-7.8125 234.375 1223
85.9375 164.062 1105
7.8125 273.438 970
7.8125 367.188 889
-242.188 437.5 925
453.125 335.938 898
-179.688 296.875 1019
-195.312 453.125 794
-85.9375 406.25 819
-179.688 226.562 1022
125 109.375 989
-148.438 320.312 998
-54.6875 453.125 811
132.812 179.688 1080
101.562 70.3125 992
-7.8125 273.438 1173
195.312 328.125 871
289.062 78.125 984
132.812 273.438 896
-78.125 437.5 815
-210.938 218.75 1016
-54.6875 265.625 1177
-390.625 179.688 1250
296.875 85.9375 981
-171.875 281.25 1022
296.875 242.188 839
-7.8125 429.688 989
0 289.062 1153
-78.125 390.625 837
7.8125 429.688 835
195.312 179.688 827
164.062 289.062 843
218.75 335.938 882
-328.125 382.812 1013
-476.562 -7.8125 3149
117.188 320.312 925
-93.75 437.5 813
7.8125 328.125 925
273.438 328.125 889
289.062 132.812 973
-281.25 242.188 981
296.875 234.375 837
-7.8125 265.625 1181
-312.5 390.625 1007
-7.8125 375 1050
7.8125 312.5 1119
492.188 359.375 833
0 312.5 1119
203.125 195.312 813
-156.25 273.438 1016
132.812 351.562 896
492.188 62.5 1236
-132.812 273.438 975
226.562 0 1007
179.688 132.812 998
7.8125 265.625 989
125 242.188 1010
476.562 414.062 821
7.8125 406.25 854
351.562 171.875 910
218.75 171.875 835
281.25 109.375 981
195.312 140.625 1010
7.8125 375 1047
-148.438 445.312 798
414.062 156.25 981
-421.875 -148.438 2789
-226.562 304.688 1001
7.8125 289.062 964
210.938 226.562 815
281.25 296.875 871
117.188 31.25 992
-320.312 273.438 943
476.562 406.25 827
226.562 109.375 998
125 351.562 896
7.8125 445.312 821
-54.6875 195.312 1273
-132.812 359.375 956
289.062 140.625 856
492.188 289.062 862
0 320.312 1112
281.25 117.188 1165
7.8125 335.938 918
492.188 406.25 800
320.312 171.875 829
296.875 171.875 831
312.5 140.625 984
7.8125 359.375 891
7.8125 320.312 925
-406.25 15.625 3010
7.8125 343.75 915
218.75 328.125 878
109.375 39.0625 989
-164.062 234.375 1013
117.188 312.5 935
179.688 78.125 978
7.8125 281.25 967
132.812 78.125 981
-296.875 437.5 962
195.312 187.5 817
-140.625 335.938 981
7.8125 296.875 1138
453.125 54.6875 1259
93.75 70.3125 1001
242.188 78.125 1001
0 187.5 1080
-7.8125 226.562 1236
375 257.812 962
414.062 148.438 984
0 304.688 1134
-304.688 414.062 981
7.8125 398.438 858
-117.188 375 843
382.812 265.625 973
7.8125 351.562 1077
210.938 70.3125 981
312.5 125 978
273.438 320.312 885
31.25 85.9375 1214
54.6875 70.3125 1038
289.062 78.125 984
0 328.125 1101
-85.9375 320.312 913
203.125 62.5 978
-140.625 265.625 987
335.938 171.875 920
78.125 31.25 1016
7.8125 304.688 1130
0 343.75 1087
0 335.938 1094
398.438 125 1004
359.375 156.25 1001
312.5 132.812 981
-164.062 320.312 998
-109.375 312.5 954
7.8125 328.125 925
0 265.625 1181
460.938 312.5 920
476.562 281.25 943
257.812 265.625 845
7.8125 257.812 992
-156.25 257.812 1004
242.188 171.875 831
218.75 70.3125 981
250 203.125 813
492.188 343.75 837
7.8125 382.812 1041
-7.8125 226.562 1236
226.562 218.75 813
-304.688 359.375 970
-140.625 343.75 973
132.812 31.25 981
0 351.562 1077
140.625 265.625 851
-125 359.375 959
-109.375 445.312 807
156.25 265.625 839
-304.688 382.812 1013
109.375 -23.4375 1022
0 171.875 1312
281.25 85.9375 987
-148.438 335.938 981
-39.0625 453.125 847
265.625 78.125 995
-257.812 226.562 998
179.688 312.5 860
210.938 171.875 833
-335.938 265.625 1145
312.5 117.188 978
-296.875 429.688 967
406.25 156.25 995
210.938 187.5 817
437.5 187.5 918
-250 429.688 920
140.625 148.438 1013
242.188 70.3125 998
-70.3125 437.5 815
-7.8125 242.188 1210
-78.125 398.438 825
7.8125 312.5 1119
132.812 125 995
7.8125 250 1004
7.8125 367.188 889
-312.5 398.438 998
484.375 312.5 858
265.625 343.75 896
-226.562 218.75 1013
-304.688 367.188 1034
234.375 273.438 843
78.125 54.6875 1010
-265.625 320.312 978
-328.125 257.812 959
0 375 1047
62.5 39.0625 1031
-312.5 257.812 959
453.125 343.75 887
31.25 62.5 1067
234.375 93.75 995
-171.875 304.688 1010
-7.8125 226.562 1236
296.875 195.312 821
242.188 39.0625 1001
304.688 226.562 833
0 179.688 1087
78.125 156.25 1115
343.75 187.5 915
-7.8125 234.375 1223
0 335.938 1094
-54.6875 359.375 867
-289.062 -15.625 3149
281.25 125 978
93.75 132.812 1028
-7.8125 218.75 1245
0 257.812 1193
140.625 226.562 869
-320.312 320.312 1080
132.812 171.875 1090
125 359.375 887
93.75 109.375 1007
31.25 78.125 1067
-101.562 406.25 821
85.9375 -15.625 1034
421.875 164.062 918
-273.438 390.625 843
296.875 78.125 978
-148.438 234.375 1007
234.375 195.312 811
-296.875 250 967
93.75 140.625 1038
460.938 359.375 871
62.5 46.875 1031
226.562 54.6875 987
312.5 101.562 975
