ply
format ascii 1.0
comment Created by Open3D
element vertex 2279
property double x
property double y
property double z
end_header
-335.938 -257.812 1185
187.5 250 1376
-382.812 179.688 1696
-250 93.75 1273
132.812 -273.438 1404
156.25 -242.188 3539
-62.5 -296.875 1410
-406.25 179.688 1722
31.25 140.625 1283
-171.875 -187.5 1523
-218.75 250 1529
-226.562 -203.125 1232
-250 101.562 1283
-234.375 328.125 1601
46.875 257.812 1823
-234.375 132.812 1312
-312.5 109.375 1981
-218.75 265.625 1509
257.812 -187.5 1647
273.438 -117.188 1496
46.875 -312.5 1365
-203.125 -250 1302
-62.5 -265.625 1433
218.75 164.062 1297
-62.5 203.125 1354
320.312 85.9375 1202
-304.688 -132.812 1112
-164.062 -210.938 1572
-367.188 -195.312 1181
-210.938 -234.375 1292
218.75 210.938 2256
-195.312 -156.25 1392
-218.75 312.5 1579
-500 148.438 1470
-476.562 78.125 1981
-218.75 335.938 1616
468.75 -54.6875 2984
-421.875 -390.625 1297
-351.562 179.688 1722
226.562 140.625 1259
179.688 117.188 1236
23.4375 164.062 1302
-203.125 296.875 1705
-210.938 -226.562 1297
171.875 140.625 1264
-234.375 109.375 1292
-218.75 -218.75 1250
-203.125 -195.312 1392
-304.688 -218.75 1227
265.625 179.688 2317
-500 156.25 1470
0 234.375 1663
-187.5 -218.75 1445
312.5 78.125 1214
117.188 -195.312 1470
-70.3125 -195.312 1503
406.25 -203.125 3468
-15.625 250 1833
62.5 445.312 1713
-195.312 -195.312 1427
-31.25 -429.688 1292
-226.562 -78.125 1328
-210.938 320.312 1663
-281.25 78.125 2078
-46.875 -367.188 1343
484.375 -257.812 2767
-62.5 -320.312 1381
-195.312 -257.812 1322
-421.875 -375 1322
-54.6875 265.625 1785
-187.5 -226.562 1439
-54.6875 -351.562 1365
-203.125 -242.188 1302
-375 -187.5 1169
-179.688 -187.5 1452
-429.688 -320.312 1227
328.125 -187.5 3539
23.4375 -320.312 1365
-250 257.812 1489
140.625 -320.312 1359
-218.75 -93.75 1349
-62.5 -273.438 1427
-210.938 -109.375 1370
109.375 429.688 1663
-148.438 -320.312 1543
320.312 101.562 1189
-195.312 -117.188 1392
-148.438 273.438 1550
-46.875 -421.875 1297
-132.812 -273.438 1688
109.375 -164.062 1543
-109.375 320.312 1696
468.75 -132.812 3064
-328.125 101.562 2005
-406.25 -234.375 1202
-234.375 140.625 1322
320.312 93.75 1193
-226.562 -31.25 1259
-351.562 296.875 1655
-54.6875 -328.125 1381
117.188 -187.5 1594
218.75 429.688 1823
-171.875 218.75 1572
-164.062 -203.125 1557
-109.375 226.562 1564
-320.312 101.562 1993
-242.188 -156.25 1138
-54.6875 -171.875 1509
-62.5 -281.25 1415
-203.125 -132.812 1354
-62.5 210.938 1354
-203.125 -93.75 1349
-156.25 -226.562 1601
-328.125 -203.125 1202
281.25 -93.75 1477
-281.25 226.562 1713
-125 187.5 1354
-437.5 -406.25 1288
-46.875 -406.25 1317
-39.0625 -445.312 1292
148.438 164.062 1292
101.562 -421.875 1283
-257.812 -109.375 1138
359.375 -210.938 3468
-187.5 -289.062 1410
-351.562 -210.938 1181
-179.688 226.562 1586
-257.812 -101.562 1145
-304.688 164.062 1776
125 -242.188 1421
-382.812 -351.562 1259
109.375 -414.062 1288
-351.562 187.5 1713
-195.312 -125 1404
210.938 187.5 1312
-250 -39.0625 1185
-273.438 203.125 1713
-335.938 164.062 1757
-234.375 117.188 1302
140.625 242.188 1376
-500 203.125 1496
-226.562 187.5 1365
31.25 242.188 1655
-453.125 -351.562 1227
-273.438 179.688 1731
-250 117.188 1297
-468.75 -398.438 1283
-281.25 164.062 1757
-39.0625 304.688 1731
-7.8125 218.75 1359
-500 -289.062 1181
-296.875 164.062 1766
-171.875 -304.688 1477
304.688 -218.75 3539
-437.5 -367.188 1302
-179.688 -289.062 1439
-250 -101.562 1145
-85.9375 335.938 1671
-234.375 -54.6875 1283
-179.688 -164.062 1477
-62.5 304.688 1722
453.125 -281.25 3120
-367.188 -312.5 1307
-367.188 -320.312 1302
-226.562 242.188 1477
-203.125 195.312 1616
195.312 234.375 1376
-320.312 93.75 2333
-62.5 -242.188 1452
320.312 -218.75 3539
-187.5 281.25 1579
-70.3125 -179.688 1516
-226.562 195.312 1421
-375 -289.062 1343
-203.125 242.188 1624
-320.312 70.3125 2065
-54.6875 -320.312 1387
-210.938 335.938 1655
-148.438 -250 1655
-492.188 -312.5 1161
445.312 -242.188 3238
-117.188 265.625 1594
-187.5 -164.062 1470
109.375 -250 1415
-218.75 328.125 1616
-445.312 328.125 1601
132.812 265.625 1404
-187.5 -140.625 1433
-210.938 250 1529
140.625 375 1564
-257.812 -132.812 1123
-171.875 234.375 1579
148.438 -359.375 3300
-164.062 -218.75 1586
39.0625 -375 1312
265.625 -156.25 1557
-23.4375 218.75 1354
-23.4375 218.75 1354
-273.438 62.5 1245
-171.875 -203.125 1550
-343.75 31.25 1181
-7.8125 -171.875 1503
-289.062 78.125 2078
-281.25 210.938 1688
-46.875 -414.062 1307
7.8125 273.438 1785
-273.438 78.125 1259
-156.25 -234.375 1572
-195.312 -148.438 1398
304.688 7.8125 1297
-54.6875 -343.75 1365
-62.5 -234.375 1458
109.375 281.25 1439
-257.812 -117.188 1130
-187.5 -210.938 1421
453.125 -210.938 3433
-304.688 85.9375 2065
-78.125 328.125 1688
-226.562 -351.562 1543
-15.625 -164.062 1503
421.875 -171.875 3468
-109.375 328.125 1680
132.812 -273.438 1404
125 289.062 1439
-328.125 -218.75 1181
-257.812 -31.25 1189
-132.812 296.875 1722
-421.875 164.062 1833
468.75 -273.438 3092
476.562 -148.438 3064
-39.0625 -437.5 1292
-429.688 281.25 1647
-140.625 -257.812 1688
-492.188 -304.688 1165
-390.625 -218.75 1169
-31.25 281.25 1766
-414.062 -187.5 1145
62.5 -62.5 1283
-453.125 -359.375 1288
-54.6875 -335.938 1370
93.75 367.188 1557
-250 -93.75 1145
289.062 -328.125 3300
-234.375 109.375 1292
-156.25 234.375 1564
46.875 242.188 1632
-62.5 -250 1445
460.938 -382.812 3120
-15.625 226.562 1663
-234.375 -351.562 1543
23.4375 140.625 1283
-234.375 70.3125 1255
-445.312 -414.062 1288
-500 -242.188 1214
109.375 265.625 1433
-164.062 -203.125 1557
-257.812 265.625 1496
-101.562 265.625 1601
-54.6875 -328.125 1381
-46.875 -429.688 1292
156.25 195.312 1322
-210.938 -70.3125 1317
-335.938 -218.75 1181
85.9375 -78.125 1268
31.25 -320.312 1365
460.938 -312.5 3092
-484.375 242.188 1705
-78.125 296.875 1722
-46.875 359.375 1639
-273.438 242.188 1731
-414.062 62.5 2028
-476.562 -343.75 1241
-195.312 -117.188 1392
-101.562 367.188 1624
-54.6875 -312.5 1392
-179.688 -164.062 1477
-250 -140.625 1141
-46.875 -421.875 1297
132.812 -117.188 1458
-7.8125 210.938 1359
101.562 359.375 1543
-187.5 -171.875 1421
-15.625 265.625 1794
-257.812 179.688 1359
-46.875 -406.25 1317
85.9375 -414.062 1283
-171.875 -187.5 1523
-398.438 -187.5 1134
101.562 406.25 1616
-414.062 70.3125 2028
-265.625 -156.25 1130
-203.125 257.812 1601
-281.25 78.125 2078
-359.375 -367.188 1288
-375 -328.125 1292
-187.5 -140.625 1433
-476.562 -125 1126
-218.75 -203.125 1232
-484.375 218.75 1647
-375 -281.25 1343
-250 109.375 1288
-78.125 -250 1458
-320.312 -242.188 1223
367.188 -210.938 3468
-187.5 -132.812 1421
-398.438 -242.188 1193
250 -226.562 3539
-234.375 125 1307
-62.5 -265.625 1433
-210.938 -218.75 1250
-351.562 -125 1115
164.062 164.062 1288
-414.062 -210.938 1145
101.562 -156.25 1523
-218.75 304.688 1572
460.938 -398.438 3092
-226.562 -23.4375 1250
-54.6875 -304.688 1398
-85.9375 304.688 1722
-62.5 -242.188 1452
117.188 -179.688 1572
-343.75 140.625 1757
-414.062 156.25 1794
132.812 -156.25 1529
-351.562 -359.375 1550
-453.125 140.625 1873
164.062 171.875 1292
-406.25 203.125 1731
-421.875 -273.438 1297
-250 -23.4375 1236
109.375 -179.688 1470
242.188 195.312 2286
-406.25 187.5 1722
-382.812 -234.375 1177
140.625 343.75 1516
-304.688 109.375 1970
421.875 171.875 2333
85.9375 257.812 1632
-257.812 234.375 1458
-179.688 -156.25 1464
-445.312 -398.438 1283
218.75 210.938 2256
-218.75 -351.562 1557
-320.312 101.562 2005
-414.062 187.5 1731
23.4375 148.438 1278
-62.5 -257.812 1439
-226.562 210.938 1439
-375 -195.312 1173
-156.25 257.812 1550
-218.75 320.312 1579
117.188 421.875 1639
109.375 296.875 1452
-281.25 210.938 1688
-414.062 -109.375 1138
-203.125 -101.562 1370
-179.688 203.125 1579
304.688 15.625 1297
-265.625 234.375 1739
-375 -203.125 1173
-179.688 289.062 1722
-351.562 -203.125 1193
-210.938 281.25 1564
132.812 -265.625 1410
-234.375 85.9375 1268
-250 -125 1130
-414.062 210.938 1785
-195.312 203.125 1601
-109.375 195.312 1359
-39.0625 281.25 1748
-234.375 78.125 1264
273.438 -125 1529
-218.75 281.25 1536
492.188 -7.8125 2541
-226.562 -70.3125 1259
-250 -117.188 1134
31.25 265.625 1823
-226.562 320.312 1579
-281.25 234.375 1688
-78.125 -179.688 1529
-320.312 -226.562 1227
-289.062 78.125 2065
-218.75 289.062 1543
-367.188 -328.125 1302
39.0625 414.062 1624
-242.188 -31.25 1193
156.25 -406.25 1312
-218.75 312.5 1572
-476.562 -390.625 1322
-203.125 304.688 1696
-359.375 -132.812 1115
-390.625 -226.562 1177
-218.75 -46.875 1283
-148.438 359.375 1624
-367.188 -304.688 1307
484.375 -23.4375 2560
-171.875 -179.688 1516
117.188 -171.875 1489
-273.438 62.5 1245
-46.875 -414.062 1307
-320.312 359.375 1609
-304.688 218.75 1663
109.375 226.562 1354
-414.062 -343.75 1232
109.375 273.438 1445
445.312 -335.938 3208
101.562 296.875 1503
-187.5 -164.062 1404
-109.375 273.438 1594
-281.25 70.3125 2065
-296.875 226.562 1671
-226.562 -31.25 1264
-421.875 -328.125 1232
-242.188 210.938 1427
156.25 328.125 1483
117.188 -195.312 1470
-500 148.438 1458
218.75 -164.062 1586
-250 -109.375 1145
-406.25 54.6875 2053
-179.688 -296.875 1433
171.875 148.438 1273
-109.375 289.062 1601
-367.188 -242.188 1197
-359.375 187.5 1705
-460.938 39.0625 2028
-234.375 62.5 1197
-445.312 265.625 1671
117.188 -187.5 1477
226.562 148.438 1273
93.75 375 1572
-210.938 257.812 1489
-468.75 -281.25 1273
-46.875 -398.438 1322
-250 -31.25 1193
-54.6875 -320.312 1392
234.375 203.125 2271
-125 -273.438 3539
-281.25 171.875 1757
132.812 -273.438 1398
70.3125 429.688 1663
460.938 -148.438 3468
-62.5 -234.375 1470
-484.375 125 1904
-54.6875 -328.125 1387
-328.125 -195.312 1189
-210.938 -78.125 1333
109.375 250 1470
109.375 250 1470
-164.062 -328.125 1523
-171.875 242.188 1594
-492.188 -398.438 1307
125 -218.75 1452
250 171.875 2365
23.4375 -312.5 1370
-148.438 210.938 1564
-398.438 -179.688 1149
195.312 -234.375 3539
85.9375 289.062 1594
-226.562 335.938 1601
-156.25 -218.75 1594
-46.875 -390.625 1322
-210.938 -70.3125 1322
203.125 -234.375 3539
-164.062 -203.125 1564
-359.375 101.562 1993
-492.188 132.812 1458
-226.562 -23.4375 1255
351.562 -250 3433
132.812 -359.375 1328
70.3125 437.5 1680
-382.812 218.75 1688
-195.312 -273.438 1365
-203.125 -234.375 1297
-187.5 -210.938 1452
-62.5 -242.188 1464
492.188 -296.875 2812
164.062 312.5 1445
-218.75 -78.125 1328
-195.312 -210.938 1297
-210.938 -218.75 1273
-46.875 218.75 1696
-46.875 -406.25 1322
390.625 -23.4375 2859
-70.3125 226.562 1586
-187.5 -218.75 1359
-54.6875 210.938 1354
476.562 -296.875 3064
210.938 -398.438 3178
-304.688 85.9375 2078
85.9375 242.188 1624
109.375 257.812 1550
-93.75 335.938 1663
-460.938 -398.438 1292
265.625 -164.062 1601
62.5 289.062 1785
-429.688 -351.562 1223
-312.5 -226.562 1227
-179.688 -156.25 1464
-203.125 -93.75 1359
-54.6875 -335.938 1376
-31.25 289.062 1757
46.875 -93.75 1278
-289.062 85.9375 2065
-226.562 148.438 1333
-234.375 -46.875 1273
-421.875 226.562 1748
171.875 140.625 1264
-179.688 257.812 1557
-312.5 -125 1115
78.125 406.25 1624
-445.312 179.688 1804
-140.625 218.75 1564
31.25 -132.812 1464
203.125 250 2143
-171.875 -195.312 1477
195.312 226.562 1354
-203.125 -125 1338
101.562 320.312 1516
445.312 -320.312 3064
-226.562 -70.3125 1259
31.25 -148.438 1489
93.75 343.75 1543
46.875 -320.312 1365
187.5 257.812 1381
-164.062 -320.312 1496
273.438 -132.812 1529
-335.938 -140.625 1112
-62.5 257.812 1804
-304.688 296.875 1680
-46.875 281.25 1757
-210.938 31.25 1185
132.812 -281.25 1392
445.312 -250 3178
-101.562 265.625 1594
70.3125 -85.9375 1268
-148.438 265.625 1550
273.438 -85.9375 1452
-406.25 171.875 1739
70.3125 421.875 1663
468.75 -132.812 3092
-195.312 -117.188 1398
-148.438 -312.5 1557
-164.062 -210.938 1509
-54.6875 -343.75 1370
101.562 281.25 1550
-187.5 -132.812 1421
85.9375 218.75 1354
-117.188 -273.438 3539
-257.812 -125 1119
85.9375 -78.125 1264
-85.9375 257.812 1601
-218.75 234.375 1470
195.312 234.375 1365
-54.6875 -312.5 1392
179.688 273.438 1404
148.438 -382.812 1312
-414.062 -351.562 1232
156.25 281.25 1421
140.625 -304.688 1376
-468.75 -390.625 1292
-203.125 187.5 1359
-93.75 281.25 1594
-234.375 70.3125 1259
-281.25 187.5 1739
-62.5 -226.562 1470
-335.938 -226.562 1206
-179.688 -179.688 1433
15.625 281.25 1794
281.25 -226.562 3539
-62.5 -234.375 1470
421.875 -304.688 3269
-375 62.5 2065
-304.688 -218.75 1232
281.25 -70.3125 1427
-218.75 -54.6875 1297
-437.5 265.625 1671
85.9375 296.875 1594
-85.9375 234.375 1572
296.875 46.875 1255
-257.812 226.562 1452
265.625 179.688 2317
-156.25 289.062 1722
-226.562 -187.5 1210
-203.125 210.938 1632
-203.125 -250 1307
-210.938 343.75 1632
164.062 -218.75 1680
468.75 -406.25 3092
-250 -148.438 1130
-234.375 101.562 1288
156.25 -398.438 1288
-62.5 -218.75 1477
132.812 390.625 1586
148.438 -351.562 1333
-140.625 -273.438 1624
-242.188 -156.25 1153
-406.25 -148.438 1115
460.938 -117.188 3092
179.688 -273.438 3399
-179.688 195.312 1359
23.4375 304.688 1757
-210.938 226.562 1470
-125 265.625 1564
148.438 359.375 1529
109.375 265.625 1523
476.562 -359.375 3092
476.562 -328.125 3120
-226.562 140.625 1322
31.25 -312.5 1370
-156.25 257.812 1550
-195.312 -265.625 1354
-148.438 -328.125 1557
-460.938 -406.25 1292
-320.312 -125 1115
93.75 296.875 1594
0 234.375 1663
-54.6875 -304.688 1398
39.0625 242.188 1655
-273.438 171.875 1757
-234.375 93.75 1278
-242.188 -351.562 1550
-328.125 289.062 1680
289.062 -54.6875 1398
31.25 312.5 1739
484.375 -156.25 2701
23.4375 -140.625 1470
-437.5 -375 1297
-234.375 -171.875 1185
445.312 -359.375 3178
-187.5 -226.562 1359
-367.188 -250 1193
-78.125 242.188 1601
156.25 335.938 1489
-218.75 -85.9375 1317
453.125 -101.562 3178
109.375 289.062 1445
421.875 -289.062 3300
-62.5 -203.125 1489
117.188 429.688 1639
421.875 -265.625 3333
101.562 445.312 1688
109.375 320.312 1496
-148.438 289.062 1722
-289.062 226.562 1680
-101.562 -296.875 3468
242.188 140.625 2415
-234.375 -179.688 1185
78.125 242.188 1609
-468.75 -421.875 1322
-62.5 -265.625 1433
125 -210.938 1464
109.375 242.188 1601
-492.188 -250 1206
-398.438 140.625 1904
-210.938 -62.5 1307
109.375 312.5 1489
-226.562 -195.312 1210
-46.875 -382.812 1343
-171.875 -296.875 1445
-54.6875 -320.312 1392
-46.875 -398.438 1322
-109.375 156.25 1312
-39.0625 -382.812 1333
-343.75 -210.938 1185
-164.062 -195.312 1543
-85.9375 -250 1688
-476.562 210.938 1647
109.375 234.375 1354
-406.25 140.625 1904
-62.5 -265.625 1433
70.3125 -78.125 1268
-210.938 -109.375 1297
62.5 312.5 1739
-382.812 312.5 1632
125 -218.75 1452
-343.75 -218.75 1185
-320.312 -218.75 1227
-281.25 242.188 1688
-203.125 203.125 1557
-273.438 70.3125 2053
156.25 -406.25 1312
179.688 281.25 1404
-226.562 148.438 1333
-218.75 -203.125 1227
257.812 -195.312 1680
476.562 -320.312 3092
156.25 -398.438 1288
156.25 195.312 1322
476.562 -195.312 3433
109.375 304.688 1489
-328.125 -125 1115
-171.875 -179.688 1516
-164.062 -210.938 1509
78.125 296.875 1601
-289.062 85.9375 2065
-375 203.125 1722
23.4375 -320.312 1365
0 265.625 1624
-437.5 -351.562 1223
179.688 125 1250
-85.9375 125 1283
-148.438 -234.375 1632
-468.75 -343.75 1245
78.125 273.438 1823
445.312 -203.125 3433
-304.688 -70.3125 1161
125 414.062 1632
-203.125 312.5 1579
-390.625 -320.312 1278
218.75 171.875 1292
-62.5 -187.5 1509
-179.688 -281.25 1410
-195.312 -140.625 1392
-187.5 -265.625 1381
-187.5 -281.25 1387
-265.625 203.125 1731
-304.688 218.75 1663
281.25 -93.75 1470
54.6875 242.188 1616
-70.3125 226.562 1586
54.6875 273.438 1823
445.312 -234.375 3238
132.812 -289.062 1381
-117.188 257.812 1572
-414.062 -359.375 1338
-156.25 -328.125 1550
-328.125 70.3125 2065
54.6875 382.812 1632
281.25 -101.562 1489
156.25 203.125 1328
-234.375 117.188 1302
-476.562 242.188 1696
31.25 -320.312 1365
-179.688 -156.25 1464
46.875 -304.688 1376
-234.375 109.375 1297
78.125 203.125 1343
-226.562 132.812 1312
-179.688 187.5 1359
-171.875 -312.5 1464
-218.75 179.688 1359
-429.688 -414.062 1283
-476.562 85.9375 1936
-54.6875 -296.875 1410
468.75 -328.125 3064
296.875 -312.5 3300
-195.312 273.438 1601
-460.938 -320.312 1259
-460.938 -359.375 1288
-203.125 -85.9375 1349
-62.5 -226.562 1470
-234.375 78.125 1264
140.625 -242.188 3503
-54.6875 -179.688 1509
-23.4375 281.25 1757
-62.5 -179.688 1516
289.062 -62.5 1410
-218.75 -46.875 1283
109.375 328.125 1503
-210.938 -226.562 1273
195.312 242.188 1365
-406.25 203.125 1713
-195.312 -109.375 1387
54.6875 312.5 1739
109.375 -156.25 1529
-492.188 140.625 1458
234.375 203.125 2271
-54.6875 -312.5 1392
437.5 -343.75 3178
-156.25 -218.75 1594
-54.6875 -343.75 1370
-218.75 -210.938 1245
140.625 -304.688 1376
-140.625 187.5 1354
351.562 -210.938 3468
132.812 398.438 1586
140.625 375 1550
-101.562 195.312 1354
-164.062 -257.812 1550
-335.938 -257.812 1189
-242.188 -148.438 1153
-187.5 289.062 1722
93.75 226.562 1365
117.188 437.5 1671
-406.25 164.062 1757
-218.75 289.062 1543
-226.562 125 1307
132.812 -257.812 1415
-171.875 210.938 1572
250 210.938 2256
-445.312 -39.0625 1210
-351.562 -203.125 1193
195.312 -257.812 3503
218.75 437.5 1813
257.812 -187.5 1655
125 -171.875 1564
78.125 414.062 1624
-257.812 -70.3125 1157
-375 -179.688 1157
-203.125 -242.188 1297
-398.438 -351.562 1245
210.938 218.75 1343
-218.75 296.875 1543
-226.562 140.625 1322
-117.188 289.062 1748
-62.5 -218.75 1477
-62.5 -234.375 1470
93.75 -23.4375 1302
-445.312 -367.188 1292
54.6875 257.812 1833
-171.875 -171.875 1509
31.25 250 1663
109.375 296.875 1452
-312.5 -210.938 1219
-335.938 -125 1115
-460.938 -367.188 1292
93.75 382.812 1579
-171.875 234.375 1586
-164.062 -312.5 1489
-500 -273.438 1189
7.8125 -257.812 1421
-132.812 -273.438 3539
445.312 -210.938 3433
-468.75 -312.5 1307
148.438 -351.562 1333
-242.188 -164.062 1157
-312.5 281.25 1688
-468.75 234.375 1663
-250 -54.6875 1177
-210.938 -62.5 1307
-210.938 265.625 1503
164.062 171.875 1292
-164.062 -195.312 1543
7.8125 15.625 1236
-218.75 -195.312 1210
85.9375 -148.438 1509
-492.188 -257.812 1202
-226.562 -23.4375 1255
-226.562 117.188 1302
164.062 117.188 1193
226.562 414.062 1853
-39.0625 -437.5 1302
-273.438 -140.625 1112
117.188 -156.25 1529
242.188 -203.125 1680
257.812 187.5 2317
-218.75 -39.0625 1278
-304.688 54.6875 1189
492.188 -171.875 2723
-328.125 -226.562 1219
148.438 351.562 1516
164.062 179.688 1302
-187.5 -132.812 1421
460.938 -132.812 3149
-367.188 -195.312 1185
-359.375 164.062 1722
-335.938 -203.125 1189
-289.062 85.9375 2065
-414.062 218.75 1766
-210.938 -101.562 1307
15.625 250 1655
31.25 289.062 1776
-484.375 -312.5 1415
-468.75 242.188 1671
-273.438 156.25 1766
-46.875 -382.812 1343
-429.688 -359.375 1312
70.3125 437.5 1680
125 -210.938 1464
-187.5 -203.125 1452
-62.5 226.562 1594
109.375 335.938 1509
-156.25 257.812 1550
-312.5 218.75 1663
-70.3125 335.938 1680
-46.875 -390.625 1322
-460.938 54.6875 2028
468.75 -125 3092
-218.75 273.438 1529
-187.5 -156.25 1404
46.875 242.188 1639
-281.25 -156.25 1130
-203.125 257.812 1616
-218.75 265.625 1503
93.75 335.938 1543
-164.062 218.75 1572
-304.688 93.75 2365
-218.75 -85.9375 1317
-414.062 -343.75 1232
-70.3125 375 1624
-375 -351.562 1268
125 -179.688 1579
-203.125 -125 1338
-203.125 218.75 1616
-468.75 203.125 1671
289.062 -70.3125 1427
-265.625 -23.4375 1197
-398.438 171.875 1739
-226.562 -39.0625 1273
-203.125 -234.375 1297
-226.562 132.812 1312
171.875 296.875 1427
-62.5 -210.938 1483
117.188 281.25 1439
-414.062 -351.562 1232
-320.312 250 1680
-492.188 218.75 1503
46.875 -421.875 1288
-445.312 -382.812 1292
-273.438 242.188 1688
-234.375 -351.562 1550
23.4375 -312.5 1370
125 -148.438 1523
-406.25 179.688 1739
-242.188 265.625 1503
54.6875 250 1853
-234.375 226.562 1452
-234.375 -39.0625 1193
-187.5 195.312 1354
484.375 -367.188 3037
93.75 281.25 1616
125 -226.562 1439
-54.6875 257.812 1794
-156.25 265.625 1550
-132.812 289.062 1739
-140.625 289.062 1739
476.562 -140.625 3064
-195.312 -187.5 1349
-304.688 257.812 1705
210.938 -210.938 1696
-31.25 375 1632
-39.0625 218.75 1696
-296.875 218.75 1671
-218.75 281.25 1536
-171.875 195.312 1359
125 -218.75 1452
-453.125 -359.375 1297
-500 125 1452
93.75 359.375 1557
-226.562 156.25 1343
-210.938 335.938 1601
-484.375 210.938 1647
31.25 140.625 1283
-62.5 -218.75 1477
-54.6875 -296.875 1410
-265.625 218.75 1722
-257.812 187.5 1398
-210.938 218.75 1477
296.875 -218.75 3539
-15.625 304.688 1739
93.75 265.625 1594
265.625 -164.062 1601
93.75 -148.438 1509
218.75 -210.938 1688
117.188 -101.562 1427
171.875 148.438 1273
117.188 -171.875 1489
265.625 -171.875 1624
164.062 320.312 1458
171.875 304.688 1427
-226.562 101.562 1288
-179.688 -171.875 1445
-328.125 101.562 2005
-414.062 -203.125 1141
-242.188 -39.0625 1193
-242.188 171.875 1354
-140.625 -265.625 1639
-148.438 -234.375 1632
-195.312 -257.812 1333
-39.0625 -406.25 1317
210.938 421.875 1843
140.625 382.812 1579
132.812 -257.812 1415
31.25 242.188 1655
281.25 -320.312 3300
-125 242.188 1557
-195.312 -210.938 1297
421.875 -234.375 3433
-210.938 281.25 1564
-203.125 320.312 1671
-226.562 125 1307
-234.375 62.5 1197
-210.938 -70.3125 1322
-242.188 -31.25 1193
85.9375 -164.062 1496
-484.375 101.562 1926
-429.688 250 1705
-242.188 -23.4375 1193
156.25 343.75 1489
-312.5 93.75 2349
210.938 437.5 1823
-437.5 156.25 1833
7.8125 -429.688 1292
179.688 125 1250
-304.688 359.375 1616
281.25 -109.375 1489
-171.875 250 1564
93.75 226.562 1365
132.812 -265.625 1410
101.562 367.188 1550
-78.125 296.875 1722
-242.188 257.812 1489
-23.4375 265.625 1632
-62.5 -187.5 1509
-414.062 -195.312 1145
164.062 -414.062 3149
-242.188 -148.438 1153
-460.938 62.5 2028
93.75 351.562 1557
117.188 -203.125 1464
-234.375 -164.062 1157
-492.188 -367.188 1138
-242.188 -7.8125 1227
-195.312 242.188 1624
187.5 257.812 1381
-46.875 -398.438 1322
-265.625 187.5 1748
-187.5 -273.438 1381
-62.5 -164.062 1503
-187.5 -125 1410
132.812 -351.562 1333
-359.375 179.688 1713
-164.062 242.188 1572
-296.875 85.9375 2065
-460.938 -156.25 1115
-414.062 -187.5 1153
-421.875 62.5 2053
-242.188 -132.812 1126
-156.25 257.812 1550
-492.188 187.5 1470
-54.6875 -304.688 1398
-171.875 -171.875 1509
85.9375 257.812 1671
-500 -421.875 1288
156.25 -390.625 1302
140.625 -304.688 1376
132.812 -250 1421
-39.0625 304.688 1722
484.375 -156.25 2701
-281.25 281.25 1705
-54.6875 -281.25 1421
-421.875 -179.688 1161
-70.3125 328.125 1688
-187.5 -156.25 1404
-343.75 203.125 1688
117.188 226.562 1359
-226.562 109.375 1292
117.188 328.125 1496
117.188 148.438 1278
-273.438 70.3125 2053
-484.375 132.812 1894
-46.875 -351.562 1365
-46.875 -335.938 1370
437.5 -210.938 3433
-39.0625 -429.688 1302
-437.5 -382.812 1297
-359.375 -195.312 1185
62.5 250 1853
-39.0625 281.25 1748
-78.125 250 1609
-218.75 -39.0625 1278
117.188 -187.5 1477
-406.25 -203.125 1141
-382.812 62.5 2078
-234.375 -23.4375 1250
-93.75 250 1594
-226.562 117.188 1302
85.9375 382.812 1601
250 148.438 2381
-242.188 -46.875 1181
-406.25 -210.938 1141
484.375 -351.562 3010
328.125 101.562 1185
-234.375 250 1477
125 -210.938 1464
179.688 117.188 1197
-46.875 -375 1343
-85.9375 273.438 1601
-93.75 343.75 1655
-281.25 164.062 1766
-62.5 -226.562 1470
-62.5 -242.188 1464
-312.5 250 1680
-320.312 101.562 2005
-460.938 171.875 1785
148.438 -351.562 1333
226.562 156.25 1273
-476.562 203.125 1671
-343.75 195.312 1705
-218.75 250 1489
-179.688 -156.25 1464
250 195.312 2301
-203.125 -117.188 1338
78.125 414.062 1624
-492.188 -46.875 1197
218.75 -351.562 3300
-93.75 265.625 1601
250 156.25 2381
-375 -179.688 1157
-250 -46.875 1181
-46.875 -382.812 1343
-359.375 171.875 1722
273.438 -257.812 3468
-171.875 234.375 1586
-476.562 -117.188 1134
-218.75 257.812 1489
-312.5 101.562 1993
-304.688 218.75 1663
31.25 296.875 1766
-234.375 304.688 1550
-171.875 -296.875 1445
-164.062 -179.688 1516
125 -414.062 1288
-54.6875 -296.875 1410
46.875 -23.4375 1292
-62.5 -203.125 1489
437.5 -234.375 3365
359.375 -218.75 3433
-500 -234.375 1223
46.875 421.875 1813
-226.562 257.812 1489
-234.375 85.9375 1268
-226.562 93.75 1273
93.75 328.125 1543
-195.312 -101.562 1376
140.625 -296.875 1381
-187.5 257.812 1766
-273.438 296.875 1680
-195.312 -203.125 1297
289.062 -226.562 3539
-476.562 125 1904
-132.812 359.375 1624
-164.062 -195.312 1543
-226.562 328.125 1594
437.5 -312.5 3178
39.0625 296.875 1766
-23.4375 -453.125 1328
62.5 -312.5 1365
195.312 -234.375 3539
-195.312 -140.625 1392
414.062 -203.125 3468
-117.188 328.125 1680
-382.812 -179.688 1153
-70.3125 250 1624
-101.562 296.875 1722
179.688 132.812 1255
210.938 218.75 1343
39.0625 414.062 1624
-46.875 -406.25 1322
85.9375 281.25 1632
-226.562 -46.875 1283
492.188 -281.25 2812
273.438 179.688 2317
-359.375 187.5 1705
164.062 328.125 1458
-210.938 -62.5 1307
-218.75 226.562 1470
-296.875 164.062 1776
460.938 -78.125 3092
453.125 -195.312 3468
484.375 -343.75 3010
109.375 -171.875 1489
273.438 -132.812 1529
54.6875 289.062 1757
-93.75 164.062 1273
85.9375 437.5 1671
70.3125 445.312 1696
-62.5 -218.75 1477
-265.625 109.375 1317
-265.625 242.188 1739
-156.25 -218.75 1594
39.0625 -304.688 1376
7.8125 281.25 1776
-453.125 -351.562 1232
-210.938 210.938 1503
-179.688 -273.438 1381
-343.75 171.875 1731
-429.688 265.625 1680
-265.625 203.125 1731
-320.312 -125 1115
-187.5 -132.812 1421
78.125 257.812 1671
-39.0625 -375 1338
-414.062 -359.375 1338
-257.812 265.625 1731
70.3125 273.438 1833
-226.562 62.5 1193
210.938 429.688 1823
117.188 -179.688 1489
-117.188 328.125 1680
-265.625 195.312 1739
-226.562 78.125 1264
-203.125 -78.125 1328
-179.688 -148.438 1452
-218.75 218.75 1477
-414.062 -367.188 1338
46.875 -460.938 1370
-101.562 273.438 1594
125 -203.125 1639
-62.5 -210.938 1483
-500 -304.688 1169
-54.6875 -289.062 1415
-187.5 -54.6875 1302
-242.188 -54.6875 1181
351.562 -179.688 3539
-39.0625 375 1624
93.75 289.062 1594
-398.438 -226.562 1189
-218.75 -78.125 1328
-210.938 -54.6875 1297
-226.562 101.562 1288
-15.625 -468.75 1404
31.25 -421.875 1288
-257.812 -23.4375 1193
-460.938 -46.875 1189
-46.875 -375 1343
257.812 -203.125 1680
-414.062 -382.812 1328
-203.125 242.188 1624
-234.375 218.75 1439
-312.5 109.375 1993
-54.6875 -273.438 1433
-39.0625 -390.625 1322
54.6875 242.188 1616
-218.75 242.188 1496
-234.375 203.125 1421
-304.688 250 1688
296.875 -46.875 1392
-62.5 265.625 1794
-367.188 101.562 1993
-429.688 -375 1312
-429.688 -320.312 1232
-62.5 -195.312 1509
125 421.875 1632
-453.125 -46.875 1189
-62.5 -250 1452
-296.875 218.75 1671
148.438 367.188 1529
156.25 -382.812 1312
132.812 -250 1421
-54.6875 -281.25 1421
-148.438 -226.562 1624
187.5 -234.375 3539
-171.875 -187.5 1529
-375 62.5 2065
-109.375 265.625 1594
-453.125 148.438 1794
-179.688 -171.875 1445
-257.812 195.312 1404
-210.938 304.688 1564
-179.688 242.188 1601
31.25 312.5 1739
-226.562 148.438 1333
453.125 -304.688 3092
164.062 179.688 1302
-210.938 187.5 1370
-140.625 218.75 1564
289.062 -78.125 1427
-335.938 164.062 1757
-312.5 101.562 1993
171.875 281.25 1421
-70.3125 257.812 1601
-62.5 -203.125 1489
70.3125 -421.875 1288
93.75 226.562 1365
-218.75 -195.312 1210
-78.125 257.812 1601
-445.312 203.125 1748
-171.875 265.625 1557
-203.125 -226.562 1302
-187.5 -226.562 1359
54.6875 429.688 1813
-93.75 265.625 1601
-171.875 -171.875 1509
421.875 -242.188 3365
-171.875 -304.688 1445
-242.188 -62.5 1181
-39.0625 -429.688 1302
-195.312 -203.125 1297
-187.5 -125 1410
-234.375 187.5 1398
-218.75 -31.25 1264
132.812 -257.812 1415
-468.75 78.125 1993
-234.375 -39.0625 1193
-367.188 -203.125 1177
-265.625 0 1210
0 226.562 1647
203.125 226.562 1343
-437.5 -359.375 1297
-242.188 148.438 1333
156.25 -390.625 1302
179.688 289.062 1427
-312.5 93.75 2349
-250 -70.3125 1165
-296.875 85.9375 2065
-492.188 -265.625 1202
210.938 109.375 1193
85.9375 234.375 1624
273.438 -140.625 1529
484.375 -375 3010
-453.125 -320.312 1250
140.625 -289.062 3399
-234.375 195.312 1415
-453.125 -375 1292
171.875 156.25 1278
-164.062 -320.312 1496
-156.25 -335.938 1557
-273.438 210.938 1705
31.25 406.25 1632
-210.938 281.25 1564
-7.8125 -320.312 1376
-226.562 78.125 1264
125 234.375 1359
-164.062 -203.125 1564
-226.562 70.3125 1250
-156.25 -210.938 1586
164.062 187.5 1312
289.062 171.875 2365
-320.312 101.562 2005
-85.9375 -250 1688
-218.75 -78.125 1328
-203.125 -117.188 1338
-210.938 -218.75 1273
-93.75 281.25 1594
-343.75 -125 1115
-203.125 234.375 1579
234.375 -226.562 3539
-218.75 210.938 1439
-492.188 -414.062 1297
-250 -78.125 1165
7.8125 273.438 1776
54.6875 -117.188 1445
-195.312 -132.812 1415
-203.125 250 1616
-296.875 -218.75 1232
-476.562 -312.5 1307
-242.188 -351.562 1550
187.5 109.375 1197
-46.875 -359.375 1354
-148.438 273.438 1550
117.188 -171.875 1489
-226.562 -54.6875 1288
156.25 -414.062 1307
-234.375 -31.25 1193
109.375 -140.625 1496
-265.625 187.5 1748
-226.562 -93.75 1273
-164.062 -187.5 1529
-226.562 -15.625 1241
-195.312 -242.188 1297
-15.625 -460.938 1365
-398.438 -234.375 1197
-234.375 -171.875 1185
-62.5 -187.5 1509
78.125 421.875 1639
-210.938 -93.75 1307
-85.9375 -234.375 1647
-242.188 -23.4375 1193
-203.125 -78.125 1328
-343.75 -210.938 1185
-39.0625 -414.062 1312
-226.562 140.625 1322
-460.938 -343.75 1236
171.875 304.688 1427
-7.8125 -468.75 1359
125 -195.312 1616
-210.938 335.938 1601
-54.6875 -289.062 1415
335.938 -257.812 3399
-171.875 218.75 1572
125 -156.25 1536
-460.938 -312.5 1273
-476.562 210.938 1647
-242.188 164.062 1349
-312.5 218.75 1663
-414.062 -375 1333
226.562 429.688 1823
-195.312 203.125 1601
-148.438 -320.312 1557
492.188 -15.625 2541
-375 -234.375 1181
-156.25 -218.75 1594
-281.25 226.562 1705
-445.312 140.625 1823
-265.625 203.125 1731
-195.312 281.25 1601
-164.062 203.125 1572
-203.125 -85.9375 1349
-242.188 -156.25 1153
-70.3125 312.5 1722
-226.562 85.9375 1268
125 -210.938 1464
-210.938 -54.6875 1297
31.25 -320.312 1365
62.5 312.5 1739
-421.875 -257.812 1302
-62.5 234.375 1594
-62.5 281.25 1766
-414.062 164.062 1863
-148.438 234.375 1564
-46.875 382.812 1624
-468.75 -46.875 1193
-93.75 -250 1680
117.188 -132.812 1483
117.188 -164.062 1550
-421.875 234.375 1739
-257.812 179.688 1392
117.188 234.375 1359
109.375 296.875 1452
-304.688 218.75 1663
-382.812 -273.438 1322
-226.562 132.812 1312
195.312 242.188 1365
-406.25 195.312 1731
-273.438 78.125 1259
-367.188 -187.5 1177
-257.812 210.938 1427
31.25 164.062 1302
-187.5 -273.438 1381
195.312 250 1381
-460.938 195.312 1776
-242.188 140.625 1328
-203.125 328.125 1663
-273.438 210.938 1705
-171.875 210.938 1572
-226.562 -187.5 1210
-289.062 250 1696
-195.312 -250 1328
62.5 437.5 1680
-242.188 117.188 1302
7.8125 265.625 1663
-242.188 218.75 1439
-226.562 117.188 1302
-351.562 195.312 1680
-226.562 156.25 1343
-54.6875 -265.625 1433
-85.9375 132.812 1288
-187.5 -257.812 1333
-273.438 54.6875 1185
-273.438 179.688 1748
140.625 -226.562 1688
140.625 -296.875 1381
242.188 -226.562 3539
453.125 -328.125 3092
93.75 343.75 1543
-54.6875 -296.875 1410
-210.938 -210.938 1278
-46.875 -390.625 1322
-242.188 -78.125 1181
492.188 -171.875 2723
-218.75 195.312 1370
179.688 132.812 1255
-148.438 -343.75 1557
-226.562 62.5 1193
-273.438 62.5 1245
-101.562 195.312 1354
-460.938 -320.312 1259
-250 -109.375 1145
85.9375 -421.875 1288
-156.25 203.125 1572
-359.375 -210.938 1185
156.25 203.125 1328
226.562 78.125 1202
54.6875 -23.4375 1297
-398.438 -320.312 1264
23.4375 -312.5 1370
468.75 -125 3092
-406.25 78.125 1993
-179.688 -148.438 1452
109.375 -148.438 1516
-250 -93.75 1145
-265.625 179.688 1748
-54.6875 -281.25 1421
109.375 242.188 1601
-179.688 -140.625 1439
125 -203.125 1639
281.25 -140.625 1586
265.625 187.5 2317
140.625 -281.25 3399
-242.188 109.375 1297
-453.125 156.25 1804
156.25 351.562 1516
-242.188 -15.625 1236
78.125 -85.9375 1268
-171.875 -164.062 1483
179.688 140.625 1264
23.4375 164.062 1288
-289.062 218.75 1680
-359.375 -132.812 1115
-218.75 -31.25 1264
226.562 164.062 1288
-367.188 -289.062 1354
-148.438 -281.25 1579
-171.875 -187.5 1529
-406.25 -132.812 1119
-195.312 289.062 1722
437.5 -148.438 3468
-234.375 296.875 1536
-234.375 -15.625 1241
-468.75 -359.375 1278
-164.062 -187.5 1529
273.438 164.062 2365
156.25 -375 1317
-187.5 -296.875 1421
-218.75 226.562 1470
-218.75 -203.125 1227
-320.312 -125 1115
-460.938 -39.0625 1214
-335.938 -195.312 1189
304.688 -15.625 1333
-195.312 -187.5 1349
132.812 226.562 1359
-93.75 273.438 1601
-476.562 -375 1333
85.9375 375 1586
-500 257.812 1579
39.0625 289.062 1785
-343.75 -132.812 1112
-242.188 -85.9375 1181
-54.6875 -304.688 1398
-54.6875 -273.438 1433
70.3125 250 1853
-46.875 -375 1343
-500 -359.375 1138
-179.688 -273.438 1381
-460.938 -351.562 1259
-414.062 226.562 1757
125 429.688 1813
328.125 93.75 1197
242.188 -125 1516
-242.188 93.75 1278
-335.938 70.3125 2078
140.625 -289.062 3399
-70.3125 -171.875 1516
171.875 312.5 1445
-62.5 -203.125 1489
-453.125 -156.25 1115
234.375 140.625 1259
476.562 -140.625 3064
-281.25 78.125 2065
-85.9375 250 1601
476.562 -148.438 3037
-226.562 304.688 1550
492.188 -164.062 2701
257.812 187.5 2317
484.375 -31.25 2579
-46.875 -367.188 1343
-351.562 -132.812 1112
-234.375 -31.25 1193
359.375 -210.938 3433
-351.562 -148.438 1112
93.75 -78.125 1273
-226.562 109.375 1292
250 195.312 2301
-281.25 -117.188 1115
156.25 -382.812 1312
296.875 -54.6875 1398
-492.188 148.438 1458
-39.0625 -359.375 1349
-203.125 335.938 1655
-359.375 -257.812 1189
-250 -117.188 1134
-484.375 109.375 1926
-195.312 -132.812 1415
-125 195.312 1354
-500 -46.875 1185
85.9375 414.062 1632
-140.625 -289.062 3468
-257.812 -132.812 1119
-203.125 -78.125 1328
-234.375 179.688 1365
-476.562 -328.125 1245
-367.188 -195.312 1185
-343.75 179.688 1722
109.375 250 1470
-156.25 -203.125 1564
-46.875 234.375 1853
-312.5 101.562 1993
-187.5 -218.75 1359
-343.75 187.5 1722
109.375 320.312 1496
-242.188 -70.3125 1181
476.562 -46.875 2984
93.75 250 1680
-140.625 210.938 1564
-265.625 117.188 1317
-148.438 -226.562 1624
-281.25 179.688 1748
-187.5 -125 1410
-320.312 101.562 2005
-15.625 218.75 1354
-226.562 148.438 1333
-242.188 -140.625 1126
-46.875 -351.562 1365
-445.312 171.875 1813
-414.062 -382.812 1328
39.0625 -460.938 1370
-398.438 187.5 1722
226.562 210.938 2256
93.75 -453.125 1365
-195.312 296.875 1713
-195.312 -195.312 1415
-54.6875 210.938 1354
-289.062 164.062 1776
132.812 -367.188 1322
-500 140.625 1458
-203.125 -234.375 1297
-210.938 312.5 1579
-453.125 195.312 1785
-382.812 -226.562 1173
-203.125 312.5 1579
-382.812 62.5 2078
-460.938 -398.438 1292
-156.25 250 1564
-164.062 359.375 1632
-117.188 304.688 1713
-156.25 359.375 1624
-187.5 -117.188 1392
-210.938 -93.75 1307
-429.688 179.688 1813
-226.562 101.562 1288
250 -226.562 3539
31.25 140.625 1283
-367.188 62.5 2040
117.188 -148.438 1523
-468.75 -156.25 1115
39.0625 140.625 1283
445.312 -226.562 3333
-187.5 -265.625 1381
-343.75 -156.25 1126
-195.312 351.562 1632
85.9375 -320.312 1354
62.5 -312.5 1365
-500 -234.375 1223
-164.062 -304.688 1445
-421.875 242.188 1722
-218.75 -78.125 1328
-156.25 -218.75 1594
-210.938 195.312 1370
-273.438 78.125 1259
-78.125 304.688 1722
468.75 -140.625 3064
39.0625 398.438 1632
-203.125 226.562 1624
-54.6875 -265.625 1433
-257.812 234.375 1458
-406.25 -39.0625 1193
484.375 -335.938 2958
31.25 343.75 1688
-234.375 -164.062 1157
-23.4375 -453.125 1328
187.5 226.562 1354
-171.875 -164.062 1483
-226.562 125 1307
-328.125 -257.812 1312
-46.875 -382.812 1343
296.875 39.0625 1264
-179.688 -140.625 1439
-218.75 187.5 1370
-218.75 218.75 1477
-46.875 -359.375 1354
-78.125 234.375 1586
-203.125 265.625 1572
-46.875 -328.125 1381
-414.062 -328.125 1241
-195.312 -93.75 1365
187.5 117.188 1197
289.062 -304.688 3333
187.5 273.438 1404
-203.125 -226.562 1302
-242.188 -93.75 1145
-242.188 0 1219
-242.188 -39.0625 1193
-320.312 -203.125 1206
-15.625 210.938 1354
-54.6875 -179.688 1509
62.5 -304.688 1376
-281.25 85.9375 2065
343.75 -226.562 3468
-500 171.875 1464
-31.25 -445.312 1302
-382.812 -203.125 1153
242.188 -234.375 3539
-226.562 85.9375 1268
140.625 390.625 1586
164.062 195.312 1322
-210.938 320.312 1579
296.875 -46.875 1392
445.312 -289.062 3092
164.062 335.938 1489
-335.938 171.875 1748
-62.5 226.562 1594
-492.188 156.25 1458
312.5 15.625 1297
-273.438 70.3125 2053
-460.938 -375 1292
-187.5 -148.438 1410
343.75 -312.5 3300
-296.875 93.75 2365
39.0625 -132.812 1464
-343.75 -125 1115
93.75 414.062 1624
281.25 -117.188 1503
-265.625 54.6875 1177
289.062 -85.9375 1458
-265.625 210.938 1731
-210.938 -218.75 1273
-367.188 312.5 1639
85.9375 234.375 1624
-406.25 62.5 2065
-492.188 -273.438 1189
-242.188 -23.4375 1193
-234.375 -156.25 1153
281.25 -109.375 1489
70.3125 234.375 1609
-46.875 210.938 1354
62.5 242.188 1609
23.4375 -421.875 1288
93.75 429.688 1655
-39.0625 242.188 1843
-226.562 140.625 1322
-117.188 140.625 1302
-156.25 242.188 1572
-70.3125 242.188 1624
-484.375 140.625 1883
-226.562 132.812 1312
132.812 -250 1421
125 -187.5 1601
242.188 203.125 2256
125 -195.312 1616
125 -195.312 1616
-351.562 -203.125 1193
-78.125 226.562 1579
-257.812 -351.562 1543
132.812 -171.875 1572
101.562 265.625 1523
-265.625 -351.562 1550
-281.25 -117.188 1115
-46.875 -343.75 1370
109.375 -31.25 1317
-210.938 328.125 1601
468.75 -62.5 3010
-398.438 195.312 1713
-195.312 -101.562 1376
156.25 -375 1317
164.062 328.125 1458
460.938 -117.188 3092
-250 70.3125 1255
-500 -296.875 1177
-406.25 210.938 1713
-304.688 -31.25 1189
-218.75 179.688 1359
-187.5 -195.312 1415
-164.062 195.312 1359
-39.0625 -437.5 1302
242.188 -265.625 3468
-54.6875 -273.438 1433
375 -257.812 3399
109.375 343.75 1516
-234.375 -23.4375 1250
-375 -171.875 1145
140.625 -281.25 3399
-296.875 85.9375 2065
-265.625 62.5 1245
-7.8125 -468.75 1359
-210.938 289.062 1550
-179.688 -218.75 1483
-242.188 101.562 1288
210.938 70.3125 1206
-210.938 -46.875 1283
46.875 429.688 1804
-210.938 234.375 1470
70.3125 445.312 1696
-226.562 117.188 1302
437.5 -367.188 3149
-39.0625 -421.875 1302
-210.938 304.688 1564
226.562 210.938 2256
210.938 210.938 1333
-390.625 -210.938 1169
-187.5 203.125 1601
-195.312 210.938 1586
304.688 -23.4375 1338
-492.188 -242.188 1259
484.375 -359.375 3037
-187.5 -117.188 1392
171.875 171.875 1292
-46.875 -351.562 1365
-484.375 203.125 1647
-156.25 226.562 1564
171.875 164.062 1288
-414.062 -375 1333
-289.062 218.75 1680
-140.625 -296.875 1586
-195.312 -109.375 1387
-218.75 -23.4375 1255
-203.125 -109.375 1381
148.438 375 1915
-312.5 -242.188 1232
-210.938 375 1624
-289.062 85.9375 2065
328.125 85.9375 1202
-257.812 226.562 1452
273.438 179.688 2317
-54.6875 -265.625 1433
-343.75 203.125 1688
-203.125 -70.3125 1322
-210.938 -54.6875 1297
164.062 187.5 1312
-351.562 -351.562 1288
-148.438 -234.375 1632
-156.25 -203.125 1564
-179.688 -218.75 1483
-179.688 -226.562 1477
-250 -125 1130
-328.125 -226.562 1219
-437.5 164.062 1833
484.375 -148.438 2701
-296.875 93.75 2365
-437.5 -390.625 1297
-359.375 -359.375 1288
156.25 -421.875 1312
148.438 343.75 1509
-250 -351.562 1550
-359.375 -335.938 1283
-398.438 179.688 1731
437.5 187.5 2317
-54.6875 -281.25 1421
-203.125 -218.75 1312
117.188 250 1421
-54.6875 218.75 1594
-375 -187.5 1173
-93.75 265.625 1601
-210.938 296.875 1543
-70.3125 250 1624
-226.562 78.125 1264
125 -203.125 1639
265.625 156.25 2381
-171.875 203.125 1579
-210.938 312.5 1579
-156.25 367.188 1624
-164.062 242.188 1572
-460.938 -421.875 1333
109.375 218.75 1349
218.75 218.75 2241
109.375 296.875 1452
257.812 -203.125 1680
109.375 281.25 1439
-242.188 -117.188 1134
-226.562 62.5 1193
-390.625 -343.75 1250
-242.188 218.75 1439
-226.562 -46.875 1283
-265.625 62.5 1245
-492.188 -289.062 1185
-164.062 -187.5 1529
-171.875 218.75 1572
140.625 226.562 1359
-164.062 218.75 1572
-406.25 70.3125 2028
132.812 414.062 1632
-62.5 218.75 1594
281.25 -125 1529
-242.188 -101.562 1181
-179.688 -281.25 1410
-226.562 101.562 1288
-179.688 -164.062 1483
-437.5 -382.812 1297
140.625 -281.25 3399
-218.75 -70.3125 1322
-476.562 -156.25 1112
-414.062 218.75 1766
-468.75 -343.75 1245
-484.375 140.625 1883
-171.875 187.5 1359
101.562 375 1564
70.3125 -62.5 1283
-328.125 -250 1197
-414.062 226.562 1757
-476.562 -39.0625 1210
-195.312 195.312 1616
-148.438 242.188 1564
-250 234.375 1458
101.562 351.562 1536
-445.312 140.625 1823
-62.5 -179.688 1516
-179.688 -210.938 1477
125 226.562 1359
375 -320.312 3238
-218.75 148.438 1328
-15.625 218.75 1354
156.25 -406.25 1312
273.438 -148.438 1572
117.188 296.875 1452
-281.25 85.9375 2065
-195.312 242.188 1624
218.75 437.5 1813
453.125 -242.188 3208
-171.875 -156.25 1470
117.188 242.188 1452
-476.562 226.562 1688
-296.875 -218.75 1232
93.75 218.75 1354
-351.562 -125 1115
-203.125 343.75 1632
-171.875 -179.688 1516
62.5 -23.4375 1297
-195.312 304.688 1696
-195.312 203.125 1601
-359.375 -195.312 1185
-78.125 343.75 1663
-406.25 -187.5 1145
-406.25 78.125 1993
164.062 109.375 1193
-46.875 -343.75 1370
-468.75 187.5 1776
-226.562 109.375 1292
-242.188 -148.438 1153
-93.75 304.688 1713
-54.6875 -242.188 1458
-62.5 242.188 1655
-210.938 273.438 1529
117.188 265.625 1421
-226.562 257.812 1489
156.25 -375 1317
-85.9375 343.75 1663
132.812 406.25 1609
-218.75 343.75 1624
-265.625 242.188 1739
-203.125 257.812 1616
-210.938 343.75 1632
125 265.625 1421
-179.688 -140.625 1439
492.188 -164.062 2701
-226.562 93.75 1273
-164.062 -195.312 1543
-320.312 -218.75 1227
328.125 93.75 1197
140.625 -85.9375 1410
226.562 171.875 1292
-203.125 242.188 1624
-218.75 195.312 1370
-70.3125 -203.125 1489
156.25 406.25 1853
117.188 273.438 1445
296.875 -54.6875 1398
-484.375 -414.062 1307
-257.812 203.125 1410
117.188 226.562 1359
179.688 140.625 1264
-218.75 -31.25 1264
-242.188 -125 1130
-351.562 195.312 1680
-140.625 -312.5 3433
-226.562 85.9375 1268
195.312 250 1381
-70.3125 343.75 1663
-195.312 -125 1404
265.625 46.875 1250
-85.9375 351.562 1647
85.9375 406.25 1616
312.5 7.8125 1297
0 210.938 1354
-226.562 70.3125 1250
-484.375 218.75 1647
-148.438 -226.562 1624
476.562 -132.812 3092
234.375 148.438 1273
476.562 -54.6875 2984
117.188 257.812 1415
265.625 187.5 2317
-335.938 -257.812 1189
-320.312 -125 1115
117.188 281.25 1439
-242.188 -109.375 1181
-414.062 -179.688 1157
-304.688 -125 1115
-148.438 -218.75 1594
-195.312 -93.75 1365
-273.438 -117.188 1115
-296.875 218.75 1671
179.688 296.875 1427
-437.5 187.5 1785
-210.938 281.25 1564
101.562 335.938 1523
-289.062 164.062 1776
-359.375 -242.188 1193
-46.875 -359.375 1354
-140.625 -304.688 1586
-312.5 250 1680
-445.312 -359.375 1297
-164.062 -179.688 1516
-476.562 148.438 1853
-156.25 -203.125 1564
125 -218.75 1452
-203.125 -70.3125 1322
492.188 -218.75 2744
289.062 -93.75 1470
132.812 -304.688 1376
-179.688 -132.812 1427
132.812 367.188 1543
296.875 7.8125 1297
-210.938 -62.5 1307
-85.9375 265.625 1616
218.75 429.688 1823
125 -187.5 1601
-203.125 -109.375 1381
-54.6875 -265.625 1433
-171.875 226.562 1579
-54.6875 -320.312 1392
0 226.562 1647
-148.438 257.812 1550
-39.0625 -414.062 1312
-39.0625 -406.25 1317
-39.0625 203.125 1349
453.125 -218.75 3300
-312.5 -125 1115
-171.875 -164.062 1483
109.375 203.125 1333
-218.75 -70.3125 1322
-265.625 -164.062 1145
-210.938 -46.875 1283
-203.125 265.625 1572
-46.875 -328.125 1381
-414.062 -382.812 1328
125 -195.312 1616
-210.938 289.062 1550
187.5 125 1255
-62.5 -195.312 1509
-46.875 -320.312 1392
-242.188 62.5 1197
179.688 289.062 1427
164.062 140.625 1264
-492.188 140.625 1458
-226.562 242.188 1470
15.625 156.25 1273
-210.938 -85.9375 1343
179.688 148.438 1273
-78.125 148.438 1283
265.625 -179.688 1624
-484.375 -375 1328
156.25 359.375 1529
-46.875 -335.938 1370
234.375 437.5 1813
-62.5 148.438 1273
-265.625 70.3125 1245
296.875 -62.5 1410
-273.438 70.3125 2053
117.188 -156.25 1529
-164.062 -312.5 1489
-453.125 -359.375 1297
70.3125 -54.6875 1288
54.6875 -31.25 1292
-328.125 70.3125 2065
-195.312 -85.9375 1354
-226.562 -179.688 1219
117.188 250 1421
-187.5 -117.188 1392
203.125 437.5 1813
195.312 257.812 2143
-218.75 140.625 1317
-398.438 203.125 1713
-171.875 195.312 1359
-421.875 -351.562 1227
-171.875 -156.25 1470
187.5 281.25 2103
-54.6875 -257.812 1433
117.188 328.125 1496
445.312 -281.25 3120
-343.75 203.125 1688
-140.625 265.625 1550
203.125 234.375 1365
-46.875 -203.125 1483
-242.188 132.812 1317
-500 156.25 1458
23.4375 -468.75 1365
-226.562 -171.875 1185
-54.6875 -218.75 1470
-406.25 70.3125 2028
117.188 312.5 1470
-210.938 265.625 1503
-156.25 -328.125 1550
-70.3125 234.375 1594
23.4375 156.25 1278
-226.562 -46.875 1283
-148.438 -343.75 1557
-250 257.812 1489
-164.062 -195.312 1543
-492.188 125 1452
39.0625 -304.688 1376
-195.312 -250 1328
-54.6875 -250 1439
304.688 -281.25 3333
164.062 195.312 1322
-343.75 -140.625 1112
187.5 273.438 1404
70.3125 -304.688 1370
-203.125 -93.75 1359
-179.688 -226.562 1477
-187.5 -250 1328
-54.6875 -234.375 1464
-250 54.6875 1185
-195.312 -234.375 1297
-468.75 -328.125 1245
-304.688 93.75 2365
101.562 343.75 1523
-226.562 187.5 1359
109.375 257.812 1550
273.438 187.5 2317
-187.5 -210.938 1452
187.5 117.188 1197
-62.5 -171.875 1509
140.625 -273.438 3399
-85.9375 226.562 1572
140.625 -289.062 3399
-265.625 195.312 1739
-296.875 -156.25 1130
171.875 320.312 1458
-226.562 62.5 1193
-54.6875 -242.188 1458
312.5 -320.312 3300
-250 -101.562 1145
-62.5 -210.938 1483
-328.125 164.062 1766
-304.688 250 1688
421.875 187.5 2317
54.6875 437.5 1804
-289.062 250 1696
-203.125 250 1616
54.6875 -320.312 1359
-226.562 78.125 1264
-148.438 250 1564
-429.688 -367.188 1312
-218.75 -23.4375 1255
-203.125 -62.5 1312
-210.938 -39.0625 1278
-117.188 265.625 1572
-265.625 218.75 1722
-46.875 -203.125 1483
-289.062 85.9375 2065
117.188 234.375 1359
-382.812 125 1947
-476.562 132.812 1883
445.312 -312.5 3064
460.938 -312.5 3064
-218.75 132.812 1312
-195.312 312.5 1688
-312.5 101.562 1993
-343.75 -203.125 1189
-453.125 -398.438 1283
265.625 -109.375 1496
148.438 312.5 1464
-46.875 -351.562 1365
-218.75 -195.312 1210
-500 -375 1141
-70.3125 -218.75 1483
-210.938 -210.938 1278
-140.625 -242.188 1647
164.062 335.938 1489
-265.625 179.688 1748
203.125 242.188 2184
125 -179.688 1579
156.25 117.188 1197
140.625 398.438 1873
-257.812 117.188 1302
-39.0625 -367.188 1343
15.625 148.438 1278
-500 218.75 1503
-218.75 210.938 1439
117.188 289.062 1445
-210.938 296.875 1543
117.188 304.688 1464
-148.438 -218.75 1594
-257.812 210.938 1427
-46.875 -328.125 1381
-164.062 218.75 1572
-218.75 117.188 1297
-39.0625 -429.688 1302
-351.562 171.875 1722
-242.188 -62.5 1181
460.938 -85.9375 3092
218.75 195.312 1312
-460.938 70.3125 2005
-460.938 70.3125 2005
-234.375 -23.4375 1250
-195.312 -242.188 1297
-140.625 -320.312 1557
93.75 -78.125 1273
-320.312 -226.562 1227
117.188 218.75 1349
-273.438 -117.188 1115
-265.625 187.5 1748
-406.25 -343.75 1245
-164.062 -179.688 1516
-476.562 -312.5 1307
101.562 226.562 1354
273.438 -156.25 1586
-179.688 -132.812 1427
484.375 -320.312 2812
-351.562 -132.812 1112
-195.312 234.375 1663
164.062 203.125 1328
265.625 -187.5 1655
109.375 -296.875 1370
210.938 218.75 1343
78.125 437.5 1671
-156.25 -210.938 1586
-171.875 -296.875 1445
-195.312 -85.9375 1354
-171.875 -179.688 1516
-140.625 -328.125 1557
-203.125 -101.562 1370
-93.75 195.312 1349
-234.375 -164.062 1157
-164.062 210.938 1572
46.875 414.062 1609
-23.4375 -421.875 1302
101.562 -62.5 1307
-265.625 70.3125 1245
-460.938 203.125 1766
-218.75 -187.5 1210
257.812 148.438 2415
-226.562 -39.0625 1273
-109.375 250 1572
-320.312 -195.312 1193
39.0625 140.625 1283
148.438 -312.5 3399
-156.25 -195.312 1543
179.688 304.688 2065
179.688 109.375 1197
148.438 250 1381
-140.625 -234.375 1639
-148.438 218.75 1564
-39.0625 -398.438 1317
-273.438 218.75 1713
242.188 203.125 2256
-210.938 -39.0625 1278
-179.688 195.312 1359
-54.6875 -226.562 1464
484.375 -39.0625 2579
-390.625 62.5 2040
-398.438 85.9375 1993
-500 250 1557
484.375 -164.062 2701
-210.938 250 1489
-265.625 62.5 1245
-265.625 210.938 1731
-187.5 -257.812 1333
-226.562 -164.062 1245
-476.562 132.812 1883
-164.062 234.375 1564
93.75 320.312 1516
156.25 -359.375 1333
-171.875 -156.25 1470
-31.25 -359.375 1343
-210.938 -85.9375 1343
-359.375 -328.125 1302
-476.562 101.562 1936
-218.75 125 1307
101.562 -70.3125 1302
39.0625 156.25 1292
-406.25 -257.812 1302
-242.188 78.125 1264
-179.688 -156.25 1464
-218.75 140.625 1317
-31.25 -406.25 1307
-351.562 187.5 1705
179.688 148.438 1273
78.125 445.312 1696
-234.375 -31.25 1193
-492.188 156.25 1445
-39.0625 -406.25 1322
156.25 -382.812 1312
-54.6875 -234.375 1458
-148.438 257.812 1543
171.875 179.688 1307
-257.812 218.75 1739
