ply
format ascii 1.0
comment Created by Open3D
element vertex 2356
property double x
property double y
property double z
end_header
-406.25 -70.3125 1173
203.125 335.938 1557
101.562 125 1232
210.938 125 1236
109.375 101.562 1181
-242.188 265.625 1959
-117.188 273.438 1970
164.062 125 1241
-39.0625 54.6875 1219
-390.625 -265.625 992
187.5 296.875 1572
171.875 351.562 1579
101.562 273.438 1302
148.438 -328.125 1477
296.875 -203.125 1503
-453.125 31.25 1214
429.688 125 1232
-304.688 -296.875 1452
-23.4375 54.6875 1223
148.438 351.562 1477
273.438 -62.5 1572
335.938 226.562 1278
15.625 85.9375 1185
-62.5 46.875 1232
289.062 -85.9375 1564
-140.625 289.062 1970
296.875 125 1236
195.312 -312.5 1464
-109.375 -85.9375 1177
-476.562 328.125 1404
-328.125 -164.062 1307
-367.188 85.9375 1223
132.812 -203.125 1529
85.9375 78.125 1181
54.6875 429.688 1415
250 195.312 1236
-476.562 -93.75 1173
-484.375 328.125 1398
-359.375 46.875 1193
-70.3125 -39.0625 1189
296.875 -171.875 1523
-101.562 187.5 1915
7.8125 226.562 1278
-171.875 78.125 1185
-500 187.5 1259
-109.375 46.875 1227
117.188 320.312 1470
-414.062 109.375 1250
-70.3125 375 1572
304.688 -273.438 1477
140.625 406.25 1458
-226.562 -257.812 1439
320.312 414.062 1427
-7.8125 -39.0625 1185
23.4375 -257.812 3399
195.312 398.438 1470
226.562 390.625 1470
-343.75 -187.5 1297
-367.188 -250 1268
187.5 273.438 1292
-289.062 -156.25 1322
171.875 273.438 1292
218.75 359.375 1550
171.875 382.812 1509
-156.25 -148.438 1210
101.562 429.688 1433
23.4375 54.6875 1219
226.562 359.375 1536
453.125 -156.25 3399
-101.562 -125 1245
109.375 429.688 1439
273.438 421.875 1433
93.75 125 1232
289.062 -312.5 1458
164.062 445.312 1557
23.4375 -46.875 1181
46.875 390.625 1489
179.688 343.75 1594
-304.688 429.688 1550
164.062 109.375 1223
226.562 375 1496
46.875 289.062 1550
-85.9375 390.625 1550
-210.938 78.125 1185
257.812 406.25 1433
140.625 109.375 1214
132.812 398.438 1470
-429.688 39.0625 1202
210.938 -195.312 1516
148.438 406.25 1464
304.688 -281.25 1470
289.062 -117.188 1529
312.5 398.438 1445
-500 -109.375 1185
132.812 390.625 1470
39.0625 273.438 1283
-226.562 -234.375 1349
-476.562 31.25 1219
23.4375 234.375 1278
93.75 273.438 1292
-109.375 343.75 1639
273.438 414.062 1421
-468.75 31.25 1219
-312.5 -125 1210
-375 421.875 1427
234.375 375 1496
140.625 250 1288
78.125 421.875 1433
-234.375 70.3125 1181
7.8125 54.6875 1223
492.188 -125 3149
23.4375 -85.9375 1173
281.25 195.312 1236
46.875 421.875 1421
-500 304.688 1376
-296.875 -242.188 1278
117.188 -85.9375 1564
-148.438 296.875 1663
23.4375 421.875 1433
-242.188 -234.375 1359
85.9375 398.438 1470
179.688 164.062 1250
250 406.25 1433
476.562 -101.562 3300
-125 281.25 1970
156.25 250 1292
-164.062 281.25 1970
31.25 421.875 1433
93.75 289.062 1503
-70.3125 54.6875 1214
-195.312 -234.375 1359
-109.375 -117.188 1210
-382.812 -242.188 1264
203.125 -312.5 1464
-117.188 -117.188 1202
93.75 320.312 1477
335.938 398.438 1452
54.6875 421.875 1415
-109.375 312.5 1663
70.3125 273.438 1288
265.625 406.25 1439
23.4375 -54.6875 1181
-351.562 398.438 1445
234.375 398.438 1470
23.4375 -15.625 1202
-242.188 281.25 1894
-500 210.938 1273
85.9375 320.312 1477
23.4375 -39.0625 1185
296.875 -156.25 1529
203.125 -54.6875 1572
257.812 398.438 1470
304.688 125 1236
156.25 -390.625 3269
-140.625 -117.188 1210
-39.0625 -93.75 1169
328.125 -15.625 1333
-101.562 -78.125 1177
-492.188 328.125 1392
242.188 414.062 1427
117.188 429.688 1439
15.625 382.812 1359
-164.062 -93.75 1177
-93.75 140.625 1904
296.875 -31.25 1317
-359.375 -195.312 1288
-312.5 -156.25 1317
-414.062 62.5 1173
257.812 242.188 1288
164.062 -312.5 1470
-296.875 328.125 1794
-101.562 312.5 1655
-250 429.688 1496
164.062 406.25 1470
-460.938 -125 1288
62.5 273.438 1292
-296.875 -257.812 1278
-85.9375 -78.125 1177
-398.438 -257.812 1259
23.4375 0 1197
132.812 406.25 1470
296.875 382.812 1496
31.25 429.688 1439
15.625 414.062 1387
156.25 -312.5 1470
117.188 125 1232
140.625 289.062 1259
132.812 -46.875 1550
250 398.438 1470
156.25 273.438 1297
171.875 -46.875 1564
-23.4375 85.9375 1185
312.5 382.812 1503
31.25 132.812 1232
-125 382.812 1523
-250 46.875 1219
-31.25 54.6875 1241
23.4375 -31.25 1193
23.4375 -70.3125 1181
210.938 382.812 1503
39.0625 429.688 1415
117.188 398.438 1464
-140.625 39.0625 1245
-234.375 -265.625 1433
234.375 382.812 1489
187.5 398.438 1470
140.625 125 1232
39.0625 421.875 1415
156.25 -46.875 1557
-367.188 421.875 1421
-109.375 -70.3125 1181
-156.25 281.25 1970
-382.812 -265.625 1259
-148.438 429.688 1550
-109.375 429.688 1543
31.25 273.438 1292
15.625 375 1365
242.188 367.188 1529
281.25 -304.688 1458
242.188 390.625 1477
-460.938 328.125 1387
-273.438 -171.875 1509
171.875 -39.0625 1489
304.688 -265.625 1477
-54.6875 437.5 1564
289.062 -78.125 1557
296.875 -164.062 1529
-453.125 328.125 1349
-101.562 -148.438 1273
-320.312 -164.062 1307
-78.125 414.062 1543
-62.5 437.5 1564
273.438 195.312 1236
109.375 273.438 1283
-31.25 328.125 1843
-242.188 -242.188 1365
85.9375 421.875 1433
-117.188 257.812 1947
304.688 -15.625 1322
-335.938 -312.5 1477
109.375 406.25 1464
70.3125 351.562 1458
-46.875 429.688 1579
179.688 367.188 1550
117.188 -93.75 1572
242.188 375 1503
70.3125 125 1232
-250 -234.375 1365
289.062 351.562 1503
125 398.438 1470
312.5 -31.25 1317
-62.5 54.6875 1219
-101.562 421.875 1516
-351.562 -257.812 1268
-437.5 -140.625 1354
210.938 359.375 1543
-93.75 250 1959
-148.438 289.062 1981
31.25 210.938 1268
39.0625 390.625 1509
-335.938 46.875 1210
-85.9375 421.875 1550
-445.312 31.25 1219
218.75 375 1483
289.062 390.625 1483
-93.75 414.062 1536
250 250 1288
148.438 -46.875 1557
-164.062 312.5 1639
234.375 -203.125 1503
343.75 125 1241
-320.312 46.875 1206
226.562 -195.312 1503
31.25 390.625 1365
-367.188 -289.062 1477
304.688 31.25 1317
-367.188 -171.875 1297
23.4375 375 1365
203.125 328.125 1557
132.812 429.688 1439
179.688 382.812 1516
-148.438 296.875 1981
70.3125 421.875 1433
-148.438 54.6875 1214
-156.25 421.875 1516
148.438 109.375 1197
265.625 414.062 1410
23.4375 -62.5 1181
70.3125 429.688 1439
-460.938 335.938 1387
-492.188 -85.9375 1173
156.25 125 1236
-343.75 46.875 1210
62.5 429.688 1439
-421.875 -156.25 1398
296.875 -226.562 1496
-93.75 382.812 1536
23.4375 -23.4375 1193
-281.25 46.875 1223
15.625 398.438 1370
-93.75 -117.188 1227
-54.6875 398.438 1594
-23.4375 421.875 1616
-312.5 -234.375 1278
164.062 367.188 1470
-179.688 281.25 1970
-359.375 -125 1241
226.562 -23.4375 1477
156.25 109.375 1197
93.75 390.625 1427
109.375 421.875 1433
-226.562 -273.438 1445
-453.125 406.25 1550
-335.938 -125 1245
23.4375 -46.875 1181
23.4375 390.625 1365
-468.75 39.0625 1202
-132.812 382.812 1523
164.062 250 1288
15.625 125 1232
289.062 -85.9375 1557
304.688 -273.438 1477
343.75 429.688 1410
359.375 304.688 1410
125 429.688 1433
-242.188 304.688 1863
-265.625 390.625 1489
171.875 367.188 1550
-398.438 -265.625 1255
-367.188 -234.375 1273
23.4375 15.625 1206
23.4375 -78.125 1173
265.625 250 1288
109.375 312.5 1483
-351.562 46.875 1210
148.438 250 1288
289.062 375 1509
-367.188 -250 1268
-234.375 273.438 1959
125 250 1283
-171.875 281.25 1981
-171.875 -93.75 1177
171.875 -312.5 1470
0 312.5 1349
242.188 398.438 1464
242.188 398.438 1464
31.25 203.125 1264
-148.438 375 1529
85.9375 273.438 1288
-343.75 -210.938 1288
46.875 375 1496
-359.375 -257.812 1268
164.062 -125 1550
-234.375 -281.25 1445
117.188 406.25 1470
-500 406.25 1529
-15.625 54.6875 1232
-109.375 -125 1255
187.5 351.562 1579
226.562 398.438 1458
85.9375 390.625 1433
304.688 398.438 1464
-195.312 351.562 1647
296.875 -171.875 1523
-429.688 54.6875 1177
445.312 250 1278
101.562 398.438 1421
31.25 187.5 1255
7.8125 265.625 1288
164.062 351.562 1503
-289.062 46.875 1223
257.812 250 1283
257.812 328.125 1523
265.625 398.438 1464
-93.75 281.25 1970
23.4375 281.25 1307
289.062 -93.75 1557
414.062 359.375 1322
31.25 195.312 1255
-453.125 390.625 1392
-156.25 296.875 1981
304.688 -257.812 1477
-304.688 46.875 1210
328.125 398.438 1470
-382.812 39.0625 1214
218.75 -62.5 1572
-257.812 46.875 1219
31.25 367.188 1349
-148.438 -109.375 1189
-421.875 39.0625 1214
23.4375 429.688 1415
23.4375 421.875 1427
-78.125 54.6875 1219
-460.938 320.312 1343
281.25 -125 1543
-390.625 -132.812 1307
-320.312 414.062 1586
23.4375 273.438 1292
390.625 437.5 1381
23.4375 -7.8125 1197
281.25 414.062 1427
117.188 320.312 1483
-7.8125 54.6875 1232
85.9375 125 1232
265.625 429.688 1427
-109.375 -140.625 1268
296.875 367.188 1523
-101.562 203.125 1926
-351.562 -125 1241
-171.875 -234.375 1376
281.25 -54.6875 1586
273.438 414.062 1421
-328.125 -273.438 1268
171.875 398.438 1464
-328.125 414.062 1579
179.688 437.5 1433
78.125 125 1232
195.312 367.188 1543
164.062 -70.3125 1572
296.875 351.562 1496
31.25 171.875 1245
23.4375 289.062 1322
-117.188 265.625 1947
-132.812 -156.25 1259
210.938 398.438 1470
31.25 179.688 1250
156.25 382.812 1509
-367.188 390.625 1427
39.0625 367.188 1349
187.5 445.312 1564
414.062 179.688 1255
265.625 -39.0625 1550
148.438 367.188 1483
187.5 -312.5 1464
-109.375 -78.125 1177
78.125 429.688 1439
31.25 375 1349
250 375 1523
23.4375 -39.0625 1181
-328.125 328.125 1794
-312.5 117.188 1255
-117.188 343.75 1647
210.938 -70.3125 1564
-101.562 171.875 1904
23.4375 -85.9375 1173
242.188 -117.188 1543
-15.625 296.875 1936
-93.75 140.625 1259
242.188 -39.0625 1543
-125 367.188 1543
-304.688 335.938 1757
304.688 437.5 1572
-500 257.812 1509
-281.25 -289.062 1477
-273.438 -289.062 1477
85.9375 429.688 1433
-226.562 46.875 1223
-132.812 -164.062 1268
-117.188 273.438 1959
-226.562 -281.25 1445
296.875 343.75 1496
-156.25 -93.75 1177
-109.375 234.375 1947
-304.688 -195.312 1297
-500 23.4375 1210
-85.9375 -93.75 1173
-320.312 -203.125 1297
23.4375 78.125 1185
-304.688 -210.938 1292
210.938 421.875 1427
-101.562 226.562 1936
-148.438 312.5 1671
460.938 85.9375 1189
-117.188 46.875 1236
23.4375 367.188 1349
117.188 -70.3125 1586
54.6875 273.438 1292
445.312 -117.188 3433
468.75 46.875 1273
125 320.312 1483
93.75 421.875 1427
187.5 421.875 1433
210.938 414.062 1421
218.75 390.625 1483
93.75 429.688 1427
117.188 -101.562 1579
46.875 421.875 1415
39.0625 414.062 1445
140.625 -70.3125 1572
23.4375 -70.3125 1181
367.188 -148.438 3468
54.6875 414.062 1445
234.375 390.625 1477
-304.688 -312.5 1477
156.25 429.688 1433
-187.5 281.25 1970
-101.562 148.438 1883
-109.375 242.188 1959
210.938 273.438 1292
70.3125 109.375 1189
179.688 -312.5 1470
218.75 382.812 1503
-93.75 46.875 1236
-468.75 335.938 1398
210.938 -39.0625 1509
-93.75 429.688 1550
31.25 421.875 1439
218.75 -39.0625 1509
-500 31.25 1193
54.6875 429.688 1415
-296.875 -265.625 1278
179.688 125 1236
289.062 -101.562 1557
-125 273.438 1959
78.125 421.875 1433
23.4375 7.8125 1202
54.6875 421.875 1415
328.125 414.062 1445
218.75 421.875 1421
234.375 -31.25 1503
39.0625 296.875 1328
468.75 -132.812 3433
265.625 359.375 1536
-289.062 -179.688 1302
265.625 367.188 1529
203.125 382.812 1496
234.375 125 1236
101.562 367.188 1445
296.875 -156.25 1529
257.812 359.375 1536
296.875 -164.062 1529
-359.375 -226.562 1278
62.5 414.062 1458
-468.75 265.625 1312
-125 281.25 1970
289.062 -164.062 1523
-296.875 -250 1278
335.938 265.625 1292
460.938 -7.8125 1458
39.0625 421.875 1415
-54.6875 -78.125 1173
-468.75 289.062 1328
273.438 406.25 1452
171.875 406.25 1464
250 382.812 1503
164.062 289.062 1259
-156.25 312.5 1647
304.688 109.375 1193
-109.375 210.938 1926
-78.125 421.875 1572
-468.75 273.438 1322
218.75 273.438 1292
203.125 375 1523
31.25 210.938 1268
289.062 -78.125 1557
203.125 421.875 1427
-93.75 421.875 1536
281.25 406.25 1452
257.812 398.438 1470
46.875 429.688 1410
-187.5 406.25 1536
-101.562 -117.188 1193
-398.438 31.25 1214
351.562 125 1241
257.812 382.812 1496
-125 421.875 1516
-234.375 375 1680
-242.188 -234.375 1359
164.062 -39.0625 1523
164.062 -46.875 1557
101.562 429.688 1427
171.875 296.875 1586
31.25 203.125 1264
367.188 382.812 1359
296.875 -23.4375 1322
273.438 390.625 1470
-335.938 -140.625 1312
171.875 109.375 1193
23.4375 281.25 1307
31.25 54.6875 1232
-242.188 281.25 1959
156.25 -39.0625 1523
-335.938 296.875 1785
210.938 109.375 1193
265.625 109.375 1197
-445.312 375 1370
7.8125 -171.875 1477
-437.5 39.0625 1210
335.938 421.875 1452
-328.125 281.25 1833
304.688 -250 1477
242.188 382.812 1503
195.312 -312.5 1464
-187.5 -234.375 1365
-54.6875 54.6875 1227
289.062 414.062 1427
250 367.188 1529
125 421.875 1433
-226.562 -203.125 1354
289.062 421.875 1421
210.938 367.188 1536
375 265.625 1283
-109.375 281.25 1970
203.125 -39.0625 1503
257.812 414.062 1410
-343.75 -257.812 1268
164.062 343.75 1483
-296.875 -156.25 1317
-460.938 312.5 1312
273.438 398.438 1464
85.9375 421.875 1433
-109.375 265.625 1947
15.625 414.062 1387
31.25 218.75 1268
-242.188 31.25 1214
46.875 414.062 1439
-296.875 -226.562 1288
226.562 312.5 1529
203.125 250 1288
289.062 -85.9375 1557
343.75 265.625 1259
78.125 414.062 1470
-250 281.25 1947
31.25 226.562 1268
281.25 7.8125 1338
-359.375 -132.812 1312
-343.75 -125 1241
117.188 421.875 1433
117.188 429.688 1433
257.812 -39.0625 1516
62.5 421.875 1439
-195.312 -203.125 1387
148.438 390.625 1470
62.5 328.125 1470
203.125 -210.938 1503
-343.75 -203.125 1288
164.062 390.625 1503
171.875 312.5 1543
296.875 -148.438 1536
-398.438 39.0625 1214
-164.062 257.812 1959
117.188 -85.9375 1572
-484.375 289.062 1470
289.062 -171.875 1523
23.4375 187.5 1250
320.312 328.125 1509
273.438 250 1288
265.625 390.625 1470
359.375 85.9375 1193
-468.75 281.25 1328
-500 312.5 1359
117.188 -78.125 1579
39.0625 289.062 1328
-179.688 281.25 1970
117.188 -93.75 1572
-195.312 390.625 1543
-140.625 -93.75 1177
85.9375 406.25 1470
-93.75 148.438 1894
140.625 -46.875 1550
78.125 328.125 1470
-132.812 281.25 1970
54.6875 304.688 1523
320.312 382.812 1516
-85.9375 406.25 1543
304.688 367.188 1536
351.562 437.5 1398
-132.812 54.6875 1214
-218.75 46.875 1223
296.875 -140.625 1536
-23.4375 406.25 1655
132.812 328.125 1470
-101.562 218.75 1926
-367.188 -179.688 1297
-328.125 46.875 1210
234.375 367.188 1529
-156.25 296.875 1981
-195.312 281.25 1970
0 304.688 1322
328.125 390.625 1483
-39.0625 54.6875 1227
-359.375 -156.25 1302
265.625 382.812 1489
-132.812 382.812 1523
281.25 250 1283
-210.938 335.938 1647
273.438 351.562 1543
-62.5 359.375 1594
-62.5 390.625 1594
203.125 367.188 1536
218.75 359.375 1536
-289.062 39.0625 1236
140.625 429.688 1445
156.25 375 1470
156.25 390.625 1503
23.4375 -54.6875 1181
-492.188 234.375 1278
335.938 304.688 1509
-101.562 -125 1255
-78.125 -70.3125 1177
109.375 429.688 1433
85.9375 414.062 1445
-242.188 351.562 1722
296.875 -156.25 1529
304.688 -242.188 1483
-500 7.8125 1181
-359.375 -242.188 1273
-304.688 -203.125 1297
218.75 367.188 1536
179.688 390.625 1464
148.438 -46.875 1557
109.375 125 1232
-85.9375 7.8125 1206
31.25 140.625 1236
31.25 140.625 1236
-484.375 273.438 1509
195.312 273.438 1297
-257.812 296.875 1883
210.938 -312.5 1458
218.75 398.438 1464
93.75 414.062 1445
398.438 414.062 1365
39.0625 125 1232
31.25 132.812 1232
-101.562 156.25 1883
-70.3125 398.438 1572
-500 320.312 1370
148.438 429.688 1439
31.25 320.312 1333
-242.188 414.062 1601
-484.375 406.25 1550
140.625 445.312 1564
328.125 375 1503
312.5 31.25 1322
23.4375 375 1365
-226.562 54.6875 1202
-460.938 328.125 1387
-460.938 39.0625 1202
304.688 -273.438 1477
23.4375 289.062 1322
304.688 -265.625 1477
273.438 -39.0625 1550
312.5 343.75 1509
296.875 375 1503
289.062 -187.5 1509
250 -320.312 1464
-312.5 46.875 1206
70.3125 312.5 1496
-203.125 -218.75 1359
390.625 296.875 1307
226.562 414.062 1398
-312.5 -195.312 1297
-70.3125 -132.812 1288
226.562 382.812 1503
289.062 359.375 1529
-328.125 -125 1245
203.125 398.438 1470
-445.312 -210.938 3300
109.375 421.875 1433
257.812 367.188 1529
226.562 367.188 1483
-46.875 54.6875 1227
250 -39.0625 1509
31.25 210.938 1268
281.25 -78.125 1557
-125 -93.75 1173
31.25 414.062 1387
195.312 398.438 1470
0 54.6875 1232
195.312 -39.0625 1509
-132.812 -109.375 1197
226.562 -312.5 1452
-46.875 78.125 1181
304.688 -234.375 1496
132.812 429.688 1439
-78.125 -78.125 1177
273.438 -109.375 1543
-398.438 304.688 1421
-23.4375 54.6875 1236
343.75 359.375 1433
-54.6875 -93.75 1165
7.8125 101.562 1185
312.5 78.125 1197
414.062 85.9375 1189
-390.625 -148.438 1297
289.062 -109.375 1557
-296.875 46.875 1210
265.625 398.438 1464
148.438 -312.5 1470
-93.75 375 1564
7.8125 210.938 1268
31.25 195.312 1255
304.688 39.0625 1292
-492.188 289.062 1433
250 390.625 1489
210.938 -156.25 1529
-484.375 234.375 1273
62.5 125 1232
320.312 125 1236
-156.25 351.562 1609
328.125 289.062 1509
-320.312 281.25 1904
304.688 -296.875 1464
320.312 398.438 1464
226.562 375 1483
-265.625 289.062 1915
164.062 398.438 1477
171.875 187.5 1245
359.375 125 1236
132.812 375 1458
-164.062 304.688 1713
-117.188 39.0625 1245
335.938 125 1241
-31.25 421.875 1616
289.062 -70.3125 1564
476.562 -148.438 3433
304.688 312.5 1536
101.562 414.062 1445
312.5 109.375 1189
23.4375 281.25 1307
23.4375 421.875 1427
-265.625 -242.188 1489
273.438 109.375 1197
281.25 312.5 1529
195.312 382.812 1503
281.25 421.875 1427
-328.125 -250 1273
-156.25 304.688 1688
23.4375 414.062 1387
257.812 375 1523
15.625 429.688 1392
289.062 -78.125 1557
39.0625 406.25 1464
242.188 -320.312 1458
31.25 54.6875 1232
15.625 46.875 1245
203.125 273.438 1292
-226.562 -85.9375 1173
-476.562 335.938 1365
39.0625 429.688 1415
-62.5 304.688 1904
62.5 -203.125 3468
179.688 406.25 1464
250 375 1523
234.375 273.438 1288
-164.062 -117.188 1232
-101.562 242.188 1959
125 109.375 1185
148.438 421.875 1439
70.3125 421.875 1433
390.625 265.625 1292
-289.062 -132.812 1268
132.812 -312.5 1489
-140.625 343.75 1632
265.625 -312.5 1452
-234.375 -273.438 1439
117.188 414.062 1464
234.375 -203.125 1503
31.25 203.125 1264
296.875 -164.062 1529
0 351.562 1359
367.188 125 1241
148.438 382.812 1496
-78.125 -93.75 1177
23.4375 242.188 1283
250 359.375 1536
-296.875 -257.812 1278
0 343.75 1354
-156.25 343.75 1616
31.25 218.75 1268
46.875 328.125 1496
140.625 421.875 1439
-343.75 -226.562 1283
132.812 -304.688 1489
-367.188 -273.438 1268
234.375 -312.5 1452
0 367.188 1370
-476.562 257.812 1312
296.875 -148.438 1536
234.375 421.875 1427
273.438 367.188 1523
187.5 382.812 1503
62.5 406.25 1458
125 -46.875 1557
-460.938 -85.9375 1169
-414.062 39.0625 1210
484.375 70.3125 1223
-484.375 312.5 1433
328.125 382.812 1496
39.0625 414.062 1445
-101.562 234.375 1947
31.25 179.688 1250
179.688 -39.0625 1496
-328.125 -312.5 1470
125 85.9375 1181
-132.812 289.062 1970
23.4375 296.875 1322
-445.312 39.0625 1214
-46.875 -93.75 1165
-296.875 -234.375 1283
304.688 -281.25 1470
-320.312 -156.25 1312
289.062 406.25 1452
31.25 406.25 1381
31.25 39.0625 1210
265.625 375 1516
-296.875 -265.625 1278
-343.75 -171.875 1302
15.625 421.875 1392
195.312 375 1529
-460.938 398.438 1564
289.062 390.625 1483
226.562 -304.688 1452
226.562 359.375 1543
281.25 -46.875 1550
39.0625 132.812 1236
-117.188 265.625 1947
289.062 312.5 1529
257.812 406.25 1410
31.25 156.25 1241
0 296.875 1322
23.4375 304.688 1333
132.812 320.312 1483
78.125 406.25 1470
304.688 -242.188 1483
-156.25 296.875 1981
156.25 -46.875 1557
265.625 406.25 1445
304.688 -23.4375 1317
132.812 421.875 1433
109.375 414.062 1464
-179.688 320.312 1655
0 320.312 1343
101.562 351.562 1445
289.062 414.062 1427
-210.938 -210.938 1354
70.3125 414.062 1470
-171.875 312.5 1705
242.188 414.062 1439
-85.9375 -62.5 1181
296.875 -140.625 1536
187.5 -39.0625 1503
-304.688 398.438 1616
281.25 390.625 1477
109.375 390.625 1421
-179.688 312.5 1696
-460.938 296.875 1312
46.875 406.25 1452
-109.375 289.062 1970
312.5 328.125 1509
320.312 367.188 1536
-156.25 54.6875 1214
218.75 -312.5 1458
15.625 132.812 1236
210.938 406.25 1464
15.625 -140.625 1264
140.625 320.312 1483
304.688 250 1283
-242.188 -242.188 1365
-320.312 -125 1241
93.75 250 1283
62.5 85.9375 1181
304.688 -250 1477
140.625 -304.688 1489
234.375 132.812 1236
0 125 1241
117.188 -85.9375 1572
-234.375 281.25 1959
0 414.062 1392
250 -23.4375 1496
281.25 414.062 1427
218.75 382.812 1503
109.375 406.25 1464
296.875 -132.812 1536
304.688 335.938 1496
-125 -109.375 1197
234.375 -23.4375 1483
398.438 421.875 1365
-343.75 421.875 1464
179.688 203.125 1236
-93.75 312.5 1655
156.25 421.875 1433
234.375 375 1489
242.188 367.188 1529
195.312 335.938 1564
-85.9375 429.688 1550
273.438 382.812 1496
320.312 -15.625 1317
101.562 421.875 1427
39.0625 375 1509
-109.375 -70.3125 1181
179.688 351.562 1572
31.25 226.562 1268
296.875 -156.25 1529
-445.312 -132.812 1322
-101.562 54.6875 1227
-500 0 1181
140.625 414.062 1477
-156.25 304.688 1688
179.688 328.125 1523
210.938 382.812 1503
-164.062 328.125 1624
-484.375 210.938 1273
343.75 343.75 1452
-210.938 -140.625 1343
-164.062 304.688 1713
226.562 -39.0625 1503
117.188 328.125 1464
187.5 187.5 1250
-304.688 406.25 1586
-187.5 265.625 1970
62.5 359.375 1464
31.25 164.062 1241
23.4375 312.5 1333
-351.562 -203.125 1288
-296.875 -242.188 1273
31.25 234.375 1273
234.375 414.062 1427
-210.938 250 1947
-250 -265.625 1433
-195.312 250 1959
-500 289.062 1433
250 250 1288
46.875 414.062 1439
31.25 54.6875 1232
171.875 390.625 1464
-320.312 70.3125 1177
-359.375 -226.562 1278
23.4375 -70.3125 1181
304.688 -257.812 1477
-312.5 -296.875 1452
289.062 -70.3125 1564
31.25 148.438 1241
-343.75 -203.125 1288
-101.562 398.438 1529
-109.375 54.6875 1227
-31.25 132.812 1255
78.125 429.688 1439
31.25 343.75 1354
304.688 -46.875 1328
468.75 -109.375 3300
-437.5 -148.438 1387
-234.375 382.812 1663
289.062 -148.438 1536
-187.5 281.25 1970
-218.75 -234.375 1343
-226.562 78.125 1181
-117.188 382.812 1523
93.75 320.312 1477
265.625 367.188 1529
-85.9375 -78.125 1177
296.875 414.062 1427
367.188 296.875 1381
281.25 351.562 1543
-296.875 -195.312 1302
187.5 -54.6875 1586
156.25 -101.562 1557
-304.688 -125 1278
-93.75 -70.3125 1181
-125 281.25 1970
382.812 265.625 1288
-257.812 -273.438 1452
289.062 -62.5 1572
-164.062 312.5 1639
273.438 359.375 1523
390.625 273.438 1302
265.625 359.375 1536
101.562 406.25 1464
23.4375 312.5 1333
-500 398.438 1536
85.9375 406.25 1470
39.0625 406.25 1464
164.062 429.688 1433
-390.625 -132.812 1307
-101.562 382.812 1529
-367.188 -164.062 1297
234.375 398.438 1458
-500 -85.9375 1161
70.3125 335.938 1464
-468.75 -85.9375 1169
117.188 398.438 1464
31.25 242.188 1283
-101.562 226.562 1936
-101.562 320.312 1655
23.4375 320.312 1333
-476.562 265.625 1312
109.375 335.938 1458
-492.188 304.688 1349
164.062 335.938 1489
-15.625 85.9375 1185
296.875 250 1283
296.875 -179.688 1509
437.5 -39.0625 1536
-343.75 -242.188 1278
179.688 367.188 1550
-132.812 289.062 1970
-109.375 250 1947
-281.25 -296.875 1483
148.438 375 1483
93.75 414.062 1445
296.875 -242.188 1496
429.688 140.625 1236
179.688 375 1536
62.5 445.312 1572
23.4375 289.062 1322
171.875 429.688 1433
0 242.188 1278
304.688 -226.562 1496
39.0625 351.562 1503
-39.0625 312.5 1883
-93.75 148.438 1894
-140.625 289.062 1970
242.188 -125 1536
31.25 46.875 1245
234.375 -39.0625 1543
156.25 429.688 1433
289.062 -132.812 1536
-226.562 93.75 1193
-468.75 -117.188 1250
304.688 -234.375 1496
-398.438 -257.812 1259
7.8125 187.5 1255
281.25 -164.062 1523
117.188 -78.125 1579
203.125 109.375 1197
31.25 39.0625 1210
218.75 125 1236
125 429.688 1433
-296.875 -148.438 1317
218.75 -195.312 1509
0 46.875 1245
23.4375 7.8125 1202
203.125 -210.938 1503
203.125 382.812 1496
375 125 1241
-242.188 343.75 1722
242.188 375 1503
250 398.438 1470
-312.5 -148.438 1317
39.0625 320.312 1516
31.25 218.75 1268
179.688 195.312 1241
-398.438 46.875 1189
-460.938 304.688 1312
-179.688 117.188 1245
-375 39.0625 1214
0 382.812 1376
187.5 375 1536
171.875 -312.5 1470
-140.625 117.188 1236
195.312 429.688 1421
171.875 289.062 1259
406.25 375 1343
-484.375 296.875 1452
187.5 85.9375 1185
-7.8125 -93.75 1169
-460.938 312.5 1312
-70.3125 -93.75 1173
398.438 -296.875 3300
312.5 367.188 1543
23.4375 296.875 1322
265.625 382.812 1489
-62.5 367.188 1572
281.25 398.438 1464
-109.375 265.625 1947
-242.188 304.688 1863
484.375 -148.438 3208
-492.188 296.875 1445
15.625 429.688 1392
179.688 320.312 1536
148.438 -406.25 3238
296.875 -148.438 1536
406.25 390.625 1354
296.875 85.9375 1189
23.4375 281.25 1307
328.125 85.9375 1193
281.25 109.375 1193
289.062 15.625 1328
-289.062 328.125 1794
54.6875 406.25 1452
273.438 406.25 1452
343.75 414.062 1415
296.875 -140.625 1536
62.5 414.062 1458
171.875 343.75 1483
289.062 23.4375 1333
273.438 406.25 1452
125 414.062 1464
-93.75 156.25 1894
421.875 343.75 1322
-39.0625 39.0625 1250
-390.625 -125 1236
-367.188 -226.562 1278
78.125 414.062 1470
23.4375 328.125 1333
7.8125 -187.5 1516
-265.625 289.062 1915
-468.75 250 1312
31.25 195.312 1255
265.625 421.875 1415
-210.938 281.25 1947
46.875 421.875 1415
-156.25 429.688 1550
0 265.625 1292
296.875 289.062 1564
31.25 421.875 1439
15.625 445.312 1398
437.5 289.062 1292
164.062 328.125 1496
31.25 250 1283
0 375 1370
39.0625 335.938 1496
109.375 -78.125 1671
23.4375 304.688 1333
31.25 31.25 1210
-328.125 -242.188 1278
31.25 140.625 1236
398.438 281.25 1297
-125 -171.875 1288
281.25 -70.3125 1564
31.25 179.688 1250
23.4375 335.938 1338
-101.562 39.0625 1245
-171.875 148.438 1904
-70.3125 390.625 1543
23.4375 -7.8125 1197
-101.562 242.188 1959
15.625 -54.6875 1181
31.25 242.188 1283
320.312 242.188 1283
-62.5 -78.125 1173
23.4375 359.375 1354
109.375 367.188 1445
257.812 390.625 1477
7.8125 -78.125 1173
265.625 414.062 1410
-484.375 203.125 1273
-343.75 70.3125 1177
296.875 421.875 1421
-210.938 304.688 1873
296.875 406.25 1445
335.938 398.438 1464
-484.375 31.25 1219
31.25 23.4375 1210
203.125 -312.5 1458
-328.125 226.562 1853
-289.062 -148.438 1317
304.688 -242.188 1483
-234.375 -250 1365
242.188 109.375 1193
31.25 187.5 1255
23.4375 -85.9375 1173
203.125 406.25 1470
-156.25 304.688 1688
-140.625 -117.188 1223
187.5 429.688 1439
23.4375 15.625 1206
312.5 335.938 1509
15.625 140.625 1236
296.875 -125 1543
164.062 -257.812 1496
125 320.312 1483
-70.3125 320.312 1647
117.188 406.25 1470
23.4375 -54.6875 1181
-273.438 132.812 1883
54.6875 398.438 1470
-85.9375 382.812 1543
-390.625 -156.25 1292
117.188 132.812 1232
23.4375 320.312 1333
-468.75 320.312 1410
-156.25 -148.438 1219
31.25 234.375 1273
-171.875 312.5 1705
-304.688 -156.25 1317
15.625 156.25 1241
7.8125 312.5 1338
15.625 -78.125 1173
0 406.25 1392
-460.938 289.062 1328
273.438 390.625 1470
23.4375 312.5 1333
296.875 -132.812 1536
-234.375 367.188 1696
156.25 367.188 1470
304.688 289.062 1586
39.0625 328.125 1333
-453.125 328.125 1349
31.25 203.125 1264
304.688 -218.75 1503
7.8125 234.375 1273
-23.4375 -70.3125 1181
7.8125 203.125 1268
132.812 -281.25 1496
-93.75 39.0625 1219
351.562 421.875 1392
-218.75 -242.188 1343
289.062 -140.625 1536
289.062 -62.5 1572
93.75 421.875 1427
-101.562 164.062 1894
304.688 -226.562 1496
-132.812 289.062 1970
-375 -226.562 1273
-70.3125 54.6875 1219
-445.312 359.375 1359
296.875 -31.25 1322
0 359.375 1365
156.25 351.562 1477
70.3125 343.75 1464
0 273.438 1307
46.875 351.562 1483
117.188 335.938 1458
398.438 273.438 1292
-210.938 343.75 1616
343.75 390.625 1427
-218.75 -257.812 1452
-117.188 -156.25 1268
7.8125 335.938 1349
171.875 335.938 1489
242.188 398.438 1464
-125 -140.625 1214
187.5 390.625 1503
-320.312 -304.688 1458
-242.188 -250 1365
304.688 -234.375 1496
31.25 164.062 1241
31.25 171.875 1245
273.438 398.438 1464
7.8125 218.75 1273
234.375 382.812 1489
179.688 390.625 1464
-70.3125 375 1564
-46.875 -70.3125 1177
148.438 445.312 1572
31.25 31.25 1210
-500 328.125 1370
-125 -132.812 1210
-23.4375 414.062 1639
296.875 203.125 1259
164.062 273.438 1297
-359.375 -156.25 1302
132.812 -273.438 1496
-62.5 -46.875 1185
-273.438 46.875 1219
312.5 328.125 1509
-54.6875 398.438 1594
46.875 367.188 1496
31.25 195.312 1255
-296.875 -125 1278
132.812 -312.5 1489
164.062 -312.5 1477
414.062 367.188 1322
171.875 187.5 1245
328.125 23.4375 1338
-445.312 398.438 1381
164.062 296.875 1259
39.0625 132.812 1236
117.188 351.562 1445
-109.375 -117.188 1193
109.375 351.562 1445
-125 -117.188 1219
-140.625 289.062 1970
-101.562 171.875 1904
23.4375 328.125 1333
-164.062 304.688 1713
23.4375 335.938 1338
-164.062 312.5 1639
132.812 -304.688 1489
-304.688 70.3125 1181
-500 0 1181
23.4375 -46.875 1181
-78.125 -70.3125 1177
15.625 437.5 1392
242.188 421.875 1433
140.625 304.688 1516
-93.75 164.062 1904
-320.312 421.875 1564
-390.625 -140.625 1302
-93.75 156.25 1894
296.875 -125 1543
312.5 -15.625 1317
320.312 265.625 1297
-476.562 250 1273
-109.375 250 1947
31.25 156.25 1241
-257.812 78.125 1181
117.188 -101.562 1579
468.75 -164.062 3399
-70.3125 367.188 1572
492.188 -164.062 3269
-78.125 390.625 1543
46.875 312.5 1516
273.438 421.875 1421
218.75 421.875 1421
320.312 296.875 1579
-85.9375 -70.3125 1177
273.438 -93.75 1557
-218.75 -234.375 1343
125 296.875 1516
-93.75 -70.3125 1181
-296.875 -156.25 1317
-78.125 406.25 1543
31.25 187.5 1255
23.4375 437.5 1392
187.5 -132.812 1543
-234.375 375 1680
31.25 218.75 1268
320.312 273.438 1297
179.688 195.312 1241
-421.875 -148.438 1398
304.688 273.438 1288
-101.562 250 1959
132.812 -289.062 1489
-398.438 -265.625 1255
296.875 -132.812 1536
296.875 -187.5 1509
-312.5 -156.25 1317
140.625 -296.875 1489
85.9375 304.688 1503
70.3125 359.375 1458
164.062 304.688 1543
-289.062 -164.062 1312
335.938 429.688 1433
-265.625 -250 1483
-328.125 -296.875 1458
156.25 359.375 1470
-367.188 -265.625 1264
-218.75 -250 1452
-101.562 156.25 1883
148.438 382.812 1483
-93.75 -156.25 1288
23.4375 -39.0625 1185
31.25 39.0625 1206
31.25 39.0625 1206
203.125 -203.125 1509
-296.875 -289.062 1458
-289.062 -257.812 1283
-7.8125 62.5 1227
-335.938 -203.125 1288
-164.062 -132.812 1227
-78.125 343.75 1632
39.0625 140.625 1236
39.0625 140.625 1236
23.4375 335.938 1328
-468.75 328.125 1381
-476.562 414.062 1536
343.75 437.5 1415
-15.625 390.625 1696
-437.5 390.625 1376
-218.75 -242.188 1343
15.625 148.438 1236
-234.375 359.375 1696
359.375 281.25 1292
-382.812 328.125 1404
-289.062 -265.625 1278
31.25 15.625 1202
-460.938 281.25 1322
304.688 -226.562 1496
296.875 187.5 1255
296.875 -140.625 1536
296.875 -125 1550
320.312 351.562 1557
-273.438 -289.062 1477
23.4375 320.312 1328
-109.375 343.75 1655
-296.875 -187.5 1302
78.125 375 1445
289.062 343.75 1496
109.375 367.188 1439
-226.562 -234.375 1354
328.125 320.312 1489
109.375 398.438 1439
-445.312 359.375 1359
-257.812 390.625 1655
484.375 -109.375 3300
-78.125 398.438 1550
125 304.688 1496
-109.375 -125 1214
140.625 382.812 1470
-382.812 -148.438 1297
0 289.062 1307
0 289.062 1307
31.25 23.4375 1206
-101.562 351.562 1632
-382.812 320.312 1415
-78.125 351.562 1624
-242.188 -234.375 1365
23.4375 328.125 1338
304.688 -203.125 1509
296.875 -117.188 1550
-445.312 367.188 1359
0 335.938 1349
156.25 367.188 1477
39.0625 132.812 1232
31.25 203.125 1255
-164.062 -125 1227
-140.625 -109.375 1206
-140.625 -109.375 1206
15.625 445.312 1398
23.4375 0 1193
-125 -125 1214
-484.375 132.812 1236
-171.875 351.562 1572
250 -140.625 1529
-296.875 -273.438 1273
31.25 226.562 1264
15.625 179.688 1250
125 -62.5 1579
-101.562 234.375 1947
132.812 -234.375 1516
-390.625 -164.062 1292
-343.75 -171.875 1297
-343.75 320.312 1713
132.812 250 1278
-15.625 382.812 1722
132.812 -242.188 1516
-109.375 257.812 1947
289.062 -54.6875 1579
-242.188 -250 1433
-101.562 250 1947
140.625 359.375 1445
312.5 -31.25 1322
-70.3125 375 1564
-7.8125 -31.25 1189
-164.062 -117.188 1236
296.875 -109.375 1550
-335.938 -257.812 1268
7.8125 -179.688 1550
-218.75 -265.625 1452
328.125 390.625 1496
15.625 195.312 1259
304.688 -218.75 1496
31.25 195.312 1250
39.0625 156.25 1241
-70.3125 -140.625 1302
-328.125 -171.875 1302
164.062 343.75 1477
31.25 210.938 1259
-46.875 429.688 1564
-289.062 -179.688 1302
-320.312 -273.438 1264
23.4375 -31.25 1185
7.8125 -70.3125 1177
328.125 15.625 1333
234.375 -203.125 1503
-234.375 250 1947
54.6875 390.625 1489
-437.5 382.812 1370
-140.625 -140.625 1236
-93.75 164.062 1904
-93.75 164.062 1904
-429.688 414.062 1387
-218.75 -257.812 1458
23.4375 367.188 1359
31.25 7.8125 1193
93.75 320.312 1483
-289.062 -273.438 1283
484.375 -125 3092
-328.125 -250 1273
54.6875 351.562 1470
-367.188 -250 1268
304.688 -210.938 1503
39.0625 140.625 1236
-351.562 320.312 1713
-109.375 -210.938 3433
-54.6875 -70.3125 1177
23.4375 -23.4375 1189
-125 -156.25 1268
273.438 398.438 1458
296.875 -125 1550
195.312 351.562 1572
-164.062 -156.25 1292
23.4375 437.5 1398
15.625 171.875 1245
7.8125 375 1365
125 39.0625 1278
-500 -140.625 1245
-500 -140.625 1245
101.562 367.188 1433
-23.4375 382.812 1671
-39.0625 54.6875 1236
-46.875 101.562 1185
234.375 -210.938 1503
-226.562 -281.25 1439
296.875 195.312 1255
125 296.875 1509
-257.812 296.875 1894
320.312 335.938 1503
351.562 335.938 1398
78.125 359.375 1452
296.875 -23.4375 1317
335.938 375 1477
234.375 250 1283
-359.375 -296.875 1489
-148.438 375 1529
296.875 -117.188 1550
-101.562 -78.125 1173
7.8125 250 1283
15.625 187.5 1255
-304.688 289.062 1904
-23.4375 54.6875 1241
-15.625 398.438 1671
304.688 -203.125 1509
31.25 -15.625 1193
-328.125 -203.125 1288
54.6875 406.25 1464
-335.938 -210.938 1283
31.25 -85.9375 1181
-234.375 -265.625 1433
-250 -257.812 1445
23.4375 -70.3125 1177
-468.75 250 1312
-218.75 -250 1452
-218.75 -242.188 1343
250 250 1283
54.6875 328.125 1489
328.125 281.25 1288
125 390.625 1445
-257.812 -234.375 1398
304.688 -304.688 1458
242.188 406.25 1445
39.0625 406.25 1464
-242.188 -234.375 1365
78.125 398.438 1464
281.25 -234.375 1483
-101.562 242.188 1947
62.5 414.062 1470
-109.375 54.6875 1232
-132.812 382.812 1523
-445.312 39.0625 1219
78.125 437.5 1433
31.25 -31.25 1185
-312.5 421.875 1572
-70.3125 195.312 1915
-273.438 39.0625 1214
-7.8125 54.6875 1236
296.875 343.75 1496
-46.875 54.6875 1236
-312.5 -203.125 1297
429.688 320.312 1307
39.0625 171.875 1245
23.4375 31.25 1206
132.812 -54.6875 1601
117.188 -54.6875 1594
117.188 406.25 1458
31.25 234.375 1268
31.25 218.75 1264
-70.3125 54.6875 1232
250 78.125 1197
-257.812 46.875 1227
-101.562 171.875 1904
-46.875 -70.3125 1177
476.562 46.875 1292
-437.5 39.0625 1219
-93.75 -125 1268
304.688 -289.062 1464
0 -70.3125 1177
132.812 -226.562 1516
-218.75 46.875 1232
265.625 367.188 1536
-164.062 171.875 1915
-195.312 132.812 1250
23.4375 -62.5 1177
31.25 -46.875 1185
-468.75 257.812 1317
195.312 296.875 1550
289.062 250 1278
406.25 398.438 1354
-460.938 312.5 1328
-273.438 46.875 1227
-164.062 -140.625 1223
-343.75 -226.562 1278
70.3125 414.062 1470
31.25 15.625 1202
179.688 187.5 1255
179.688 390.625 1503
-7.8125 -46.875 1181
-109.375 289.062 1959
-281.25 -140.625 1333
281.25 398.438 1452
257.812 390.625 1496
-445.312 351.562 1354
62.5 125 1232
31.25 250 1278
31.25 -54.6875 1181
-500 -7.8125 1185
93.75 0 1392
-234.375 -273.438 1433
85.9375 312.5 1496
296.875 250 1278
-31.25 54.6875 1245
31.25 125 1227
265.625 382.812 1489
234.375 398.438 1458
31.25 132.812 1232
85.9375 406.25 1464
-304.688 46.875 1223
375 125 1236
31.25 -70.3125 1181
-242.188 343.75 1757
171.875 429.688 1421
39.0625 179.688 1250
437.5 296.875 1297
273.438 382.812 1489
31.25 226.562 1264
46.875 406.25 1464
-218.75 -273.438 1439
-101.562 179.688 1904
304.688 320.312 1529
-296.875 46.875 1223
-257.812 -273.438 1452
39.0625 164.062 1241
-54.6875 54.6875 1232
-375 -226.562 1273
437.5 257.812 1278
31.25 242.188 1273
31.25 -78.125 1181
156.25 -46.875 1572
23.4375 335.938 1328
31.25 -39.0625 1185
-289.062 -187.5 1297
-468.75 31.25 1210
164.062 -312.5 1477
289.062 414.062 1433
0 54.6875 1241
-218.75 -156.25 1398
156.25 421.875 1421
-421.875 39.0625 1219
23.4375 62.5 1227
-476.562 31.25 1210
54.6875 414.062 1464
351.562 125 1236
195.312 273.438 1288
31.25 406.25 1365
31.25 421.875 1421
78.125 406.25 1470
109.375 421.875 1427
273.438 406.25 1458
46.875 414.062 1458
39.0625 125 1227
351.562 273.438 1292
-242.188 421.875 1586
23.4375 367.188 1359
312.5 320.312 1536
-351.562 -320.312 1509
-476.562 171.875 1255
-242.188 304.688 1863
15.625 210.938 1264
328.125 273.438 1288
132.812 421.875 1415
234.375 -210.938 1503
-304.688 -164.062 1312
125 414.062 1415
156.25 429.688 1421
-390.625 125 1232
-343.75 -125 1259
359.375 125 1236
-101.562 187.5 1904
-273.438 304.688 1873
156.25 312.5 1516
-453.125 320.312 1338
-414.062 39.0625 1219
7.8125 304.688 1333
320.312 125 1236
-289.062 -156.25 1317
109.375 125 1227
273.438 390.625 1483
273.438 390.625 1483
296.875 125 1227
-312.5 -164.062 1307
367.188 125 1236
117.188 421.875 1421
335.938 406.25 1452
164.062 429.688 1421
-15.625 375 1739
328.125 296.875 1516
-101.562 -117.188 1245
-250 46.875 1227
-437.5 375 1365
164.062 304.688 1543
78.125 414.062 1470
148.438 421.875 1427
242.188 375 1529
-468.75 320.312 1415
-148.438 375 1529
320.312 -156.25 3468
-226.562 -234.375 1354
265.625 375 1516
-398.438 398.438 1415
132.812 250 1278
78.125 125 1232
187.5 429.688 1427
-187.5 320.312 1688
328.125 429.688 1433
171.875 390.625 1503
335.938 125 1236
281.25 414.062 1452
-460.938 289.062 1328
265.625 398.438 1458
85.9375 125 1227
-140.625 343.75 1632
-343.75 -257.812 1268
-117.188 -171.875 1288
210.938 -195.312 1509
-453.125 31.25 1210
70.3125 406.25 1470
-421.875 273.438 1410
-492.188 234.375 1268
93.75 414.062 1458
-15.625 54.6875 1236
39.0625 132.812 1232
351.562 328.125 1439
-460.938 328.125 1338
148.438 -62.5 1579
-429.688 328.125 1376
101.562 406.25 1458
-492.188 398.438 1557
140.625 421.875 1439
62.5 406.25 1464
203.125 250 1283
296.875 -109.375 1550
117.188 414.062 1421
70.3125 125 1232
203.125 273.438 1292
203.125 -312.5 1470
-148.438 -109.375 1210
414.062 187.5 1255
101.562 125 1227
-367.188 -265.625 1264
171.875 -312.5 1477
179.688 125 1232
-429.688 31.25 1210
164.062 273.438 1292
234.375 382.812 1503
39.0625 148.438 1241
-109.375 -117.188 1206
-156.25 -140.625 1223
-23.4375 54.6875 1241
23.4375 312.5 1312
296.875 421.875 1427
7.8125 54.6875 1241
429.688 312.5 1302
242.188 398.438 1445
281.25 390.625 1470
226.562 359.375 1543
109.375 367.188 1439
-210.938 39.0625 1219
195.312 429.688 1427
-343.75 351.562 1722
-226.562 46.875 1227
210.938 -312.5 1464
140.625 -46.875 1572
-257.812 296.875 1894
-101.562 39.0625 1219
93.75 125 1227
328.125 359.375 1523
125 125 1227
-429.688 39.0625 1219
328.125 312.5 1489
250 375 1529
-281.25 46.875 1227
367.188 281.25 1283
-335.938 -257.812 1268
351.562 414.062 1404
-101.562 250 1947
-93.75 171.875 1915
-179.688 -234.375 1365
179.688 281.25 1288
-125 -140.625 1214
-117.188 -101.562 1181
-78.125 -140.625 1268
-93.75 132.812 1255
-218.75 406.25 1609
-62.5 54.6875 1232
156.25 125 1236
46.875 421.875 1421
39.0625 414.062 1421
289.062 390.625 1452
343.75 421.875 1427
-78.125 54.6875 1232
-156.25 -101.562 1185
70.3125 304.688 1516
-156.25 -109.375 1214
-234.375 351.562 1757
23.4375 421.875 1387
-234.375 -234.375 1359
210.938 -218.75 1503
210.938 351.562 1550
-476.562 257.812 1312
296.875 414.062 1427
-351.562 -125 1255
187.5 289.062 1557
31.25 -62.5 1181
304.688 -210.938 1503
31.25 -31.25 1185
242.188 242.188 1273
234.375 414.062 1427
-78.125 -78.125 1177
-85.9375 -78.125 1177
-148.438 46.875 1245
15.625 54.6875 1241
-101.562 296.875 1959
148.438 429.688 1601
31.25 -23.4375 1177
-328.125 -148.438 1312
-62.5 -78.125 1173
-453.125 -210.938 3300
250 398.438 1458
-85.9375 -62.5 1181
7.8125 62.5 1232
304.688 250 1278
289.062 289.062 1557
109.375 414.062 1458
101.562 414.062 1464
226.562 312.5 1529
-101.562 -125 1273
-218.75 -234.375 1354
140.625 125 1223
226.562 367.188 1529
-140.625 125 1241
23.4375 351.562 1343
-70.3125 359.375 1609
-140.625 -132.812 1227
23.4375 23.4375 1206
-343.75 -171.875 1302
78.125 421.875 1439
-7.8125 54.6875 1236
179.688 406.25 1477
-125 382.812 1523
54.6875 406.25 1458
148.438 -46.875 1579
289.062 -85.9375 1550
148.438 125 1227
70.3125 421.875 1439
-85.9375 382.812 1543
-31.25 406.25 1624
78.125 429.688 1427
-445.312 31.25 1210
257.812 398.438 1477
210.938 125 1232
-46.875 -93.75 1165
-203.125 46.875 1241
-437.5 31.25 1206
-39.0625 54.6875 1236
179.688 335.938 1477
-195.312 46.875 1241
179.688 -312.5 1477
226.562 398.438 1489
-117.188 -117.188 1210
242.188 367.188 1529
-398.438 39.0625 1219
31.25 -7.8125 1193
-78.125 343.75 1632
23.4375 -101.562 1181
-85.9375 54.6875 1232
-250 -273.438 1445
-85.9375 -132.812 1268
15.625 -132.812 1307
164.062 125 1189
-320.312 -273.438 1278
-234.375 46.875 1236
-273.438 46.875 1227
-15.625 54.6875 1236
-101.562 54.6875 1236
31.25 7.8125 1197
-156.25 125 1241
187.5 -312.5 1470
-242.188 -234.375 1370
39.0625 421.875 1415
218.75 382.812 1536
54.6875 421.875 1415
171.875 273.438 1283
-296.875 -296.875 1470
125 421.875 1464
70.3125 273.438 1288
195.312 125 1232
281.25 250 1278
281.25 125 1227
273.438 250 1278
304.688 125 1227
250 125 1227
31.25 -70.3125 1177
-54.6875 -93.75 1165
39.0625 273.438 1283
148.438 273.438 1288
-70.3125 -93.75 1177
-93.75 -164.062 1268
125 273.438 1288
304.688 -203.125 1509
62.5 273.438 1288
-54.6875 -70.3125 1177
132.812 429.688 1601
156.25 273.438 1292
39.0625 156.25 1236
0 54.6875 1241
31.25 421.875 1333
31.25 54.6875 1241
31.25 -85.9375 1177
-93.75 -70.3125 1177
226.562 -312.5 1464
-484.375 234.375 1278
148.438 390.625 1477
62.5 421.875 1464
171.875 125 1189
171.875 125 1189
265.625 359.375 1529
187.5 343.75 1477
-187.5 46.875 1241
210.938 382.812 1536
-117.188 -93.75 1177
187.5 125 1232
-7.8125 -93.75 1169
-265.625 46.875 1223
390.625 242.188 1278
140.625 -250 1516
234.375 375 1536
54.6875 273.438 1283
109.375 429.688 1458
-171.875 312.5 1705
-226.562 -234.375 1354
179.688 273.438 1283
-320.312 -125 1312
-179.688 312.5 1696
-343.75 -273.438 1273
-93.75 -117.188 1255
148.438 250 1278
140.625 273.438 1288
250 -320.312 1496
-382.812 39.0625 1223
195.312 -312.5 1470
-468.75 242.188 1278
-140.625 -117.188 1227
-406.25 39.0625 1223
-242.188 -242.188 1370
-140.625 -93.75 1177
218.75 421.875 1445
257.812 375 1529
-500 320.312 1370
-390.625 39.0625 1219
46.875 273.438 1283
125 250 1273
109.375 273.438 1283
187.5 273.438 1283
242.188 125 1227
156.25 -46.875 1579
109.375 367.188 1439
85.9375 398.438 1433
257.812 125 1232
23.4375 54.6875 1241
46.875 429.688 1415
31.25 -78.125 1173
-500 -132.812 1232
-171.875 -93.75 1177
39.0625 179.688 1245
101.562 273.438 1288
265.625 125 1232
-125 46.875 1245
78.125 273.438 1288
257.812 367.188 1529
257.812 406.25 1458
250 367.188 1529
-335.938 -210.938 1283
-476.562 335.938 1381
-421.875 31.25 1206
484.375 7.8125 1387
-460.938 304.688 1322
234.375 125 1232
85.9375 421.875 1439
218.75 367.188 1543
-125 -93.75 1177
54.6875 429.688 1421
296.875 -312.5 1464
164.062 -46.875 1586
85.9375 273.438 1288
164.062 273.438 1292
-265.625 273.438 1947
210.938 273.438 1283
-429.688 31.25 1206
93.75 273.438 1288
-359.375 -125 1302
218.75 273.438 1283
117.188 273.438 1288
-140.625 -109.375 1214
226.562 -39.0625 1529
226.562 414.062 1427
250 250 1278
203.125 125 1232
-304.688 -132.812 1322
-195.312 -93.75 1177
226.562 375 1536
-375 39.0625 1223
-328.125 -257.812 1268
250 390.625 1496
250 382.812 1496
93.75 250 1273
-289.062 -250 1278
70.3125 414.062 1458
23.4375 39.0625 1210
-132.812 -109.375 1219
-281.25 -156.25 1317
-39.0625 39.0625 1214
-210.938 414.062 1586
-218.75 -234.375 1354
101.562 429.688 1433
-39.0625 -93.75 1169
156.25 390.625 1496
164.062 390.625 1489
-414.062 31.25 1210
85.9375 414.062 1464
132.812 273.438 1283
203.125 -312.5 1470
-273.438 -281.25 1477
117.188 250 1273
31.25 -46.875 1185
210.938 367.188 1543
31.25 273.438 1288
-187.5 281.25 1959
-445.312 343.75 1354
171.875 406.25 1470
234.375 273.438 1288
-312.5 -93.75 1181
39.0625 429.688 1410
-62.5 343.75 1632
-156.25 -132.812 1227
-273.438 39.0625 1219
117.188 429.688 1464
-156.25 367.188 1543
-500 304.688 1404
78.125 429.688 1427
-304.688 -296.875 1464
304.688 421.875 1427
39.0625 195.312 1250
7.8125 367.188 1354
46.875 421.875 1415
7.8125 54.6875 1241
-156.25 -148.438 1227
375 242.188 1273
265.625 367.188 1529
179.688 125 1232
-453.125 31.25 1210
109.375 421.875 1458
281.25 421.875 1421
85.9375 429.688 1433
-453.125 328.125 1338
210.938 -203.125 1503
-328.125 -273.438 1278
-164.062 -179.688 1421
289.062 23.4375 1333
-289.062 -195.312 1297
-210.938 375 1572
-15.625 85.9375 1181
-359.375 -226.562 1278
-218.75 -257.812 1452
39.0625 187.5 1250
39.0625 335.938 1333
-132.812 289.062 1959
-351.562 -273.438 1273
-93.75 -93.75 1177
257.812 250 1278
70.3125 421.875 1439
351.562 421.875 1398
54.6875 273.438 1283
234.375 390.625 1489
-289.062 -93.75 1181
31.25 -54.6875 1181
7.8125 273.438 1292
-398.438 31.25 1206
226.562 359.375 1536
-289.062 -328.125 1503
234.375 359.375 1529
195.312 421.875 1445
-242.188 -257.812 1439
156.25 273.438 1292
-46.875 54.6875 1236
78.125 382.812 1439
-289.062 46.875 1223
-335.938 -289.062 1458
-218.75 46.875 1241
-164.062 -93.75 1177
-398.438 335.938 1398
140.625 250 1278
-31.25 -93.75 1177
140.625 359.375 1439
-148.438 -140.625 1227
23.4375 46.875 1210
335.938 281.25 1283
-54.6875 54.6875 1232
54.6875 382.812 1483
31.25 414.062 1333
273.438 -54.6875 1572
132.812 312.5 1503
242.188 382.812 1496
31.25 23.4375 1206
-70.3125 54.6875 1232
7.8125 -70.3125 1173
-78.125 -93.75 1177
-140.625 289.062 1970
156.25 429.688 1433
-367.188 -125 1307
218.75 -312.5 1464
-132.812 -93.75 1177
-164.062 46.875 1241
23.4375 421.875 1333
-78.125 31.25 1210
148.438 273.438 1288
70.3125 273.438 1288
31.25 421.875 1333
-148.438 -109.375 1214
-460.938 320.312 1338
-226.562 -93.75 1177
312.5 367.188 1594
7.8125 -93.75 1169
-85.9375 -93.75 1177
-85.9375 117.188 1227
382.812 265.625 1283
171.875 273.438 1283
39.0625 164.062 1236
289.062 421.875 1415
-117.188 382.812 1523
-351.562 -226.562 1278
-257.812 382.812 1671
-7.8125 54.6875 1236
-179.688 46.875 1241
304.688 -23.4375 1317
242.188 406.25 1452
179.688 398.438 1489
62.5 429.688 1421
-335.938 -125 1264
242.188 375 1529
117.188 398.438 1427
-273.438 328.125 1804
-23.4375 -78.125 1169
-210.938 46.875 1241
-375 -125 1264
250 375 1529
250 -39.0625 1579
-54.6875 -85.9375 1165
125 273.438 1288
31.25 0 1197
31.25 31.25 1202
-257.812 46.875 1227
-85.9375 39.0625 1210
-335.938 -273.438 1278
140.625 273.438 1288
93.75 429.688 1433
-23.4375 -70.3125 1177
257.812 359.375 1529
-445.312 31.25 1210
-132.812 31.25 1214
-23.4375 -93.75 1173
-101.562 -171.875 1288
492.188 46.875 1297
-242.188 304.688 1873
320.312 429.688 1427
-250 -242.188 1387
273.438 195.312 1255
-101.562 203.125 1904
-156.25 -93.75 1181
39.0625 421.875 1415
101.562 320.312 1483
195.312 195.312 1255
-460.938 39.0625 1214
304.688 -187.5 1516
281.25 195.312 1245
-445.312 351.562 1359
62.5 414.062 1458
7.8125 257.812 1283
242.188 398.438 1458
234.375 367.188 1529
-460.938 312.5 1333
257.812 398.438 1477
195.312 351.562 1572
-265.625 -93.75 1181
101.562 273.438 1288
375 265.625 1283
250 359.375 1529
117.188 421.875 1464
62.5 273.438 1288
-273.438 -93.75 1181
-437.5 31.25 1206
-70.3125 375 1564
7.8125 195.312 1264
-203.125 46.875 1241
-187.5 -93.75 1181
234.375 312.5 1523
171.875 -46.875 1586
-78.125 -85.9375 1177
39.0625 343.75 1333
429.688 -85.9375 3468
273.438 15.625 1370
203.125 195.312 1255
460.938 195.312 1250
31.25 343.75 1333
39.0625 273.438 1283
-78.125 359.375 1624
31.25 242.188 1273
-445.312 304.688 1333
15.625 203.125 1255
203.125 367.188 1523
-250 -93.75 1177
101.562 421.875 1439
15.625 54.6875 1241
265.625 250 1278
179.688 367.188 1543
-218.75 -93.75 1177
62.5 421.875 1464
-62.5 -93.75 1169
-171.875 46.875 1241
187.5 367.188 1543
-46.875 39.0625 1214
-406.25 31.25 1210
-421.875 156.25 1415
218.75 359.375 1543
-382.812 -125 1259
125 398.438 1458
-250 46.875 1227
109.375 273.438 1283
187.5 421.875 1464
226.562 382.812 1523
-500 289.062 1421
-15.625 406.25 1663
-164.062 312.5 1722
218.75 398.438 1663
-500 320.312 1370
-148.438 -468.75 3149
-132.812 54.6875 1227
312.5 320.312 1543
31.25 -23.4375 1177
148.438 -46.875 1579
-93.75 312.5 1655
218.75 -218.75 1503
15.625 -46.875 1181
-289.062 328.125 1813
164.062 406.25 1470
31.25 -62.5 1181
320.312 367.188 1516
39.0625 125 1223
-421.875 39.0625 1219
234.375 -203.125 1503
-234.375 -234.375 1365
15.625 85.9375 1181
31.25 -15.625 1189
46.875 273.438 1283
171.875 203.125 1250
54.6875 390.625 1489
-101.562 320.312 1639
-179.688 -93.75 1177
7.8125 320.312 1328
93.75 273.438 1288
234.375 -210.938 1503
78.125 273.438 1288
-296.875 -273.438 1278
-242.188 -93.75 1173
210.938 359.375 1550
