ply
format ascii 1.0
comment Created by Open3D
element vertex 2297
property double x
property double y
property double z
end_header
328.125 -359.375 1177
0 171.875 1392
390.625 -429.688 1297
257.812 -132.812 1259
132.812 203.125 1445
-312.5 54.6875 1185
-46.875 -328.125 1145
140.625 -367.188 1161
-78.125 -250 1149
367.188 -453.125 3433
-351.562 -85.9375 1119
-343.75 140.625 1210
-429.688 210.938 2065
-101.562 -343.75 1149
-320.312 218.75 1250
351.562 -343.75 1189
195.312 -335.938 1161
-125 -31.25 1169
-164.062 195.312 1731
-382.812 -7.8125 1134
218.75 -335.938 1161
-93.75 187.5 1748
-31.25 23.4375 1245
101.562 -195.312 1153
85.9375 179.688 1381
-484.375 210.938 2078
476.562 125 1509
46.875 -23.4375 1241
-265.625 78.125 1189
62.5 125 1370
-421.875 210.938 2078
460.938 -359.375 1206
93.75 -171.875 1153
-234.375 359.375 1376
-132.812 -101.562 1169
-31.25 -195.312 1157
-500 210.938 2040
382.812 -343.75 1193
414.062 -218.75 1223
-78.125 -351.562 1145
31.25 -210.938 1197
109.375 -210.938 1189
70.3125 226.562 1421
-179.688 -7.8125 1193
234.375 -335.938 1165
-117.188 -203.125 1197
-93.75 -179.688 1119
-296.875 187.5 1245
78.125 -351.562 1169
375 -343.75 1193
218.75 226.562 1616
-7.8125 140.625 1415
-476.562 304.688 1813
492.188 -351.562 1223
-23.4375 -210.938 1210
226.562 -367.188 1161
-15.625 -218.75 1165
234.375 218.75 1632
-195.312 195.312 1731
-210.938 -101.562 1145
0 148.438 1404
-85.9375 -257.812 1153
156.25 -382.812 1292
-289.062 85.9375 1197
132.812 -351.562 1141
-304.688 210.938 1250
-85.9375 85.9375 1557
453.125 132.812 1550
-164.062 -203.125 1214
304.688 -187.5 1202
78.125 125 1354
-382.812 304.688 1813
109.375 -328.125 1138
0 -242.188 1153
62.5 -367.188 1236
125 -382.812 1288
296.875 -390.625 1381
218.75 -46.875 1959
-382.812 -31.25 1123
-195.312 -148.438 1101
445.312 -148.438 1503
0 -117.188 1193
-109.375 125 1477
-312.5 203.125 1245
164.062 101.562 1926
125 242.188 1470
359.375 -343.75 1189
351.562 -210.938 1206
171.875 -367.188 1181
140.625 -195.312 1161
210.938 -210.938 1189
7.8125 -250 1153
-359.375 62.5 1173
359.375 -210.938 1206
31.25 289.062 1503
23.4375 -203.125 1169
70.3125 250 1433
187.5 -179.688 1173
93.75 -328.125 1138
-101.562 -250 1161
-273.438 140.625 1427
85.9375 -351.562 1153
-289.062 54.6875 1193
125 101.562 2398
359.375 -226.562 1236
-414.062 210.938 2078
-164.062 -265.625 1255
-242.188 46.875 1202
-312.5 125 1206
-85.9375 -335.938 1145
359.375 -367.188 1185
492.188 -414.062 1572
171.875 109.375 1936
-265.625 359.375 1349
-93.75 -335.938 1181
-148.438 -226.562 1264
-367.188 62.5 1173
-148.438 195.312 1731
-101.562 343.75 1410
281.25 -203.125 1189
-281.25 54.6875 1193
265.625 109.375 1647
281.25 85.9375 1748
39.0625 -320.312 1185
62.5 -46.875 1236
78.125 -328.125 1153
367.188 -210.938 1206
-93.75 -257.812 1153
367.188 -351.562 1189
390.625 -343.75 1197
-117.188 343.75 1410
-132.812 -351.562 1165
-140.625 187.5 1731
62.5 -328.125 1157
492.188 -23.4375 1415
-7.8125 23.4375 1255
-39.0625 -382.812 1165
-39.0625 179.688 1757
-117.188 -218.75 1255
148.438 101.562 1936
-320.312 250 1264
-31.25 179.688 1757
437.5 -195.312 1232
359.375 -351.562 1189
-125 132.812 1458
140.625 -203.125 1161
7.8125 164.062 1398
132.812 117.188 1421
468.75 156.25 1536
234.375 -140.625 1255
125 -351.562 1138
390.625 -390.625 1245
-31.25 -117.188 1181
148.438 -195.312 1165
437.5 85.9375 1586
-70.3125 31.25 1236
-226.562 -148.438 1087
156.25 -390.625 1283
148.438 -203.125 1165
-273.438 93.75 1550
93.75 187.5 1381
476.562 -414.062 1594
-296.875 359.375 1333
-171.875 195.312 1731
70.3125 93.75 1338
-117.188 -179.688 1119
-109.375 -250 1161
-117.188 125 1464
-39.0625 -367.188 1157
242.188 -140.625 1264
-7.8125 164.062 1392
117.188 -328.125 1141
-78.125 -109.375 1177
296.875 -187.5 1202
-195.312 -203.125 1227
-70.3125 101.562 1509
-7.8125 -476.562 1470
-93.75 31.25 1232
312.5 171.875 1609
-156.25 -195.312 1189
-398.438 304.688 1813
484.375 132.812 1509
-468.75 210.938 2078
492.188 23.4375 1433
250 156.25 1632
-78.125 -328.125 1189
226.562 -335.938 1161
484.375 210.938 1579
-93.75 -242.188 1161
367.188 -390.625 1259
453.125 -359.375 1206
-210.938 132.812 1452
226.562 -429.688 1273
78.125 -453.125 1415
31.25 70.3125 1523
-210.938 -148.438 1097
-304.688 281.25 1283
-31.25 93.75 1543
-85.9375 31.25 1232
289.062 187.5 1639
70.3125 -328.125 1157
187.5 -335.938 1157
85.9375 -171.875 1153
453.125 117.188 1550
281.25 187.5 1639
-234.375 -343.75 1268
468.75 -218.75 1232
-328.125 85.9375 1193
-125 -109.375 1165
-226.562 -328.125 1278
-437.5 210.938 2065
-85.9375 -179.688 1119
-242.188 148.438 1421
-468.75 -117.188 1047
304.688 140.625 1609
257.812 109.375 1663
132.812 -453.125 1245
203.125 -335.938 1161
-54.6875 85.9375 1564
78.125 312.5 1458
484.375 125 1509
312.5 -148.438 1283
93.75 -195.312 1149
148.438 -398.438 1278
140.625 -351.562 1145
-257.812 78.125 1206
421.875 -234.375 1227
414.062 226.562 1564
281.25 156.25 1609
-156.25 -101.562 1165
-406.25 210.938 2078
62.5 -187.5 1141
-140.625 -335.938 1197
-85.9375 -296.875 1185
-109.375 -234.375 1181
289.062 -210.938 1193
-39.0625 -210.938 1153
-437.5 304.688 1813
-375 31.25 1153
-23.4375 23.4375 1250
-39.0625 -359.375 1161
-109.375 -343.75 1149
-46.875 -234.375 1149
-273.438 148.438 1427
453.125 -234.375 1273
-312.5 273.438 1283
-226.562 -210.938 1259
-242.188 -93.75 1141
-187.5 195.312 1731
210.938 171.875 1705
-140.625 -343.75 1181
-7.8125 -164.062 1134
-7.8125 -218.75 1165
445.312 -234.375 1227
85.9375 171.875 1376
-125 78.125 1579
-125 -156.25 1115
-39.0625 -351.562 1165
460.938 -234.375 1273
367.188 -226.562 1236
492.188 132.812 1509
-140.625 -195.312 1185
-46.875 -359.375 1149
-296.875 125 1470
320.312 257.812 1529
-164.062 39.0625 1227
39.0625 -328.125 1202
-15.625 164.062 1392
-320.312 273.438 1278
78.125 -195.312 1149
101.562 -171.875 1157
-289.062 156.25 1415
-31.25 70.3125 1601
203.125 -195.312 1173
23.4375 148.438 1410
23.4375 -335.938 1185
492.188 210.938 1572
15.625 -117.188 1193
23.4375 132.812 1439
109.375 -171.875 1157
-312.5 -85.9375 1130
390.625 -210.938 1214
476.562 -226.562 1245
-7.8125 93.75 1543
-320.312 62.5 1189
296.875 -218.75 1210
-187.5 -101.562 1161
-31.25 179.688 1757
-351.562 62.5 1177
-78.125 179.688 1766
7.8125 171.875 1398
93.75 101.562 1333
-226.562 46.875 1206
70.3125 -390.625 1516
-375 23.4375 1149
70.3125 234.375 1421
281.25 -218.75 1210
-132.812 85.9375 1564
-320.312 289.062 1288
375 -226.562 1241
265.625 -187.5 1193
218.75 -335.938 1161
62.5 -7.8125 1250
39.0625 -203.125 1173
109.375 -453.125 1264
-312.5 140.625 1214
117.188 78.125 2005
-476.562 210.938 2078
289.062 156.25 1647
328.125 -187.5 1210
265.625 156.25 1609
171.875 -195.312 1169
-460.938 210.938 2078
171.875 -453.125 1259
-492.188 -156.25 2349
-335.938 -132.812 1070
218.75 -445.312 1278
-15.625 78.125 1579
-289.062 187.5 1245
-109.375 109.375 1496
85.9375 125 1349
273.438 78.125 1748
218.75 -210.938 1189
429.688 -156.25 1302
484.375 -351.562 1223
-31.25 -382.812 1153
250 -203.125 1185
453.125 210.938 1564
429.688 218.75 1572
187.5 -195.312 1169
39.0625 -468.75 1421
78.125 -187.5 1149
242.188 132.812 1739
445.312 -343.75 1210
-218.75 -250 1398
0 164.062 1392
-117.188 -250 1241
-164.062 -250 1255
-78.125 -195.312 1161
-70.3125 -328.125 1169
0 156.25 1387
-476.562 -125 1050
-7.8125 171.875 1392
414.062 -367.188 1189
0 23.4375 1255
-78.125 -226.562 1157
140.625 195.312 1464
85.9375 -328.125 1138
-382.812 328.125 1748
234.375 -367.188 1161
-148.438 -203.125 1202
218.75 -179.688 1181
226.562 -195.312 1181
148.438 -203.125 1165
-15.625 148.438 1415
156.25 -203.125 1169
-328.125 421.875 1564
85.9375 250 1433
226.562 125 1748
-109.375 125 1477
-289.062 367.188 1343
-296.875 54.6875 1193
-328.125 101.562 1197
-39.0625 -343.75 1157
-148.438 -351.562 1189
7.8125 164.062 1398
265.625 218.75 1624
195.312 289.062 1496
-31.25 -210.938 1206
210.938 -335.938 1161
453.125 -328.125 1219
421.875 -343.75 1206
-46.875 171.875 1776
-234.375 -218.75 1297
85.9375 226.562 1421
492.188 7.8125 1433
226.562 -210.938 1189
-398.438 296.875 1823
-218.75 -148.438 1090
-85.9375 -140.625 1119
93.75 156.25 1365
109.375 234.375 1464
382.812 -375 1185
31.25 -203.125 1169
-117.188 101.562 1509
460.938 -343.75 1214
-304.688 117.188 1206
242.188 195.312 1671
-179.688 -148.438 1105
242.188 -335.938 1169
-281.25 210.938 1297
-320.312 148.438 1223
148.438 156.25 1445
62.5 242.188 1445
453.125 -195.312 1241
31.25 179.688 1557
-171.875 -23.4375 1161
39.0625 250 1586
-273.438 359.375 1343
476.562 132.812 1509
-39.0625 -164.062 1126
-70.3125 -109.375 1181
-273.438 101.562 1536
-132.812 39.0625 1232
7.8125 148.438 1410
-15.625 -164.062 1134
-140.625 -179.688 1123
437.5 -226.562 1227
-109.375 31.25 1227
117.188 -195.312 1153
-62.5 -234.375 1145
468.75 218.75 1564
-171.875 -7.8125 1193
-335.938 85.9375 1189
-367.188 54.6875 1169
335.938 -351.562 1181
-39.0625 -289.062 1141
476.562 -343.75 1223
-218.75 203.125 1705
-187.5 -476.562 3064
250 226.562 1609
78.125 273.438 1445
-296.875 250 1273
-109.375 78.125 1586
70.3125 250 1433
70.3125 101.562 1343
476.562 -351.562 1219
-390.625 -54.6875 1112
367.188 242.188 1536
210.938 -195.312 1173
-328.125 179.688 1232
85.9375 171.875 1376
85.9375 -195.312 1149
15.625 179.688 1671
312.5 -187.5 1202
242.188 125 1766
-117.188 -281.25 1214
-460.938 304.688 1813
156.25 148.438 1445
171.875 101.562 1947
-101.562 117.188 1483
140.625 -328.125 1145
382.812 -343.75 1193
-7.8125 -468.75 1470
-179.688 -203.125 1214
-343.75 171.875 1223
-125 -351.562 1161
-140.625 -156.25 1112
-39.0625 -187.5 1134
453.125 187.5 1557
132.812 195.312 1458
-39.0625 171.875 1776
265.625 109.375 1647
-85.9375 -312.5 1197
445.312 -367.188 1206
-195.312 195.312 1731
-62.5 -328.125 1161
-85.9375 93.75 1543
281.25 -210.938 1193
312.5 -203.125 1193
218.75 0 1993
-85.9375 -343.75 1145
-210.938 203.125 1713
367.188 -210.938 1206
-281.25 140.625 1439
-117.188 -335.938 1181
-7.8125 -203.125 1138
-187.5 -265.625 1268
-15.625 156.25 1392
-31.25 179.688 1757
117.188 -453.125 1255
226.562 -335.938 1161
234.375 187.5 1680
-15.625 140.625 1433
54.6875 -367.188 1273
132.812 117.188 1421
492.188 101.562 1477
46.875 -7.8125 1250
-101.562 -242.188 1161
109.375 -328.125 1138
-78.125 -140.625 1161
-312.5 179.688 1236
-203.125 -273.438 1297
-54.6875 335.938 1421
70.3125 -187.5 1149
-23.4375 -289.062 1141
375 -218.75 1214
406.25 -367.188 1189
148.438 195.312 1464
0 -210.938 1197
-117.188 187.5 1748
78.125 93.75 1333
406.25 218.75 1579
148.438 -382.812 1288
23.4375 -218.75 1236
-187.5 -328.125 1255
-218.75 359.375 1381
242.188 -70.3125 1936
-312.5 132.812 1206
-39.0625 179.688 1757
-210.938 -343.75 1264
-117.188 132.812 1458
296.875 -218.75 1210
-109.375 -335.938 1181
-15.625 23.4375 1250
-156.25 -101.562 1165
484.375 -203.125 1245
-78.125 -328.125 1189
-335.938 -85.9375 1126
-460.938 62.5 2598
93.75 125 1349
343.75 -187.5 1214
15.625 171.875 1392
-85.9375 -187.5 1138
-257.812 148.438 1421
23.4375 265.625 1557
-390.625 -62.5 1112
-93.75 -109.375 1177
-351.562 140.625 1206
375 -140.625 1713
-85.9375 -234.375 1161
437.5 -359.375 1202
7.8125 -203.125 1173
-62.5 -312.5 1193
-445.312 -117.188 1050
0 -203.125 1181
0 171.875 1392
-7.8125 -187.5 1134
-242.188 -320.312 3208
-453.125 -125 1054
0 -445.312 1483
195.312 62.5 2028
-46.875 -351.562 1153
-273.438 203.125 1312
226.562 -125 1904
-257.812 -140.625 1090
-296.875 101.562 1523
7.8125 -117.188 1193
-109.375 117.188 1496
-320.312 85.9375 1193
359.375 -210.938 1206
23.4375 -335.938 1185
226.562 -210.938 1189
132.812 -335.938 1138
-156.25 187.5 1739
-132.812 132.812 1464
484.375 -23.4375 1452
-312.5 187.5 1241
7.8125 -445.312 1477
289.062 226.562 1594
-320.312 93.75 1197
460.938 218.75 1564
-304.688 195.312 1245
-398.438 210.938 2078
132.812 -390.625 1273
406.25 -343.75 1197
257.812 -203.125 1185
140.625 -195.312 1161
257.812 187.5 1655
-117.188 -296.875 1206
-156.25 351.562 1392
-93.75 85.9375 1557
-132.812 -257.812 1259
335.938 -187.5 1210
-304.688 187.5 1241
-15.625 171.875 1392
-187.5 -281.25 1297
-296.875 210.938 1259
164.062 -203.125 1169
-320.312 226.562 1255
148.438 -328.125 1153
7.8125 -398.438 1557
23.4375 -367.188 1210
-101.562 -226.562 1177
70.3125 148.438 1365
117.188 -328.125 1141
140.625 -437.5 1255
242.188 132.812 1739
273.438 187.5 1647
-187.5 -195.312 1197
-15.625 281.25 1529
132.812 304.688 1470
-195.312 -328.125 1259
359.375 -7.8125 1823
-140.625 195.312 1731
-148.438 351.562 1392
-31.25 -296.875 1138
273.438 203.125 1639
93.75 -195.312 1149
-343.75 62.5 1177
-343.75 85.9375 1189
-164.062 -226.562 1264
-85.9375 -328.125 1193
39.0625 -242.188 1181
-312.5 156.25 1227
390.625 -226.562 1236
484.375 54.6875 1470
-132.812 70.3125 1227
-15.625 -195.312 1138
390.625 -343.75 1197
62.5 -187.5 1141
148.438 -351.562 1153
15.625 -164.062 1141
-39.0625 -179.688 1123
93.75 -187.5 1149
54.6875 -320.312 1255
343.75 -210.938 1206
78.125 257.812 1439
140.625 -351.562 1145
-46.875 210.938 1680
-93.75 101.562 1516
-257.812 -328.125 3178
-234.375 140.625 1427
226.562 -203.125 1181
-15.625 -179.688 1134
85.9375 234.375 1421
7.8125 140.625 1427
62.5 234.375 1427
-148.438 195.312 1731
-54.6875 -242.188 1145
-304.688 351.562 1328
468.75 39.0625 1503
296.875 -203.125 1189
93.75 296.875 1470
-78.125 -281.25 1173
398.438 -226.562 1236
210.938 -398.438 1302
-109.375 218.75 1663
-171.875 -195.312 1193
7.8125 -343.75 1177
-226.562 140.625 1427
-312.5 195.312 1245
304.688 125 1609
-148.438 -226.562 1264
265.625 -335.938 1173
296.875 -335.938 1177
171.875 -195.312 1169
140.625 195.312 1464
-171.875 -148.438 1105
-15.625 -382.812 1153
-312.5 171.875 1232
62.5 101.562 1370
-31.25 -359.375 1169
320.312 -343.75 1181
335.938 195.312 1624
-156.25 -226.562 1264
-210.938 46.875 1210
195.312 85.9375 2028
-320.312 265.625 1278
296.875 156.25 1639
242.188 125 1766
101.562 148.438 1354
-23.4375 -187.5 1134
-375 -78.125 1108
-320.312 187.5 1241
210.938 -453.125 1273
0 54.6875 1255
-304.688 203.125 1245
-132.812 187.5 1748
-156.25 -351.562 1197
-304.688 148.438 1227
-54.6875 -351.562 1149
476.562 -351.562 1219
351.562 -210.938 1206
-140.625 -257.812 1264
273.438 -335.938 1173
125 -171.875 1165
-351.562 -15.625 1145
-195.312 195.312 1731
-312.5 203.125 1245
-46.875 335.938 1415
-304.688 -85.9375 1130
-70.3125 31.25 1236
-367.188 335.938 1731
429.688 -343.75 1202
-101.562 125 1464
382.812 -226.562 1245
-304.688 140.625 1219
85.9375 273.438 1439
-171.875 -101.562 1161
484.375 125 1509
-23.4375 171.875 1392
-250 375 1365
85.9375 -445.312 1421
-265.625 203.125 1696
125 -195.312 1157
257.812 117.188 1655
-226.562 -93.75 1145
-210.938 203.125 1713
148.438 85.9375 2016
-375 -132.812 1060
-218.75 125 1433
-109.375 93.75 1543
234.375 -125 1904
398.438 -140.625 1639
484.375 156.25 1516
-195.312 -304.688 1278
-85.9375 187.5 1739
312.5 -359.375 1173
-39.0625 171.875 1776
85.9375 -195.312 1149
-101.562 -39.0625 1169
23.4375 46.875 1259
312.5 -218.75 1206
257.812 -390.625 1398
-132.812 -195.312 1145
-492.188 304.688 1804
-421.875 93.75 2450
-304.688 179.688 1241
125 -328.125 1141
-312.5 148.438 1223
156.25 -351.562 1153
234.375 -179.688 1189
-101.562 -320.312 1193
234.375 93.75 1785
23.4375 -117.188 1197
7.8125 -210.938 1197
429.688 -335.938 1210
-226.562 132.812 1445
-54.6875 -281.25 1149
-31.25 101.562 1529
359.375 -367.188 1185
148.438 195.312 1464
-296.875 140.625 1219
85.9375 187.5 1381
179.688 -421.875 1278
23.4375 -234.375 1169
156.25 -195.312 1165
156.25 148.438 1445
7.8125 -367.188 1206
-179.688 -351.562 1227
-500 -78.125 2432
-437.5 140.625 2301
39.0625 -187.5 1141
-289.062 117.188 1496
31.25 46.875 1264
78.125 -320.312 1153
140.625 -328.125 1145
453.125 -343.75 1210
-109.375 -39.0625 1169
265.625 39.0625 2053
-304.688 164.062 1232
70.3125 -367.188 1236
101.562 -328.125 1138
312.5 125 1609
289.062 -335.938 1173
-109.375 -210.938 1219
-109.375 -335.938 1181
-125 85.9375 1557
-23.4375 -210.938 1210
-273.438 210.938 1688
289.062 -203.125 1189
39.0625 7.8125 1255
304.688 -132.812 1915
0 210.938 1671
-101.562 93.75 1543
93.75 187.5 1381
-85.9375 101.562 1516
-179.688 -23.4375 1161
187.5 -195.312 1169
-250 148.438 1421
-218.75 -226.562 1333
203.125 -453.125 1268
-226.562 -257.812 1439
101.562 125 1349
-109.375 -289.062 1210
-54.6875 -312.5 1165
-78.125 179.688 1766
-203.125 -343.75 1259
-484.375 -203.125 3037
39.0625 46.875 1264
-250 -93.75 1141
7.8125 23.4375 1255
273.438 -203.125 1189
-226.562 156.25 1404
453.125 125 1550
23.4375 -226.562 1169
-15.625 171.875 1392
-7.8125 23.4375 1255
210.938 -445.312 1273
-23.4375 -203.125 1185
-304.688 156.25 1232
46.875 -281.25 1181
-390.625 179.688 1227
265.625 203.125 1647
125 250 1470
257.812 -195.312 1185
156.25 -367.188 1153
-101.562 -250 1161
23.4375 218.75 1655
179.688 78.125 2028
187.5 -445.312 1273
46.875 -187.5 1141
335.938 -210.938 1206
-296.875 203.125 1259
-164.062 -23.4375 1161
-101.562 -156.25 1119
-218.75 195.312 1722
-390.625 -70.3125 1108
132.812 203.125 1445
31.25 -226.562 1259
179.688 -195.312 1169
-7.8125 -117.188 1189
328.125 -335.938 1189
109.375 226.562 1452
437.5 -210.938 1223
-289.062 -140.625 1084
390.625 -140.625 1655
234.375 281.25 1496
234.375 203.125 1655
-304.688 171.875 1236
296.875 101.562 1731
-7.8125 210.938 1671
7.8125 -164.062 1138
-70.3125 179.688 1766
-328.125 164.062 1223
-140.625 195.312 1731
-78.125 -179.688 1119
406.25 -226.562 1236
164.062 -390.625 1288
492.188 210.938 1572
367.188 179.688 1655
39.0625 -164.062 1149
-78.125 187.5 1739
-304.688 367.188 1338
-164.062 351.562 1392
-281.25 54.6875 1193
117.188 -171.875 1161
46.875 -226.562 1250
375 -210.938 1210
93.75 -195.312 1149
-296.875 -85.9375 1134
437.5 -359.375 1202
-460.938 -117.188 1047
367.188 78.125 1823
15.625 164.062 1392
-85.9375 -226.562 1165
-414.062 210.938 2078
101.562 -187.5 1153
-171.875 195.312 1731
62.5 148.438 1392
-46.875 70.3125 1594
62.5 250 1445
-125 31.25 1227
-140.625 -335.938 1197
390.625 -210.938 1214
93.75 242.188 1439
328.125 -226.562 1241
7.8125 195.312 1731
-187.5 -125 1145
-15.625 156.25 1392
312.5 109.375 1713
218.75 -195.312 1177
-39.0625 70.3125 1601
164.062 -351.562 1153
234.375 125 1757
234.375 -210.938 1189
-500 -85.9375 2432
-289.062 250 1273
-320.312 -140.625 1073
0 -117.188 1193
257.812 -335.938 1173
-257.812 203.125 1696
-78.125 -343.75 1149
437.5 148.438 1594
-54.6875 -265.625 1149
421.875 -210.938 1223
-62.5 -328.125 1161
-93.75 -296.875 1206
226.562 -210.938 1189
-54.6875 -179.688 1123
148.438 62.5 2005
320.312 210.938 1624
210.938 -39.0625 1959
-226.562 -210.938 1259
15.625 140.625 1421
171.875 -203.125 1169
-429.688 46.875 2680
273.438 226.562 1609
62.5 -406.25 1496
-62.5 -320.312 1149
289.062 203.125 1624
-156.25 -101.562 1165
-132.812 195.312 1731
-265.625 210.938 1680
39.0625 187.5 1557
226.562 -453.125 1273
70.3125 -187.5 1149
-140.625 351.562 1398
-148.438 187.5 1739
304.688 125 1609
101.562 164.062 1370
62.5 -320.312 1157
-226.562 140.625 1427
265.625 109.375 1647
242.188 -210.938 1189
-78.125 93.75 1550
15.625 148.438 1410
-101.562 -335.938 1181
-289.062 132.812 1458
242.188 203.125 1663
-125 -335.938 1173
242.188 218.75 1655
-296.875 179.688 1354
156.25 -328.125 1169
-257.812 93.75 1572
468.75 -351.562 1232
-234.375 -328.125 1278
171.875 78.125 2040
-70.3125 -312.5 1145
406.25 -367.188 1210
-437.5 7.8125 1138
460.938 -343.75 1232
484.375 31.25 1458
-257.812 406.25 1601
281.25 195.312 1639
-320.312 203.125 1245
62.5 296.875 1464
23.4375 164.062 1381
-54.6875 156.25 1415
-242.188 -140.625 1097
-218.75 140.625 1445
-85.9375 -312.5 1202
-15.625 140.625 1452
476.562 -195.312 1264
382.812 -375 1259
-148.438 -335.938 1181
85.9375 156.25 1365
234.375 226.562 1639
-281.25 125 1483
414.062 -210.938 1241
-140.625 -203.125 1227
31.25 -187.5 1153
-242.188 125 1483
-31.25 148.438 1433
460.938 117.188 1509
-140.625 101.562 1543
421.875 -343.75 1219
-257.812 85.9375 1197
-46.875 -328.125 1149
-500 210.938 2028
468.75 23.4375 1464
-257.812 54.6875 1210
132.812 218.75 1464
398.438 -367.188 1210
406.25 -210.938 1241
-109.375 132.812 1470
-78.125 -335.938 1165
-312.5 179.688 1359
-39.0625 117.188 1496
-187.5 187.5 1354
-70.3125 140.625 1452
453.125 -335.938 1232
-39.0625 -242.188 1149
7.8125 -117.188 1202
-46.875 -179.688 1134
-195.312 70.3125 1227
-54.6875 -328.125 1149
203.125 -195.312 1189
234.375 -335.938 1177
265.625 -335.938 1185
320.312 -218.75 1259
-7.8125 -242.188 1165
-179.688 179.688 1365
39.0625 -117.188 1206
-7.8125 171.875 1398
148.438 -328.125 1169
-218.75 -23.4375 1177
-406.25 -101.562 1090
-39.0625 -156.25 1134
-132.812 101.562 1550
62.5 187.5 1387
-203.125 -93.75 1165
-31.25 -343.75 1177
359.375 -351.562 1202
-125 140.625 1452
-85.9375 62.5 1250
23.4375 148.438 1427
109.375 -187.5 1165
210.938 210.938 1671
210.938 195.312 1688
-242.188 148.438 1433
382.812 -140.625 1317
398.438 -226.562 1283
85.9375 132.812 1359
-132.812 156.25 1415
-39.0625 -320.312 1145
-93.75 125 1483
257.812 -179.688 1206
-226.562 171.875 1376
-375 312.5 1292
31.25 -328.125 1259
-101.562 -171.875 1126
273.438 -335.938 1185
46.875 -171.875 1149
-93.75 -156.25 1130
476.562 140.625 1572
-296.875 156.25 1415
-281.25 203.125 1317
-93.75 156.25 1415
-195.312 203.125 1354
-7.8125 -234.375 1169
0 156.25 1410
-226.562 156.25 1410
31.25 -164.062 1153
-273.438 171.875 1376
-304.688 179.688 1354
-93.75 62.5 1250
414.062 -343.75 1219
-93.75 -281.25 1177
242.188 -390.625 1410
-93.75 140.625 1445
-101.562 148.438 1439
0 -367.188 1245
-453.125 210.938 2078
218.75 195.312 1680
-132.812 -101.562 1177
117.188 -187.5 1165
101.562 -195.312 1169
-31.25 109.375 1523
-54.6875 78.125 1594
281.25 -203.125 1210
-156.25 140.625 1445
453.125 140.625 1523
-468.75 -117.188 1047
171.875 85.9375 2040
70.3125 304.688 1483
31.25 -367.188 1264
-273.438 210.938 1333
304.688 -335.938 1193
117.188 148.438 1427
-132.812 39.0625 1241
-289.062 367.188 1359
437.5 -343.75 1223
-85.9375 171.875 1387
-156.25 125 1464
109.375 125 1427
476.562 -343.75 1241
-218.75 -257.812 1297
-31.25 164.062 1398
171.875 -414.062 1292
-335.938 242.188 1264
7.8125 171.875 1404
296.875 195.312 1647
23.4375 -242.188 1185
-93.75 78.125 1616
-156.25 -23.4375 1169
296.875 -335.938 1189
15.625 132.812 1464
54.6875 -187.5 1153
242.188 -195.312 1197
-117.188 -109.375 1177
-226.562 179.688 1365
273.438 109.375 1748
468.75 -226.562 1297
-23.4375 -210.938 1169
257.812 140.625 1639
23.4375 -390.625 1464
-351.562 148.438 1214
-85.9375 140.625 1452
-359.375 62.5 1177
-210.938 125 1483
-156.25 148.438 1433
-46.875 140.625 1452
-46.875 -312.5 1145
296.875 -203.125 1210
-382.812 -23.4375 1126
-382.812 0 1138
-31.25 140.625 1452
-312.5 304.688 1297
-210.938 0 1193
-296.875 132.812 1464
85.9375 85.9375 1328
328.125 132.812 1647
187.5 62.5 2040
179.688 -203.125 1193
-281.25 195.312 1317
-46.875 31.25 1250
296.875 187.5 1624
78.125 304.688 1489
39.0625 164.062 1410
-54.6875 179.688 1387
343.75 156.25 1688
-70.3125 164.062 1387
-468.75 -257.812 3064
-492.188 -117.188 1044
-296.875 171.875 1381
-15.625 54.6875 1268
-257.812 195.312 1338
-125 164.062 1398
218.75 218.75 1663
-289.062 187.5 1343
-179.688 132.812 1470
-85.9375 125 1483
46.875 -164.062 1153
-218.75 171.875 1376
-70.3125 -351.562 1161
-453.125 -117.188 1050
460.938 -78.125 1458
218.75 -7.8125 1993
-218.75 195.312 1343
31.25 -218.75 1264
-39.0625 335.938 1433
148.438 -171.875 1177
-93.75 93.75 1557
226.562 -445.312 1359
-375 335.938 1731
31.25 -289.062 1189
445.312 226.562 1579
-85.9375 179.688 1381
195.312 54.6875 2040
335.938 -218.75 1264
-39.0625 148.438 1427
-23.4375 179.688 1398
-101.562 -281.25 1185
484.375 -195.312 1264
-125 171.875 1381
-117.188 -101.562 1177
265.625 -195.312 1206
132.812 156.25 1843
476.562 -351.562 1236
460.938 132.812 1516
-179.688 195.312 1354
203.125 -445.312 1273
-62.5 -468.75 3208
-125 -179.688 1145
226.562 -179.688 1197
312.5 -203.125 1214
-85.9375 117.188 1509
-78.125 -109.375 1185
-54.6875 -156.25 1134
-31.25 85.9375 1586
78.125 187.5 1387
-85.9375 39.0625 1245
70.3125 257.812 1452
-46.875 171.875 1387
203.125 210.938 1680
468.75 78.125 1489
-218.75 156.25 1410
-70.3125 187.5 1387
-78.125 109.375 1523
-93.75 164.062 1398
-156.25 132.812 1464
-148.438 171.875 1381
171.875 -203.125 1193
-226.562 0 1189
7.8125 328.125 1445
257.812 -210.938 1232
-234.375 -140.625 1097
-132.812 -234.375 1177
257.812 -125 1278
210.938 -195.312 1189
-171.875 187.5 1354
484.375 -406.25 1609
351.562 164.062 1688
-304.688 171.875 1387
328.125 -218.75 1264
-31.25 125 1489
210.938 -406.25 1307
234.375 218.75 1655
-85.9375 -304.688 1185
-62.5 -156.25 1134
-164.062 -101.562 1169
-414.062 -109.375 1057
-179.688 117.188 1509
-93.75 70.3125 1250
31.25 -265.625 1189
-273.438 117.188 1496
-109.375 -171.875 1123
187.5 -195.312 1185
-296.875 179.688 1354
437.5 -359.375 1219
250 -210.938 1236
406.25 -226.562 1292
-492.188 -85.9375 1041
46.875 -187.5 1153
-234.375 78.125 1223
-210.938 195.312 1343
70.3125 164.062 1370
-257.812 203.125 1338
421.875 -23.4375 1557
15.625 -226.562 1185
289.062 -335.938 1189
179.688 -156.25 1227
-70.3125 -328.125 1153
164.062 -195.312 1181
31.25 46.875 1273
-109.375 -39.0625 1181
484.375 -218.75 1268
62.5 -171.875 1153
-226.562 78.125 1223
-250 101.562 1543
-234.375 156.25 1415
-304.688 320.312 1312
-156.25 -148.438 1115
250 -125 1273
-187.5 -343.75 1206
-226.562 -140.625 1097
0 -468.75 1452
171.875 109.375 1959
-101.562 -343.75 1149
-148.438 156.25 1410
-70.3125 117.188 1503
-210.938 171.875 1381
226.562 -421.875 1370
46.875 -195.312 1169
-15.625 -351.562 1219
-62.5 -148.438 1141
0 -195.312 1169
375 -187.5 1232
437.5 -132.812 1489
492.188 125 1586
-23.4375 164.062 1398
70.3125 187.5 1387
-195.312 46.875 1223
453.125 -210.938 1245
62.5 242.188 1421
-476.562 -85.9375 1050
429.688 -359.375 1214
257.812 156.25 1647
328.125 -203.125 1223
-148.438 132.812 1477
-289.062 164.062 1392
-250 203.125 1333
-218.75 140.625 1445
-257.812 179.688 1365
-70.3125 132.812 1464
312.5 140.625 1632
-140.625 179.688 1365
359.375 171.875 1688
242.188 -210.938 1232
-125 -234.375 1177
179.688 -328.125 1173
-23.4375 54.6875 1268
312.5 125 1632
-179.688 93.75 1557
-31.25 148.438 1433
-85.9375 343.75 1415
117.188 218.75 1464
46.875 -367.188 1264
-140.625 -148.438 1119
195.312 -328.125 1177
-85.9375 109.375 1529
-148.438 -148.438 1115
-289.062 -85.9375 1141
132.812 -187.5 1169
-281.25 203.125 1317
-289.062 148.438 1421
23.4375 -195.312 1165
-15.625 109.375 1523
85.9375 171.875 1376
-203.125 187.5 1354
171.875 -195.312 1181
-156.25 109.375 1529
-156.25 70.3125 1245
-367.188 -78.125 1123
-132.812 101.562 1550
62.5 148.438 1365
-195.312 109.375 1529
-210.938 -93.75 1157
-31.25 -109.375 1197
-250 78.125 1210
-62.5 -328.125 1153
164.062 -414.062 1292
-500 -328.125 2381
-500 -328.125 2381
210.938 -210.938 1232
-390.625 234.375 1241
320.312 -218.75 1259
468.75 -351.562 1232
-39.0625 31.25 1255
-242.188 78.125 1219
328.125 -351.562 1197
-46.875 78.125 1601
-281.25 -85.9375 1141
-265.625 210.938 1338
132.812 -328.125 1153
31.25 -328.125 1259
-78.125 179.688 1381
-156.25 -335.938 1189
23.4375 148.438 1427
70.3125 -320.312 1149
250 93.75 1748
460.938 -351.562 1223
-93.75 125 1483
-140.625 85.9375 1579
-140.625 117.188 1509
-31.25 -289.062 1149
-218.75 164.062 1392
179.688 -351.562 1169
-93.75 -320.312 1189
-210.938 -195.312 1210
-109.375 109.375 1516
-164.062 125 1489
-273.438 101.562 1543
-195.312 164.062 1404
117.188 -195.312 1169
-296.875 117.188 1503
304.688 125 1616
-62.5 -234.375 1157
281.25 109.375 1748
-289.062 125 1483
-23.4375 171.875 1398
-85.9375 78.125 1594
-31.25 156.25 1421
-101.562 -335.938 1189
-7.8125 54.6875 1268
-109.375 85.9375 1586
-218.75 148.438 1427
-179.688 -210.938 1227
-343.75 54.6875 1177
-85.9375 -250 1149
-117.188 164.062 1398
234.375 -70.3125 1947
-476.562 375 1632
-210.938 -320.312 1259
-179.688 46.875 1227
-125 101.562 1543
164.062 -445.312 1273
0 -218.75 1177
0 -250 1161
281.25 -195.312 1206
421.875 -226.562 1250
-203.125 359.375 1387
78.125 132.812 1359
39.0625 -187.5 1153
-7.8125 156.25 1410
335.938 -335.938 1206
-117.188 140.625 1452
265.625 -179.688 1206
-85.9375 140.625 1452
-421.875 210.938 2065
132.812 -398.438 1283
-31.25 140.625 1452
-257.812 210.938 1338
-85.9375 171.875 1387
-210.938 156.25 1410
468.75 132.812 1516
-85.9375 70.3125 1250
-132.812 93.75 1550
156.25 -171.875 1185
-62.5 187.5 1387
-250 54.6875 1210
-226.562 85.9375 1564
-179.688 148.438 1433
62.5 -320.312 1153
367.188 250 1557
476.562 109.375 1503
-132.812 351.562 1410
-85.9375 156.25 1415
156.25 -328.125 1169
-70.3125 -343.75 1165
-312.5 296.875 1297
-78.125 -234.375 1145
-46.875 117.188 1496
148.438 93.75 2016
23.4375 -117.188 1202
-289.062 171.875 1376
-226.562 164.062 1398
-140.625 195.312 1365
187.5 -156.25 1236
-39.0625 179.688 1387
-421.875 -125 1054
414.062 -140.625 1322
-296.875 164.062 1387
148.438 -375 1297
-320.312 210.938 1259
-140.625 375 1404
7.8125 179.688 1404
234.375 187.5 1647
164.062 -328.125 1169
46.875 -320.312 1165
-289.062 187.5 1343
-296.875 -132.812 1087
156.25 -156.25 1227
-179.688 -125 1157
375 -375 1259
0 23.4375 1259
-218.75 85.9375 1586
257.812 187.5 1624
-46.875 164.062 1392
164.062 109.375 1947
-78.125 187.5 1387
-296.875 187.5 1343
203.125 -195.312 1189
-281.25 140.625 1439
-101.562 85.9375 1579
-281.25 195.312 1317
-62.5 -351.562 1161
23.4375 164.062 1381
70.3125 -445.312 1421
-218.75 -171.875 1126
93.75 -343.75 1145
-125 -101.562 1177
15.625 -367.188 1349
-23.4375 148.438 1433
-226.562 -132.812 1105
39.0625 46.875 1278
-46.875 -156.25 1134
0 -398.438 1523
-78.125 109.375 1523
203.125 218.75 1663
179.688 -359.375 1169
203.125 -164.062 1210
-390.625 -125 1063
-101.562 39.0625 1245
218.75 -414.062 1381
414.062 -210.938 1241
-85.9375 125 1483
-218.75 78.125 1227
226.562 -195.312 1193
78.125 226.562 1445
289.062 187.5 1616
101.562 -187.5 1165
257.812 -210.938 1232
-78.125 171.875 1387
132.812 148.438 1843
-343.75 -132.812 1073
179.688 -203.125 1193
421.875 -210.938 1241
109.375 117.188 1427
-54.6875 148.438 1427
-179.688 156.25 1421
31.25 -195.312 1181
-78.125 -273.438 1161
-484.375 -85.9375 1050
0 171.875 1398
234.375 -195.312 1193
0 -343.75 1193
343.75 -203.125 1223
468.75 -156.25 1328
-281.25 148.438 1427
-414.062 -132.812 1057
-187.5 164.062 1398
-78.125 343.75 1421
-328.125 210.938 1250
-335.938 171.875 1227
-62.5 -312.5 1145
-265.625 54.6875 1206
-171.875 -257.812 1264
-171.875 179.688 1365
-148.438 101.562 1536
-210.938 179.688 1359
476.562 140.625 1572
445.312 -210.938 1245
-93.75 -335.938 1149
-101.562 -171.875 1126
-85.9375 148.438 1427
-171.875 140.625 1452
-93.75 179.688 1376
-23.4375 -210.938 1169
335.938 -218.75 1264
226.562 195.312 1671
-23.4375 117.188 1509
-15.625 179.688 1398
296.875 -335.938 1189
406.25 -140.625 1317
-148.438 179.688 1370
-203.125 156.25 1421
-15.625 171.875 1398
-250 -335.938 1283
304.688 179.688 1616
-390.625 -132.812 1063
-23.4375 164.062 1398
390.625 23.4375 1655
328.125 -218.75 1264
-23.4375 78.125 1609
-148.438 156.25 1410
-281.25 187.5 1349
-273.438 195.312 1333
-320.312 62.5 1189
7.8125 101.562 1543
117.188 250 1477
-242.188 195.312 1338
-218.75 -226.562 1278
62.5 304.688 1470
-210.938 125 1483
85.9375 -320.312 1149
-46.875 -203.125 1202
187.5 187.5 1713
-140.625 132.812 1477
-85.9375 -234.375 1149
-54.6875 125 1483
7.8125 171.875 1404
289.062 109.375 1739
-148.438 -203.125 1227
-62.5 93.75 1564
-62.5 164.062 1387
234.375 125 1680
-265.625 101.562 1536
156.25 93.75 2040
-62.5 148.438 1421
398.438 -210.938 1236
-171.875 93.75 1557
-218.75 -187.5 1181
-242.188 101.562 1550
-179.688 171.875 1387
-148.438 78.125 1601
-70.3125 -281.25 1153
-101.562 -257.812 1165
-125 93.75 1550
15.625 171.875 1398
-218.75 179.688 1365
-273.438 203.125 1333
-101.562 343.75 1421
-70.3125 -234.375 1149
-234.375 195.312 1338
-62.5 -226.562 1157
476.562 218.75 1601
484.375 125 1601
453.125 226.562 1579
-70.3125 109.375 1516
15.625 23.4375 1264
-242.188 203.125 1343
-31.25 335.938 1439
460.938 -210.938 1250
148.438 -437.5 1273
-289.062 164.062 1392
-203.125 -195.312 1219
468.75 -210.938 1255
421.875 -359.375 1210
-406.25 148.438 1202
-54.6875 -281.25 1145
117.188 148.438 1427
-242.188 54.6875 1214
117.188 -187.5 1165
140.625 -328.125 1157
-140.625 179.688 1365
-109.375 125 1489
148.438 -328.125 1169
-132.812 179.688 1370
226.562 226.562 1639
-70.3125 -132.812 1177
-31.25 -242.188 1149
-78.125 -210.938 1157
187.5 -359.375 1173
-250 210.938 1333
0 179.688 1398
210.938 -195.312 1189
-148.438 148.438 1433
390.625 -367.188 1210
304.688 -335.938 1193
164.062 85.9375 2040
-164.062 187.5 1359
203.125 156.25 1705
-125 -343.75 1149
289.062 226.562 1624
-85.9375 164.062 1387
-85.9375 -343.75 1153
-187.5 46.875 1227
-148.438 164.062 1392
-46.875 -351.562 1169
93.75 -187.5 1165
-46.875 -343.75 1165
-117.188 -171.875 1123
-132.812 109.375 1523
-23.4375 132.812 1470
-78.125 164.062 1387
-117.188 -328.125 1185
289.062 179.688 1616
-148.438 -101.562 1177
-54.6875 171.875 1387
343.75 -171.875 1268
-164.062 93.75 1564
125 -195.312 1169
343.75 -132.812 1307
-195.312 359.375 1392
-125 85.9375 1579
-273.438 -85.9375 1141
-140.625 140.625 1464
-203.125 -328.125 1241
-39.0625 -226.562 1161
-304.688 85.9375 1197
429.688 -226.562 1283
-31.25 148.438 1433
-203.125 187.5 1354
-85.9375 132.812 1470
-7.8125 54.6875 1268
-7.8125 -242.188 1165
195.312 -203.125 1202
125 148.438 1863
109.375 -445.312 1255
-117.188 195.312 1376
-125 -148.438 1119
15.625 -335.938 1292
-195.312 -273.438 1268
-15.625 62.5 1639
-328.125 117.188 1210
-179.688 101.562 1543
-226.562 93.75 1557
-140.625 187.5 1365
-281.25 367.188 1365
-195.312 109.375 1529
-132.812 117.188 1509
-140.625 -101.562 1177
-148.438 70.3125 1232
31.25 23.4375 1268
468.75 -226.562 1297
-171.875 78.125 1245
-62.5 187.5 1387
-359.375 125 1206
-93.75 140.625 1445
-328.125 429.688 1370
7.8125 -187.5 1149
-15.625 54.6875 1268
-218.75 -257.812 1297
39.0625 320.312 1464
-70.3125 117.188 1503
265.625 -210.938 1227
-242.188 179.688 1359
453.125 -359.375 1223
-85.9375 -335.938 1181
140.625 -421.875 1273
-109.375 179.688 1381
109.375 -343.75 1153
-46.875 179.688 1387
-78.125 125 1483
-148.438 140.625 1445
-117.188 101.562 1543
-156.25 171.875 1387
-437.5 359.375 1671
-281.25 156.25 1404
-117.188 -148.438 1123
-289.062 148.438 1421
-210.938 140.625 1445
343.75 -335.938 1206
-203.125 117.188 1509
179.688 -429.688 1288
-242.188 359.375 1381
-140.625 70.3125 1232
476.562 -156.25 1343
156.25 101.562 1947
312.5 -203.125 1214
164.062 101.562 1970
476.562 -15.625 1433
-273.438 132.812 1452
-54.6875 93.75 1564
-156.25 156.25 1415
171.875 85.9375 2040
-132.812 132.812 1477
-101.562 -320.312 1193
-15.625 -351.562 1219
179.688 -437.5 1288
-468.75 375 1632
-78.125 179.688 1381
-39.0625 78.125 1601
15.625 328.125 1445
-140.625 -257.812 1245
-164.062 179.688 1365
-117.188 171.875 1381
-453.125 367.188 1655
-70.3125 -187.5 1157
-226.562 -289.062 1283
382.812 -187.5 1236
-140.625 117.188 1509
-210.938 195.312 1343
62.5 148.438 1365
-273.438 109.375 1516
-70.3125 -203.125 1161
-70.3125 125 1483
421.875 -320.312 1232
-234.375 148.438 1427
-289.062 85.9375 1202
-148.438 187.5 1365
476.562 132.812 1516
-31.25 101.562 1536
-70.3125 62.5 1250
-234.375 101.562 1550
-78.125 156.25 1415
-148.438 125 1489
-125 101.562 1543
320.312 -203.125 1219
-179.688 164.062 1398
-125 351.562 1410
117.188 125 1427
-343.75 62.5 1185
-46.875 31.25 1250
343.75 -398.438 1322
289.062 148.438 1624
-31.25 -179.688 1134
-335.938 171.875 1227
-140.625 164.062 1392
-93.75 -289.062 1177
-304.688 101.562 1536
-23.4375 171.875 1398
-281.25 179.688 1359
476.562 -218.75 1259
-187.5 -195.312 1214
70.3125 -382.812 1370
-46.875 85.9375 1572
-109.375 -171.875 1123
468.75 -351.562 1232
484.375 -218.75 1268
-187.5 -93.75 1165
429.688 -140.625 1333
-125 195.312 1365
62.5 -164.062 1165
-218.75 132.812 1464
78.125 -164.062 1169
7.8125 -218.75 1181
132.812 117.188 1926
-203.125 179.688 1359
234.375 132.812 1680
453.125 -351.562 1223
-148.438 85.9375 1579
312.5 171.875 1624
-242.188 140.625 1439
125 46.875 1981
-23.4375 -351.562 1202
-109.375 -101.562 1181
-23.4375 148.438 1433
-140.625 171.875 1376
257.812 -195.312 1202
-39.0625 -281.25 1145
-257.812 171.875 1370
-179.688 -328.125 1219
421.875 -226.562 1250
226.562 203.125 1671
171.875 -414.062 1292
382.812 -335.938 1210
-140.625 156.25 1415
-54.6875 -351.562 1169
171.875 -453.125 1273
437.5 -226.562 1283
-46.875 171.875 1387
-281.25 148.438 1427
-78.125 132.812 1477
-359.375 109.375 1197
-54.6875 187.5 1387
-46.875 -234.375 1157
312.5 218.75 1647
-156.25 117.188 1516
31.25 -367.188 1264
453.125 125 1509
-78.125 -171.875 1130
-210.938 109.375 1529
-257.812 54.6875 1210
-78.125 62.5 1250
-257.812 210.938 1338
-54.6875 -109.375 1189
-39.0625 -156.25 1134
-320.312 109.375 1516
476.562 46.875 1458
484.375 140.625 1579
-156.25 -132.812 1157
-101.562 -242.188 1157
367.188 -335.938 1210
132.812 148.438 1843
78.125 257.812 1470
7.8125 171.875 1404
-125 -140.625 1130
-210.938 85.9375 1232
23.4375 171.875 1381
351.562 -218.75 1264
-132.812 101.562 1550
281.25 148.438 1624
-93.75 -242.188 1149
-132.812 -187.5 1169
-234.375 156.25 1415
-132.812 195.312 1365
-242.188 -335.938 1278
-187.5 203.125 1354
-140.625 148.438 1433
-273.438 187.5 1349
179.688 -195.312 1181
-328.125 195.312 1245
-210.938 148.438 1439
492.188 78.125 1564
31.25 312.5 1477
-15.625 156.25 1421
-257.812 101.562 1536
-250 109.375 1523
-54.6875 85.9375 1572
-23.4375 -289.062 1157
-164.062 132.812 1464
-273.438 148.438 1433
-203.125 195.312 1354
109.375 218.75 1458
281.25 -179.688 1214
-281.25 187.5 1349
-265.625 203.125 1338
-117.188 -101.562 1177
101.562 117.188 1427
132.812 -187.5 1169
359.375 -132.812 1722
-226.562 187.5 1338
-203.125 148.438 1439
-39.0625 85.9375 1579
-70.3125 156.25 1410
-304.688 296.875 1297
140.625 117.188 1926
296.875 226.562 1624
132.812 78.125 2016
-390.625 -101.562 1090
85.9375 179.688 1381
-210.938 -257.812 1268
-171.875 -179.688 1149
-164.062 101.562 1543
351.562 -351.562 1202
70.3125 -164.062 1165
-31.25 -156.25 1138
226.562 218.75 1663
-109.375 195.312 1387
218.75 195.312 1680
195.312 -328.125 1177
23.4375 -210.938 1232
335.938 -203.125 1223
-85.9375 -281.25 1165
-148.438 -257.812 1255
-304.688 312.5 1302
-15.625 171.875 1398
304.688 187.5 1624
31.25 179.688 1398
-226.562 -250 1273
-437.5 -179.688 1214
-203.125 -195.312 1219
-226.562 -93.75 1153
-250 54.6875 1210
328.125 140.625 1647
-226.562 195.312 1338
-54.6875 101.562 1536
0 -242.188 1169
367.188 257.812 1550
-257.812 195.312 1338
359.375 -335.938 1206
226.562 93.75 1813
54.6875 -164.062 1161
-210.938 -265.625 1292
-210.938 78.125 1232
-54.6875 -179.688 1138
164.062 289.062 1516
-203.125 171.875 1392
-242.188 -328.125 1283
-85.9375 -226.562 1149
218.75 -328.125 1177
-132.812 179.688 1370
195.312 -195.312 1185
-39.0625 179.688 1387
-382.812 -78.125 1112
375 203.125 1655
-195.312 125 1483
476.562 -210.938 1259
-93.75 -343.75 1149
-406.25 343.75 1713
-484.375 210.938 2065
-54.6875 148.438 1427
289.062 101.562 1748
93.75 -437.5 1273
-335.938 171.875 1227
-78.125 93.75 1564
125 -195.312 1169
93.75 -320.312 1149
-62.5 -296.875 1149
-195.312 195.312 1354
23.4375 -359.375 1297
31.25 -328.125 1259
-203.125 140.625 1445
210.938 -328.125 1173
-210.938 179.688 1359
0 179.688 1398
-140.625 78.125 1594
203.125 -328.125 1177
-70.3125 179.688 1387
148.438 250 1601
-62.5 171.875 1387
-250 210.938 1333
-164.062 -351.562 1193
39.0625 -187.5 1153
-7.8125 171.875 1398
-132.812 78.125 1586
250 179.688 1632
-445.312 -117.188 1050
117.188 -343.75 1157
-54.6875 -171.875 1130
-23.4375 70.3125 1624
-242.188 164.062 1398
-62.5 -351.562 1161
-273.438 171.875 1376
-296.875 203.125 1317
-210.938 -195.312 1210
-125 179.688 1370
-367.188 -125 1070
-23.4375 -156.25 1145
203.125 -203.125 1202
-171.875 203.125 1722
-164.062 140.625 1452
-85.9375 -335.938 1181
78.125 187.5 1387
289.062 203.125 1639
-46.875 164.062 1392
460.938 -351.562 1223
203.125 54.6875 2040
-15.625 148.438 1439
-15.625 -109.375 1197
257.812 -335.938 1185
-187.5 187.5 1354
-242.188 -406.25 3120
-109.375 -328.125 1193
375 -218.75 1255
-39.0625 -234.375 1153
-273.438 164.062 1398
39.0625 109.375 1359
382.812 -367.188 1206
187.5 -328.125 1173
-312.5 210.938 1259
-46.875 187.5 1387
-140.625 101.562 1543
-70.3125 125 1483
-109.375 187.5 1387
476.562 -406.25 1616
-70.3125 70.3125 1624
-109.375 -343.75 1149
15.625 171.875 1398
-109.375 -195.312 1185
328.125 -351.562 1197
109.375 312.5 1470
-156.25 70.3125 1245
-265.625 -85.9375 1145
-70.3125 132.812 1464
-171.875 156.25 1421
218.75 179.688 1647
-164.062 156.25 1421
-101.562 -343.75 1149
-101.562 148.438 1439
398.438 -343.75 1214
484.375 101.562 1601
-250 187.5 1333
265.625 187.5 1616
101.562 -351.562 1153
-164.062 -257.812 1268
-15.625 -304.688 1181
335.938 -398.438 1317
-54.6875 78.125 1594
-312.5 62.5 1189
-78.125 62.5 1250
-273.438 179.688 1365
-78.125 -335.938 1165
242.188 226.562 1639
343.75 -203.125 1223
171.875 -328.125 1173
-242.188 -156.25 1097
62.5 -187.5 1157
460.938 -304.688 1250
140.625 -453.125 1255
-70.3125 -335.938 1161
-234.375 203.125 1343
367.188 -343.75 1206
250 195.312 1655
-78.125 -156.25 1130
-109.375 101.562 1543
0 -343.75 1193
148.438 101.562 1936
445.312 -226.562 1297
-93.75 -171.875 1126
421.875 -187.5 1245
-31.25 78.125 1601
-242.188 210.938 1343
-101.562 164.062 1398
-140.625 62.5 1232
-31.25 171.875 1392
15.625 148.438 1427
-93.75 -218.75 1157
148.438 109.375 1936
-304.688 210.938 1317
398.438 218.75 1616
-23.4375 179.688 1398
-93.75 85.9375 1579
-312.5 203.125 1245
-203.125 85.9375 1594
-164.062 148.438 1439
-320.312 312.5 1302
-101.562 187.5 1381
-125 109.375 1523
-234.375 179.688 1359
-78.125 117.188 1509
-210.938 132.812 1464
0 85.9375 1579
70.3125 -320.312 1149
289.062 148.438 1624
-257.812 203.125 1338
218.75 -195.312 1189
-234.375 54.6875 1210
-312.5 101.562 1536
46.875 -429.688 1445
-195.312 187.5 1354
-343.75 406.25 1354
-226.562 -265.625 1302
242.188 -195.312 1197
-320.312 218.75 1264
343.75 -343.75 1202
78.125 -460.938 1273
-242.188 187.5 1338
-62.5 179.688 1387
-265.625 195.312 1338
-15.625 -460.938 1477
-78.125 -226.562 1145
70.3125 -179.688 1157
109.375 -343.75 1153
-148.438 351.562 1398
-85.9375 39.0625 1245
0 -304.688 1185
-132.812 164.062 1404
-78.125 148.438 1427
117.188 -187.5 1165
-117.188 85.9375 1586
-85.9375 109.375 1529
429.688 -226.562 1283
-62.5 -203.125 1161
-93.75 -39.0625 1181
-54.6875 187.5 1387
304.688 109.375 1739
-203.125 -140.625 1108
-46.875 179.688 1387
23.4375 140.625 1439
-109.375 171.875 1387
-218.75 359.375 1381
-46.875 101.562 1536
-7.8125 125 1477
375 -203.125 1227
328.125 -335.938 1202
-156.25 -257.812 1264
156.25 93.75 2040
-460.938 -85.9375 1054
-226.562 101.562 1550
468.75 125 1503
-54.6875 164.062 1387
-132.812 156.25 1415
-312.5 171.875 1387
242.188 234.375 1609
-218.75 93.75 1557
-117.188 -171.875 1123
-78.125 156.25 1415
-101.562 -328.125 1193
281.25 148.438 1624
-78.125 -242.188 1145
-218.75 164.062 1392
203.125 164.062 1688
-218.75 -93.75 1153
-101.562 132.812 1464
-203.125 164.062 1398
-281.25 93.75 1572
-257.812 367.188 1370
-195.312 171.875 1387
453.125 -226.562 1259
101.562 195.312 1445
359.375 -343.75 1202
-265.625 148.438 1433
15.625 -179.688 1149
-101.562 -23.4375 1177
234.375 132.812 1680
429.688 -335.938 1227
39.0625 -117.188 1206
187.5 179.688 1713
-78.125 70.3125 1250
54.6875 -187.5 1153
-171.875 187.5 1354
-210.938 85.9375 1232
54.6875 -320.312 1165
-46.875 93.75 1564
125 -343.75 1153
-62.5 187.5 1387
-85.9375 148.438 1427
-70.3125 156.25 1410
-85.9375 179.688 1381
-156.25 195.312 1365
-39.0625 179.688 1387
210.938 -195.312 1189
-265.625 125 1477
-257.812 -117.188 1134
-179.688 203.125 1354
367.188 -218.75 1268
468.75 -210.938 1255
-289.062 156.25 1404
-257.812 109.375 1509
-164.062 -203.125 1232
-46.875 -335.938 1157
-78.125 187.5 1387
320.312 -203.125 1219
-93.75 156.25 1415
-179.688 148.438 1433
-390.625 335.938 1731
179.688 -171.875 1185
31.25 23.4375 1268
-70.3125 140.625 1452
273.438 148.438 1632
343.75 -335.938 1206
250 -195.312 1197
-117.188 351.562 1410
-7.8125 -226.562 1173
85.9375 -187.5 1157
140.625 -195.312 1173
-93.75 179.688 1376
-171.875 101.562 1543
-7.8125 54.6875 1268
390.625 -203.125 1232
-273.438 187.5 1349
-140.625 156.25 1415
171.875 117.188 1936
296.875 -203.125 1210
-109.375 195.312 1387
351.562 -203.125 1223
-289.062 132.812 1464
312.5 156.25 1647
-234.375 164.062 1398
-476.562 -85.9375 1050
265.625 203.125 1647
-7.8125 109.375 1523
-101.562 195.312 1381
-15.625 -320.312 1161
-195.312 164.062 1404
203.125 -195.312 1189
-78.125 78.125 1586
-62.5 171.875 1387
-132.812 -468.75 3149
85.9375 304.688 1496
-62.5 343.75 1421
31.25 -117.188 1202
-179.688 -257.812 1259
-156.25 132.812 1464
414.062 -187.5 1245
-304.688 187.5 1349
226.562 140.625 1680
-46.875 -320.312 1145
-187.5 195.312 1354
304.688 148.438 1624
-125 148.438 1439
148.438 93.75 2016
359.375 -218.75 1227
-54.6875 -312.5 1145
289.062 -210.938 1223
140.625 109.375 1936
257.812 203.125 1655
-39.0625 132.812 1464
-101.562 -101.562 1181
-312.5 164.062 1398
-7.8125 -250 1157
468.75 -335.938 1241
109.375 -460.938 1250
-148.438 171.875 1381
-437.5 210.938 2065
-15.625 148.438 1439
117.188 -320.312 1153
117.188 203.125 1464
437.5 -226.562 1283
-156.25 164.062 1404
-195.312 179.688 1359
351.562 -218.75 1264
-140.625 125 1483
320.312 -335.938 1202
-218.75 -218.75 1302
390.625 -367.188 1210
-406.25 -125 1057
-210.938 -218.75 1292
492.188 -343.75 1245
-265.625 187.5 1349
62.5 -320.312 1153
-226.562 54.6875 1210
-78.125 -343.75 1153
375 -375 1259
-210.938 125 1483
85.9375 296.875 1496
0 54.6875 1273
265.625 -210.938 1227
382.812 -203.125 1232
437.5 234.375 1572
148.438 -187.5 1173
-296.875 210.938 1322
-46.875 140.625 1452
-46.875 148.438 1427
-218.75 -312.5 1278
-304.688 62.5 1193
-164.062 -195.312 1206
-15.625 -289.062 1161
-226.562 140.625 1445
-351.562 -78.125 1130
210.938 -328.125 1173
-203.125 132.812 1470
-171.875 -257.812 1264
-132.812 -101.562 1177
437.5 -335.938 1227
-31.25 179.688 1392
484.375 46.875 1458
-257.812 195.312 1338
320.312 156.25 1655
70.3125 242.188 1439
351.562 -359.375 1197
-125 -328.125 1185
335.938 265.625 1536
367.188 -335.938 1210
492.188 31.25 1452
-250 117.188 1503
132.812 -187.5 1169
-179.688 164.062 1398
70.3125 -187.5 1161
445.312 -210.938 1245
39.0625 -320.312 1241
-257.812 -85.9375 1145
-46.875 -250 1145
414.062 -359.375 1210
257.812 234.375 1609
-109.375 148.438 1439
7.8125 156.25 1415
-265.625 179.688 1359
421.875 -359.375 1210
-351.562 304.688 1288
375 296.875 1776
-132.812 351.562 1410
-125 132.812 1477
-54.6875 171.875 1387
-210.938 -93.75 1157
-109.375 -312.5 1202
453.125 125 1509
-203.125 -15.625 1165
171.875 -187.5 1181
476.562 -218.75 1259
-203.125 -257.812 1264
265.625 273.438 1529
-179.688 359.375 1392
-203.125 179.688 1359
-62.5 164.062 1387
-117.188 -343.75 1149
-54.6875 109.375 1523
429.688 203.125 1579
-85.9375 -101.562 1185
-15.625 140.625 1452
-54.6875 117.188 1489
-203.125 203.125 1365
-15.625 -156.25 1149
-281.25 -132.812 1090
0 -234.375 1173
23.4375 -328.125 1292
-132.812 140.625 1452
-7.8125 164.062 1398
-164.062 179.688 1365
-46.875 164.062 1392
468.75 -320.312 1245
-187.5 187.5 1354
-70.3125 343.75 1421
-93.75 70.3125 1250
234.375 -132.812 1273
-382.812 312.5 1785
-312.5 156.25 1410
289.062 -195.312 1206
-242.188 210.938 1343
-117.188 117.188 1509
0 -109.375 1202
-296.875 164.062 1387
-171.875 109.375 1529
140.625 -390.625 1288
-234.375 85.9375 1223
-343.75 -78.125 1130
-31.25 -132.812 1185
-46.875 -304.688 1145
-304.688 210.938 1317
-156.25 -15.625 1173
93.75 -195.312 1169
-210.938 -15.625 1169
39.0625 171.875 1410
-125 70.3125 1245
156.25 101.562 1947
250 234.375 1609
257.812 117.188 1647
-289.062 -85.9375 1141
-62.5 140.625 1452
328.125 -203.125 1223
62.5 296.875 1464
-304.688 148.438 1433
148.438 -460.938 1259
0 0 1250
351.562 -335.938 1206
476.562 -210.938 1259
-320.312 171.875 1227
-54.6875 -296.875 1149
-7.8125 -234.375 1169
-132.812 -335.938 1173
281.25 -203.125 1210
-109.375 -39.0625 1181
-171.875 -312.5 1227
85.9375 164.062 1370
-203.125 156.25 1421
132.812 -195.312 1173
460.938 148.438 1529
-210.938 117.188 1509
-226.562 109.375 1536
-320.312 179.688 1232
226.562 101.562 1785
-148.438 156.25 1410
-7.8125 -156.25 1149
-39.0625 93.75 1557
-171.875 -226.562 1255
195.312 187.5 1713
-195.312 -15.625 1165
70.3125 250 1458
-156.25 78.125 1245
23.4375 171.875 1381
78.125 -320.312 1149
-101.562 -242.188 1157
