ply
format ascii 1.0
comment Created by Open3D
element vertex 2323
property double x
property double y
property double z
end_header
226.562 -39.0625 1126
210.938 242.188 1202
296.875 -273.438 1427
273.438 406.25 1354
-367.188 320.312 1376
-156.25 -187.5 1264
-390.625 -132.812 1206
-31.25 375 1477
15.625 359.375 1572
-320.312 -148.438 1149
-414.062 0 1185
218.75 171.875 1173
62.5 -148.438 1108
39.0625 242.188 1853
-335.938 195.312 1219
-210.938 210.938 1863
-31.25 320.312 1632
281.25 85.9375 1108
-31.25 312.5 1632
109.375 -101.562 1105
-359.375 320.312 1376
62.5 31.25 1157
15.625 281.25 1883
281.25 382.812 1343
218.75 187.5 1177
-273.438 226.562 1458
-476.562 312.5 1338
-406.25 -156.25 1206
-429.688 304.688 1376
187.5 46.875 1130
-437.5 -328.125 3178
250 320.312 1392
-156.25 -250 1245
-476.562 281.25 1410
-343.75 132.812 1193
226.562 140.625 1161
-132.812 -156.25 1173
-273.438 382.812 1392
-476.562 -78.125 1169
-492.188 -31.25 1161
62.5 -140.625 1108
-437.5 -312.5 3238
-171.875 -179.688 1268
-218.75 23.4375 1145
-492.188 -171.875 1381
-476.562 296.875 1376
257.812 437.5 1328
-468.75 -101.562 1169
312.5 382.812 1387
328.125 375 1376
250 328.125 1381
-343.75 125 1197
-109.375 375 1647
-179.688 -242.188 1245
-437.5 -273.438 3238
-296.875 421.875 1338
-351.562 0 1165
-226.562 -304.688 1219
195.312 335.938 1250
-460.938 -117.188 1165
210.938 429.688 1343
-476.562 -289.062 3300
31.25 -101.562 1115
460.938 -171.875 1433
226.562 109.375 1157
242.188 328.125 1381
-406.25 -117.188 1173
-70.3125 398.438 1489
-210.938 -203.125 1250
-500 -156.25 1193
-250 351.562 1343
-179.688 421.875 1529
-429.688 70.3125 1173
-335.938 242.188 1250
-140.625 -156.25 1134
-492.188 -23.4375 1161
-484.375 289.062 1410
85.9375 31.25 1157
-390.625 328.125 1338
46.875 179.688 1823
359.375 328.125 1433
453.125 -101.562 1458
-351.562 -23.4375 1153
-492.188 -296.875 3238
484.375 296.875 1288
-242.188 -281.25 1223
218.75 179.688 1177
218.75 203.125 1185
-367.188 54.6875 1141
-335.938 257.812 1264
-500 281.25 1333
-382.812 -7.8125 1214
171.875 359.375 1268
-125 -226.562 1264
-15.625 359.375 1536
-304.688 15.625 1161
-109.375 -125 1119
-125 -289.062 1232
132.812 -109.375 1105
-125 -234.375 1250
-257.812 70.3125 1165
-179.688 -234.375 1250
421.875 414.062 1365
460.938 -226.562 1415
-125 -273.438 1241
445.312 -70.3125 1470
-156.25 -273.438 1241
-476.562 265.625 1452
-39.0625 320.312 1624
-164.062 -125 1123
289.062 -203.125 1458
195.312 343.75 1259
-328.125 304.688 1283
-390.625 31.25 1123
-460.938 226.562 1227
-343.75 335.938 1328
-351.562 187.5 1210
226.562 -85.9375 1108
-484.375 140.625 1206
273.438 -85.9375 1503
328.125 359.375 1365
-109.375 31.25 1134
-359.375 140.625 1193
210.938 250 1202
218.75 0 1138
375 351.562 1433
15.625 289.062 1894
429.688 -85.9375 1470
367.188 187.5 1145
-39.0625 -125 1112
125 414.062 1572
-382.812 304.688 1376
-281.25 -125 1123
-382.812 296.875 1410
62.5 414.062 1477
226.562 -46.875 1126
335.938 359.375 1464
-398.438 -101.562 1181
226.562 -70.3125 1123
-335.938 320.312 1283
70.3125 359.375 1543
-171.875 -125 1123
-125 -281.25 1232
-468.75 312.5 1354
476.562 351.562 1439
-351.562 171.875 1206
-468.75 -125 1173
-476.562 132.812 1202
453.125 -242.188 1410
39.0625 250 1863
-382.812 265.625 1464
-320.312 250 1264
-218.75 132.812 1823
-375 328.125 1354
-406.25 -164.062 1202
445.312 -117.188 1452
-125 -296.875 1227
-335.938 312.5 1283
195.312 23.4375 1134
187.5 429.688 1338
242.188 359.375 1354
-148.438 -125 1119
78.125 382.812 1503
226.562 31.25 1185
-312.5 398.438 1317
-132.812 -125 1119
23.4375 281.25 1883
-382.812 -109.375 1210
-328.125 398.438 1317
-351.562 281.25 1278
-437.5 -304.688 3238
62.5 359.375 1550
-445.312 -125 1173
-7.8125 296.875 1883
-179.688 414.062 1543
453.125 -250 1404
0 296.875 1894
-70.3125 -304.688 1404
187.5 390.625 1273
-500 -101.562 1245
-359.375 343.75 1302
-312.5 406.25 1322
-492.188 296.875 1333
390.625 -125 1452
484.375 304.688 1288
226.562 -54.6875 1123
453.125 -125 1458
54.6875 140.625 1804
46.875 187.5 1833
-382.812 31.25 1130
226.562 -62.5 1123
476.562 296.875 1464
54.6875 125 1177
-31.25 320.312 1632
54.6875 -203.125 1227
-320.312 367.188 1307
-351.562 -15.625 1157
210.938 312.5 1427
218.75 187.5 1177
226.562 125 1157
-210.938 195.312 1863
210.938 343.75 1381
-492.188 -93.75 1259
-351.562 -125 1130
-320.312 351.562 1297
-445.312 -93.75 1157
226.562 148.438 1165
-382.812 -117.188 1219
320.312 351.562 1359
-367.188 242.188 1223
-437.5 257.812 1483
-492.188 -109.375 1241
-7.8125 304.688 1883
218.75 164.062 1173
-351.562 304.688 1283
-429.688 -125 1157
226.562 -78.125 1112
0 -125 1112
-437.5 265.625 1452
-468.75 -93.75 1161
421.875 -171.875 1427
-171.875 335.938 1757
-437.5 -265.625 3238
468.75 304.688 1458
289.062 -328.125 1421
-85.9375 -125 1115
218.75 210.938 1185
-85.9375 281.25 1883
-125 -265.625 1245
-164.062 289.062 1873
203.125 351.562 1387
296.875 -265.625 1427
-187.5 -296.875 1227
453.125 -179.688 1427
39.0625 195.312 1833
-359.375 125 1189
-70.3125 23.4375 1165
-171.875 -234.375 1250
226.562 -31.25 1126
453.125 7.8125 1245
320.312 -171.875 1452
85.9375 -117.188 1105
375 375 1433
289.062 -296.875 1427
-429.688 0 1173
-78.125 -265.625 1307
-445.312 218.75 1232
-445.312 -140.625 1173
367.188 367.188 1445
-437.5 -320.312 3208
226.562 117.188 1161
-476.562 304.688 1376
-500 -148.438 1197
-265.625 367.188 1333
70.3125 367.188 1529
460.938 -164.062 1452
-7.8125 445.312 1445
296.875 -335.938 1421
23.4375 -156.25 1165
-125 -304.688 1223
-437.5 -164.062 1189
23.4375 117.188 1177
-250 265.625 1586
-468.75 -46.875 1153
-7.8125 -125 1115
218.75 -15.625 1134
-398.438 226.562 1223
-460.938 -343.75 3178
226.562 -46.875 1126
-500 296.875 1333
226.562 437.5 1333
-320.312 265.625 1268
-421.875 -23.4375 1161
304.688 -195.312 1458
445.312 -54.6875 1509
-320.312 359.375 1297
-335.938 296.875 1283
-453.125 -23.4375 1161
-343.75 328.125 1297
195.312 437.5 1328
226.562 -23.4375 1130
-132.812 23.4375 1161
-406.25 335.938 1328
-351.562 -7.8125 1161
31.25 250 1853
343.75 406.25 1354
-15.625 375 1470
-203.125 -281.25 1227
218.75 218.75 1189
-156.25 -343.75 1439
-437.5 -343.75 3178
-375 -101.562 1126
-375 281.25 1445
-429.688 -23.4375 1157
39.0625 148.438 1804
-382.812 -23.4375 1173
-390.625 289.062 1415
-195.312 -335.938 1427
273.438 242.188 1193
421.875 187.5 1126
-421.875 -125 1165
460.938 320.312 1415
46.875 140.625 1804
-414.062 -23.4375 1165
-398.438 320.312 1370
187.5 -125 1101
23.4375 273.438 1883
-93.75 -125 1115
289.062 -195.312 1470
343.75 398.438 1354
453.125 -93.75 1470
265.625 437.5 1328
-93.75 -273.438 1307
-460.938 -132.812 1169
-164.062 -289.062 1232
-375 -93.75 1126
468.75 -265.625 1404
187.5 -54.6875 1119
468.75 390.625 1404
-453.125 -359.375 3178
-218.75 -265.625 1227
-390.625 320.312 1370
281.25 -93.75 1503
289.062 -132.812 1483
-484.375 125 1197
-351.562 164.062 1206
-398.438 -117.188 1250
-359.375 210.938 1223
296.875 -257.812 1433
226.562 156.25 1169
226.562 156.25 1169
445.312 -85.9375 1464
-429.688 132.812 1197
-375 -117.188 1126
-31.25 328.125 1557
195.312 343.75 1259
195.312 304.688 1232
-23.4375 367.188 1470
304.688 398.438 1387
109.375 -109.375 1105
195.312 429.688 1338
-406.25 -23.4375 1173
-195.312 -226.562 1250
-132.812 -171.875 1273
351.562 257.812 1193
-453.125 -390.625 3149
-382.812 320.312 1370
-351.562 -23.4375 1153
15.625 289.062 1894
-492.188 257.812 1392
-320.312 257.812 1268
296.875 -250 1439
-359.375 -93.75 1130
-140.625 382.812 1632
-453.125 -296.875 3178
-398.438 31.25 1126
-125 296.875 1904
226.562 31.25 1185
-351.562 -31.25 1153
-179.688 -296.875 1232
-335.938 7.8125 1173
-492.188 -62.5 1169
85.9375 -156.25 1214
195.312 351.562 1259
468.75 328.125 1404
-257.812 359.375 1343
-101.562 -289.062 1398
-132.812 31.25 1145
226.562 0 1141
226.562 125 1157
-210.938 -125 1126
78.125 -164.062 1214
-117.188 -125 1119
460.938 -179.688 1427
218.75 195.312 1181
-85.9375 -289.062 1387
289.062 -289.062 1433
54.6875 117.188 1177
39.0625 203.125 1833
-390.625 226.562 1223
359.375 351.562 1439
-7.8125 304.688 1883
312.5 312.5 1433
-7.8125 210.938 1843
320.312 -328.125 1398
-460.938 320.312 1343
226.562 -31.25 1126
218.75 15.625 1138
226.562 164.062 1173
-250 179.688 1594
210.938 421.875 1376
78.125 -187.5 1223
234.375 429.688 1333
-234.375 -304.688 1219
-335.938 304.688 1283
375 429.688 1322
-179.688 304.688 1833
-203.125 -203.125 1255
281.25 406.25 1354
70.3125 390.625 1470
-125 31.25 1141
343.75 289.062 1458
-343.75 117.188 1193
-437.5 -210.938 3300
-453.125 -132.812 1169
-476.562 312.5 1338
-351.562 156.25 1202
-312.5 390.625 1312
210.938 390.625 1381
-125 351.562 1705
218.75 226.562 1189
-343.75 7.8125 1169
226.562 -39.0625 1126
210.938 23.4375 1177
-125 -289.062 1232
-375 -7.8125 1219
453.125 312.5 1427
-335.938 -140.625 1134
-414.062 312.5 1359
-210.938 23.4375 1145
226.562 -23.4375 1130
-453.125 250 1477
70.3125 -179.688 1206
-406.25 -78.125 1165
-125 -296.875 1227
-179.688 23.4375 1161
179.688 437.5 1302
-367.188 -23.4375 1153
-429.688 -140.625 1177
-390.625 312.5 1370
468.75 -312.5 1387
328.125 390.625 1404
-117.188 -304.688 1439
-375 -46.875 1185
-335.938 242.188 1250
-437.5 -46.875 1153
468.75 -46.875 1232
-320.312 351.562 1297
-398.438 265.625 1470
421.875 -46.875 1464
453.125 -101.562 1458
226.562 359.375 1359
-484.375 -101.562 1173
289.062 320.312 1392
-476.562 -62.5 1165
-437.5 -289.062 3208
85.9375 382.812 1543
-367.188 -62.5 1145
-23.4375 54.6875 1119
218.75 382.812 1376
-484.375 -93.75 1173
-156.25 -195.312 1264
203.125 46.875 1134
187.5 179.688 1189
-335.938 265.625 1264
-398.438 0 1185
320.312 406.25 1376
445.312 -62.5 1470
-273.438 414.062 1349
-414.062 234.375 1227
31.25 31.25 1161
54.6875 148.438 1804
-70.3125 289.062 1894
62.5 421.875 1452
-125 -304.688 1223
-382.812 312.5 1376
-476.562 -70.3125 1169
-437.5 -156.25 1189
-453.125 320.312 1343
226.562 -54.6875 1123
-500 132.812 1181
109.375 -125 1105
-414.062 -125 1173
39.0625 187.5 1833
179.688 343.75 1259
-406.25 -125 1173
-359.375 132.812 1193
210.938 -109.375 1108
31.25 445.312 1439
-500 312.5 1312
-375 265.625 1477
-242.188 -125 1123
-343.75 265.625 1264
445.312 -78.125 1477
31.25 257.812 1863
-367.188 -109.375 1126
226.562 429.688 1333
-398.438 -156.25 1219
-273.438 -179.688 1317
460.938 -171.875 1433
359.375 320.312 1433
46.875 195.312 1843
476.562 195.312 1169
-164.062 23.4375 1165
-289.062 257.812 1392
23.4375 359.375 1564
-335.938 335.938 1302
-328.125 15.625 1145
7.8125 289.062 1883
226.562 148.438 1165
273.438 109.375 1153
39.0625 250 1863
226.562 156.25 1169
226.562 132.812 1157
-39.0625 320.312 1624
-328.125 289.062 1273
-62.5 -226.562 1307
-359.375 414.062 1516
226.562 -62.5 1123
460.938 -187.5 1433
203.125 398.438 1398
226.562 -15.625 1134
218.75 367.188 1370
-453.125 0 1177
-312.5 398.438 1317
195.312 -109.375 1105
-359.375 312.5 1376
-226.562 -257.812 1232
-257.812 -125 1126
-320.312 359.375 1297
46.875 187.5 1833
-101.562 375 1663
-351.562 -31.25 1153
-101.562 398.438 1594
-234.375 -281.25 1223
93.75 -109.375 1105
132.812 -101.562 1105
-437.5 -140.625 1173
62.5 -203.125 1223
-445.312 -23.4375 1157
-351.562 242.188 1223
218.75 203.125 1185
-203.125 -281.25 1227
-367.188 296.875 1421
46.875 203.125 1843
-437.5 289.062 1415
117.188 398.438 1557
-359.375 0 1165
15.625 -171.875 1161
351.562 406.25 1359
-359.375 85.9375 1177
-156.25 -328.125 1421
-437.5 -281.25 3238
414.062 421.875 1322
-375 -85.9375 1126
-468.75 187.5 1223
-7.8125 304.688 1883
-296.875 398.438 1328
-367.188 335.938 1322
-7.8125 382.812 1458
78.125 429.688 1503
-343.75 250 1264
-210.938 15.625 1177
46.875 390.625 1452
46.875 -140.625 1108
-437.5 328.125 1338
-476.562 296.875 1376
328.125 304.688 1483
-148.438 23.4375 1161
-164.062 -15.625 1153
-484.375 -7.8125 1173
15.625 281.25 1883
54.6875 335.938 1579
-296.875 -250 3300
-296.875 -125 1126
171.875 437.5 1297
289.062 -125 1489
-414.062 328.125 1333
-273.438 15.625 1161
234.375 437.5 1333
-109.375 93.75 1173
-437.5 -164.062 1189
445.312 343.75 1387
62.5 406.25 1464
-218.75 -101.562 1126
-429.688 304.688 1376
187.5 406.25 1288
-171.875 343.75 1731
-328.125 304.688 1283
-445.312 -437.5 3064
-132.812 -226.562 1250
109.375 -296.875 3269
-250 343.75 1349
-156.25 -179.688 1268
31.25 273.438 1883
203.125 429.688 1338
414.062 382.812 1427
351.562 414.062 1359
195.312 335.938 1250
304.688 359.375 1354
-148.438 -250 1245
62.5 117.188 1177
-390.625 296.875 1410
-304.688 -156.25 1185
-437.5 296.875 1381
-15.625 -125 1115
-15.625 375 1470
210.938 375 1381
460.938 -250 1410
-437.5 281.25 1427
335.938 343.75 1392
-31.25 -125 1115
-335.938 281.25 1268
460.938 -156.25 1452
226.562 164.062 1173
460.938 -273.438 1398
-343.75 335.938 1328
328.125 335.938 1410
359.375 335.938 1439
-390.625 -171.875 1219
476.562 335.938 1404
39.0625 195.312 1833
-437.5 -125 1169
-335.938 320.312 1283
218.75 195.312 1181
-234.375 -296.875 1219
31.25 -171.875 1165
-398.438 335.938 1333
335.938 281.25 1202
187.5 390.625 1273
-15.625 304.688 1883
78.125 390.625 1470
-453.125 328.125 1333
-406.25 203.125 1219
-445.312 265.625 1452
-148.438 15.625 1173
-492.188 -23.4375 1161
281.25 437.5 1312
23.4375 273.438 1883
-226.562 304.688 1696
-203.125 -125 1126
-140.625 -125 1119
78.125 23.4375 1165
328.125 281.25 1202
-484.375 0 1173
226.562 140.625 1161
-437.5 -203.125 3300
-320.312 382.812 1312
-31.25 312.5 1632
-453.125 -93.75 1157
-445.312 -148.438 1189
203.125 304.688 1232
226.562 171.875 1173
-179.688 335.938 1757
195.312 351.562 1259
-125 -320.312 1445
-445.312 -187.5 1410
226.562 -46.875 1126
226.562 -23.4375 1130
-390.625 328.125 1338
-460.938 -273.438 3269
359.375 414.062 1359
-187.5 -359.375 1439
-250 351.562 1343
-140.625 304.688 1804
-210.938 -304.688 1223
-23.4375 -125 1115
-476.562 -156.25 1181
460.938 -164.062 1452
39.0625 210.938 1843
328.125 351.562 1359
-171.875 -328.125 1415
-484.375 -109.375 1236
-78.125 398.438 1483
312.5 351.562 1365
437.5 398.438 1387
-101.562 320.312 1794
-468.75 -39.0625 1157
156.25 -109.375 1108
-296.875 15.625 1169
484.375 171.875 1161
492.188 296.875 1288
-117.188 -218.75 1264
-164.062 -234.375 1250
453.125 -93.75 1470
179.688 281.25 1236
15.625 304.688 1894
-125 -125 1119
218.75 226.562 1189
281.25 -85.9375 1503
-406.25 312.5 1370
281.25 414.062 1354
148.438 70.3125 1108
-406.25 -140.625 1185
93.75 31.25 1157
296.875 -242.188 1445
-304.688 359.375 1312
-445.312 250 1496
218.75 429.688 1338
-257.812 429.688 1354
-210.938 7.8125 1165
351.562 351.562 1452
453.125 -85.9375 1464
226.562 132.812 1157
289.062 -109.375 1489
218.75 218.75 1189
-343.75 281.25 1278
70.3125 390.625 1470
-429.688 289.062 1410
78.125 31.25 1157
226.562 -15.625 1134
226.562 -7.8125 1138
-148.438 31.25 1138
-453.125 -15.625 1161
-62.5 320.312 1794
226.562 -78.125 1112
453.125 429.688 1328
-375 -140.625 1145
320.312 -70.3125 1496
-203.125 289.062 1873
-437.5 -351.562 3178
226.562 125 1157
179.688 23.4375 1177
78.125 -156.25 1206
-406.25 242.188 1523
-78.125 414.062 1516
-312.5 -125 1126
164.062 414.062 1292
304.688 -101.562 1483
-320.312 -148.438 1149
-156.25 -281.25 1232
304.688 -226.562 1439
46.875 148.438 1804
289.062 -281.25 1433
-414.062 -148.438 1206
-359.375 78.125 1177
-359.375 78.125 1177
117.188 15.625 1138
46.875 156.25 1804
-367.188 210.938 1223
-398.438 257.812 1477
226.562 0 1141
54.6875 -164.062 1149
-343.75 273.438 1273
-460.938 304.688 1381
281.25 -156.25 1489
226.562 -31.25 1126
-351.562 148.438 1193
195.312 359.375 1264
171.875 -62.5 1115
398.438 -226.562 1415
-234.375 -289.062 1219
-500 -31.25 1165
-93.75 -289.062 1392
296.875 -203.125 1452
-453.125 -101.562 1157
-273.438 406.25 1343
85.9375 406.25 1496
-117.188 398.438 1601
15.625 148.438 1813
54.6875 125 1177
-312.5 390.625 1312
-398.438 328.125 1338
171.875 -109.375 1105
-328.125 289.062 1273
-398.438 -132.812 1193
-304.688 320.312 1328
226.562 390.625 1359
-343.75 320.312 1283
226.562 -85.9375 1108
-445.312 0 1189
218.75 234.375 1193
-437.5 -335.938 3178
468.75 -273.438 1392
484.375 320.312 1312
-468.75 0 1185
-265.625 375 1338
-382.812 -70.3125 1177
-484.375 -148.438 1193
-93.75 281.25 1883
171.875 406.25 1283
-500 -70.3125 1292
-375 -148.438 1210
-351.562 343.75 1338
-351.562 171.875 1206
-320.312 15.625 1153
-304.688 429.688 1333
-476.562 140.625 1202
203.125 304.688 1241
-367.188 -109.375 1123
-390.625 304.688 1404
203.125 140.625 1165
218.75 203.125 1181
468.75 -250 1404
187.5 -109.375 1105
-15.625 304.688 1894
-203.125 -195.312 1264
351.562 320.312 1445
54.6875 117.188 1177
-148.438 -226.562 1250
265.625 367.188 1338
-257.812 367.188 1338
281.25 -93.75 1496
-460.938 -289.062 3300
125 -101.562 1105
125 429.688 1536
-460.938 -93.75 1173
468.75 -296.875 1381
109.375 -101.562 1105
-195.312 -226.562 1250
-148.438 -164.062 1268
-414.062 -140.625 1185
39.0625 218.75 1843
-359.375 343.75 1338
-484.375 273.438 1445
-484.375 -117.188 1232
-15.625 343.75 1550
218.75 210.938 1185
195.312 226.562 1193
93.75 -109.375 1105
460.938 -148.438 1445
-195.312 -289.062 1227
-414.062 335.938 1328
-375 -54.6875 1177
-468.75 -101.562 1202
7.8125 289.062 1883
-218.75 -125 1126
-437.5 273.438 1452
-468.75 -39.0625 1161
-343.75 -132.812 1141
-39.0625 31.25 1157
-234.375 -281.25 1223
203.125 335.938 1250
437.5 -46.875 1439
-382.812 -132.812 1197
375 414.062 1370
437.5 351.562 1392
-164.062 -164.062 1268
-343.75 156.25 1197
31.25 273.438 1873
-289.062 414.062 1338
-125 -304.688 1232
328.125 -54.6875 1503
226.562 7.8125 1138
312.5 359.375 1354
-335.938 312.5 1278
-351.562 265.625 1489
226.562 140.625 1161
273.438 421.875 1359
-140.625 312.5 1813
-500 132.812 1177
-492.188 132.812 1185
-320.312 335.938 1292
468.75 -257.812 1398
-203.125 -281.25 1227
234.375 335.938 1376
54.6875 148.438 1804
-320.312 -101.562 1126
226.562 148.438 1165
468.75 -265.625 1398
242.188 382.812 1343
-500 -93.75 1292
390.625 -171.875 1433
15.625 31.25 1153
-187.5 -281.25 1232
-171.875 -281.25 1227
-109.375 23.4375 1169
-343.75 -125 1130
39.0625 203.125 1833
-312.5 15.625 1157
-437.5 -54.6875 1153
-156.25 -125 1123
437.5 414.062 1365
-7.8125 54.6875 1115
328.125 414.062 1359
-234.375 -304.688 1219
-234.375 -273.438 1227
218.75 242.188 1197
203.125 125 1173
-460.938 296.875 1392
187.5 406.25 1278
54.6875 -187.5 1202
-421.875 320.312 1338
-492.188 320.312 1307
-484.375 -125 1232
-85.9375 -273.438 1322
218.75 351.562 1376
31.25 -125 1108
-46.875 -125 1112
-414.062 304.688 1376
-359.375 101.562 1181
-484.375 265.625 1452
484.375 187.5 1157
468.75 382.812 1392
210.938 -109.375 1101
-445.312 54.6875 1169
312.5 -54.6875 1503
-437.5 304.688 1376
-234.375 -296.875 1219
226.562 -62.5 1115
468.75 -304.688 1381
226.562 -117.188 1105
-414.062 320.312 1343
-265.625 328.125 1349
375 -54.6875 1483
-359.375 320.312 1359
-101.562 421.875 1543
-421.875 304.688 1376
-265.625 15.625 1169
445.312 398.438 1381
78.125 398.438 1464
-476.562 281.25 1421
7.8125 296.875 1894
62.5 437.5 1445
445.312 414.062 1359
453.125 -85.9375 1464
-187.5 -234.375 1245
-39.0625 -234.375 1302
23.4375 359.375 1564
367.188 421.875 1354
-367.188 -31.25 1193
-343.75 31.25 1130
-484.375 -171.875 1376
-203.125 -203.125 1255
-437.5 195.312 1223
-382.812 -85.9375 1173
46.875 195.312 1833
226.562 179.688 1173
78.125 414.062 1477
-257.812 406.25 1349
-328.125 375 1302
226.562 -15.625 1126
46.875 437.5 1421
7.8125 -125 1108
-46.875 -125 1112
-414.062 218.75 1227
-15.625 375 1470
-328.125 359.375 1297
-101.562 359.375 1713
328.125 406.25 1381
-398.438 250 1529
-93.75 -179.688 1381
-78.125 -273.438 1312
70.3125 414.062 1477
-132.812 -312.5 1232
-125 -234.375 1250
-476.562 -70.3125 1173
203.125 179.688 1173
445.312 -62.5 1477
226.562 -101.562 1105
46.875 117.188 1177
-359.375 -39.0625 1149
226.562 -54.6875 1115
-335.938 179.688 1210
234.375 117.188 1157
203.125 23.4375 1123
-312.5 296.875 1273
-437.5 -382.812 3149
-164.062 -203.125 1264
46.875 156.25 1804
453.125 -281.25 1387
-195.312 -125 1126
250 304.688 1410
359.375 437.5 1333
-15.625 312.5 1639
117.188 382.812 1655
335.938 375 1439
226.562 164.062 1173
-437.5 -414.062 3092
-460.938 -46.875 1153
70.3125 31.25 1157
421.875 -257.812 1398
-367.188 -117.188 1123
-320.312 -125 1130
460.938 -234.375 1404
226.562 -46.875 1119
335.938 296.875 1470
62.5 117.188 1173
-445.312 23.4375 1130
-351.562 367.188 1624
-375 -93.75 1189
195.312 359.375 1264
15.625 -257.812 1338
46.875 203.125 1843
-484.375 -15.625 1165
-250 367.188 1333
351.562 296.875 1445
-453.125 -273.438 3300
-312.5 382.812 1302
-429.688 -132.812 1173
-359.375 304.688 1404
226.562 171.875 1173
93.75 -101.562 1108
-445.312 281.25 1421
-484.375 -156.25 1177
-367.188 -78.125 1141
328.125 382.812 1381
-367.188 320.312 1376
-468.75 -93.75 1189
312.5 398.438 1381
23.4375 320.312 1579
-406.25 234.375 1227
-93.75 320.312 1785
-406.25 -54.6875 1157
195.312 382.812 1273
-468.75 320.312 1338
328.125 320.312 1410
-187.5 -304.688 1223
-484.375 -54.6875 1165
195.312 328.125 1250
-468.75 -335.938 3300
-453.125 -312.5 3269
-148.438 343.75 1739
-351.562 328.125 1343
-257.812 -62.5 1141
375 343.75 1427
-93.75 -265.625 1328
289.062 320.312 1398
-398.438 -101.562 1181
31.25 257.812 1853
85.9375 7.8125 1138
78.125 320.312 1823
476.562 367.188 1452
-445.312 -179.688 1415
226.562 -70.3125 1112
453.125 -117.188 1452
195.312 367.188 1264
453.125 -78.125 1477
-15.625 304.688 1894
-429.688 -148.438 1189
210.938 -101.562 1105
-140.625 -320.312 1227
-390.625 312.5 1381
171.875 -101.562 1105
39.0625 -148.438 1165
109.375 -109.375 1105
-406.25 -125 1173
-484.375 0 1177
-304.688 421.875 1328
296.875 -312.5 1427
-70.3125 -273.438 1307
-210.938 -171.875 1259
335.938 367.188 1365
312.5 -328.125 1398
-445.312 312.5 1359
-476.562 125 1202
398.438 429.688 1338
-164.062 -171.875 1273
289.062 -171.875 1477
492.188 398.438 1288
-390.625 -46.875 1169
226.562 421.875 1349
-125 -312.5 1232
46.875 210.938 1843
-335.938 171.875 1206
-390.625 281.25 1445
179.688 -101.562 1108
-234.375 -289.062 1219
7.8125 15.625 1149
-484.375 289.062 1415
148.438 -101.562 1105
-335.938 -125 1130
54.6875 125 1177
203.125 304.688 1241
289.062 -164.062 1483
164.062 -109.375 1105
-343.75 257.812 1264
203.125 343.75 1255
234.375 125 1157
218.75 218.75 1189
195.312 343.75 1250
-15.625 367.188 1496
-257.812 367.188 1338
453.125 -54.6875 1516
-54.6875 -265.625 1302
367.188 187.5 1145
-390.625 -101.562 1185
226.562 0 1138
289.062 414.062 1354
460.938 -203.125 1421
-242.188 23.4375 1149
226.562 156.25 1169
-351.562 164.062 1202
-445.312 273.438 1445
-343.75 78.125 1177
343.75 382.812 1433
429.688 351.562 1404
-148.438 -187.5 1268
226.562 -7.8125 1134
-164.062 -242.188 1245
101.562 398.438 1529
-437.5 -7.8125 1206
156.25 -109.375 1108
453.125 -70.3125 1477
-257.812 359.375 1338
-468.75 -46.875 1161
-218.75 -312.5 1219
-101.562 -250 1343
367.188 328.125 1427
-445.312 -117.188 1165
226.562 23.4375 1138
-351.562 335.938 1338
-335.938 289.062 1273
39.0625 226.562 1853
54.6875 156.25 1804
-179.688 289.062 1883
203.125 312.5 1241
-179.688 -257.812 1241
273.438 351.562 1349
-265.625 46.875 1126
-375 -39.0625 1185
-359.375 -93.75 1119
-351.562 -39.0625 1149
468.75 -250 1404
453.125 414.062 1359
-93.75 23.4375 1169
-171.875 23.4375 1165
218.75 242.188 1197
-125 296.875 1915
-125 296.875 1915
-273.438 414.062 1354
468.75 -234.375 1404
46.875 218.75 1843
-343.75 203.125 1214
-320.312 335.938 1292
-195.312 -187.5 1264
437.5 78.125 1097
-484.375 -62.5 1169
226.562 187.5 1177
-398.438 281.25 1445
-437.5 320.312 1338
-351.562 281.25 1452
-359.375 -31.25 1161
343.75 -54.6875 1483
460.938 -156.25 1433
468.75 -289.062 1381
-140.625 31.25 1145
-7.8125 359.375 1550
93.75 -109.375 1105
-328.125 289.062 1268
-93.75 -296.875 1398
-445.312 320.312 1349
-492.188 250 1381
-125 -179.688 1268
-476.562 312.5 1338
-351.562 140.625 1193
328.125 328.125 1404
-351.562 -62.5 1141
-343.75 328.125 1349
-351.562 132.812 1189
85.9375 -164.062 1210
468.75 -39.0625 1241
39.0625 218.75 1843
85.9375 -148.438 1112
468.75 -257.812 1398
93.75 398.438 1516
234.375 242.188 1193
468.75 -242.188 1404
-343.75 289.062 1273
-328.125 273.438 1264
460.938 -148.438 1445
382.812 -210.938 1427
39.0625 210.938 1833
-382.812 -164.062 1210
226.562 148.438 1165
-453.125 257.812 1477
156.25 -101.562 1108
375 62.5 1105
-179.688 -203.125 1264
273.438 406.25 1338
-359.375 148.438 1197
218.75 304.688 1452
437.5 312.5 1421
-468.75 -39.0625 1161
46.875 164.062 1813
-468.75 -304.688 3300
-421.875 -140.625 1189
484.375 312.5 1312
-226.562 -304.688 1219
-445.312 296.875 1415
-398.438 304.688 1381
281.25 -93.75 1496
-70.3125 -218.75 1312
-335.938 296.875 1283
-429.688 -54.6875 1153
-421.875 195.312 1219
-148.438 289.062 1883
-500 -39.0625 1169
421.875 375 1427
132.812 -93.75 1108
484.375 359.375 1302
226.562 -62.5 1115
-429.688 -140.625 1173
-359.375 109.375 1185
-414.062 -125 1173
85.9375 -156.25 1214
-453.125 -148.438 1185
-492.188 -148.438 1197
-296.875 382.812 1322
-421.875 -62.5 1153
195.312 375 1264
445.312 -148.438 1433
218.75 234.375 1193
234.375 117.188 1157
-210.938 -343.75 1470
23.4375 -148.438 1123
0 296.875 1883
312.5 375 1365
453.125 -164.062 1427
-500 320.312 1307
375 -226.562 1421
-453.125 -23.4375 1165
-62.5 -125 1115
-382.812 296.875 1404
453.125 -218.75 1410
117.188 31.25 1161
226.562 -31.25 1126
-148.438 -265.625 1241
343.75 390.625 1404
226.562 398.438 1370
-273.438 93.75 1193
-289.062 398.438 1343
70.3125 375 1509
-460.938 320.312 1338
117.188 414.062 1543
-312.5 382.812 1302
-23.4375 375 1477
-398.438 273.438 1458
-484.375 250 1496
218.75 210.938 1185
15.625 359.375 1572
-125 -296.875 1227
-328.125 226.562 1227
226.562 179.688 1173
-375 234.375 1223
-148.438 -281.25 1232
460.938 -195.312 1421
23.4375 31.25 1157
-335.938 250 1259
468.75 -312.5 1381
351.562 335.938 1458
-187.5 -125 1126
250 234.375 1189
-343.75 93.75 1177
195.312 -101.562 1108
-234.375 -296.875 1219
39.0625 -164.062 1161
-375 -125 1210
-242.188 343.75 1343
-304.688 429.688 1333
367.188 148.438 1157
-312.5 390.625 1312
-453.125 304.688 1381
296.875 -296.875 1421
23.4375 93.75 1153
460.938 -218.75 1404
39.0625 -140.625 1108
-335.938 164.062 1206
-234.375 -125 1123
351.562 382.812 1433
460.938 335.938 1392
54.6875 140.625 1804
226.562 7.8125 1138
453.125 -78.125 1477
179.688 445.312 1297
320.312 351.562 1370
-351.562 -15.625 1157
-445.312 -375 3149
-437.5 -406.25 3092
179.688 -125 1097
-367.188 -117.188 1123
-484.375 -7.8125 1173
-476.562 -281.25 3333
484.375 335.938 1307
-85.9375 -281.25 1392
343.75 343.75 1410
-195.312 -296.875 1227
304.688 390.625 1359
-7.8125 -343.75 3269
343.75 406.25 1365
-156.25 -320.312 1227
-351.562 -31.25 1157
-250 367.188 1333
39.0625 257.812 1863
-195.312 -312.5 1214
195.312 367.188 1264
195.312 351.562 1259
203.125 359.375 1264
70.3125 -148.438 1149
62.5 125 1173
-343.75 101.562 1181
-351.562 250 1529
-367.188 -156.25 1250
-367.188 -46.875 1189
70.3125 -140.625 1134
70.3125 351.562 1550
-500 -125 1214
54.6875 437.5 1439
-390.625 296.875 1410
-398.438 289.062 1421
460.938 -140.625 1445
312.5 421.875 1365
281.25 -70.3125 1503
-125 -250 1250
-406.25 335.938 1333
226.562 -39.0625 1123
23.4375 -140.625 1123
-156.25 -281.25 1232
226.562 -15.625 1126
31.25 414.062 1439
85.9375 414.062 1477
-335.938 156.25 1206
-453.125 -343.75 3208
296.875 -62.5 1509
203.125 320.312 1250
-195.312 -289.062 1227
-460.938 -132.812 1193
-484.375 304.688 1376
421.875 359.375 1421
320.312 367.188 1359
-218.75 -304.688 1219
-23.4375 312.5 1639
-85.9375 390.625 1496
250 304.688 1410
-375 -46.875 1177
218.75 390.625 1376
351.562 265.625 1189
-164.062 -242.188 1245
-351.562 156.25 1197
-390.625 289.062 1415
-101.562 -242.188 1338
-437.5 -195.312 1415
-398.438 312.5 1370
-125 -226.562 1255
-210.938 -179.688 1259
-187.5 -281.25 1232
195.312 375 1264
-359.375 343.75 1338
31.25 265.625 1863
218.75 218.75 1189
382.812 265.625 1189
39.0625 31.25 1165
78.125 -125 1105
39.0625 351.562 1572
367.188 414.062 1359
296.875 -195.312 1464
-429.688 -125 1157
210.938 398.438 1387
109.375 -101.562 1105
265.625 414.062 1354
-304.688 15.625 1161
226.562 156.25 1169
226.562 187.5 1177
218.75 226.562 1189
-62.5 406.25 1483
-148.438 -312.5 1227
-210.938 132.812 1766
23.4375 15.625 1141
-460.938 -296.875 3238
-218.75 -320.312 1439
242.188 437.5 1333
-484.375 281.25 1415
-203.125 -218.75 1250
-343.75 195.312 1210
-484.375 296.875 1398
226.562 195.312 1177
-312.5 375 1302
-445.312 -187.5 1415
-476.562 -203.125 3399
-187.5 -203.125 1255
-367.188 -62.5 1145
-171.875 -234.375 1250
-15.625 375 1470
-367.188 15.625 1153
-265.625 421.875 1349
-54.6875 -281.25 1307
171.875 421.875 1288
-117.188 -164.062 1255
-148.438 -343.75 1445
7.8125 296.875 1894
117.188 -93.75 1105
-203.125 -195.312 1264
39.0625 445.312 1421
-492.188 304.688 1370
-93.75 -265.625 1328
-210.938 -265.625 1227
-351.562 -85.9375 1138
46.875 351.562 1572
226.562 -54.6875 1115
46.875 210.938 1843
-468.75 -46.875 1161
-445.312 -210.938 3269
460.938 -132.812 1452
445.312 210.938 1123
-62.5 -171.875 1328
-31.25 -242.188 1302
85.9375 -156.25 1214
-242.188 335.938 1343
226.562 -23.4375 1126
39.0625 234.375 1853
-93.75 -304.688 1398
140.625 -109.375 1105
460.938 -210.938 1410
437.5 -23.4375 1387
-328.125 7.8125 1169
-328.125 218.75 1227
304.688 -328.125 1404
-117.188 296.875 1915
-351.562 -93.75 1130
-406.25 226.562 1227
226.562 23.4375 1138
0 31.25 1153
-226.562 -156.25 1264
335.938 -54.6875 1503
46.875 218.75 1843
101.562 -156.25 1202
351.562 406.25 1365
39.0625 226.562 1853
257.812 351.562 1354
-109.375 382.812 1632
-265.625 398.438 1376
-117.188 -171.875 1278
468.75 -234.375 1404
-140.625 -234.375 1250
70.3125 359.375 1550
62.5 31.25 1157
-351.562 -70.3125 1141
-335.938 148.438 1197
390.625 429.688 1343
62.5 429.688 1445
-187.5 -265.625 1236
226.562 -7.8125 1134
-85.9375 -296.875 1392
453.125 -85.9375 1464
226.562 328.125 1392
-148.438 -250 1245
468.75 -226.562 1404
234.375 -109.375 1105
-445.312 -62.5 1153
54.6875 31.25 1157
-15.625 312.5 1639
375 187.5 1145
234.375 125 1157
-265.625 414.062 1343
-429.688 -335.938 3178
-484.375 312.5 1343
-46.875 414.062 1452
218.75 234.375 1193
-343.75 218.75 1223
289.062 -156.25 1483
-375 273.438 1464
0 296.875 1883
-460.938 218.75 1232
109.375 -109.375 1105
-375 -101.562 1197
-93.75 -296.875 1398
-54.6875 -265.625 1302
-328.125 210.938 1223
93.75 15.625 1138
179.688 359.375 1264
54.6875 -203.125 1227
375 421.875 1354
250 312.5 1398
125 -101.562 1105
453.125 -70.3125 1477
468.75 -250 1404
468.75 -265.625 1398
-445.312 257.812 1496
-343.75 226.562 1223
-31.25 15.625 1161
226.562 164.062 1173
46.875 164.062 1813
54.6875 -148.438 1153
210.938 382.812 1387
70.3125 15.625 1138
-406.25 265.625 1470
-203.125 257.812 1813
468.75 -242.188 1404
-328.125 273.438 1264
-414.062 250 1516
-468.75 289.062 1415
-328.125 15.625 1153
-125 -281.25 1232
-492.188 -117.188 1214
-453.125 273.438 1445
-85.9375 -304.688 1392
-421.875 70.3125 1173
468.75 289.062 1483
-23.4375 31.25 1157
-54.6875 -273.438 1307
-234.375 -281.25 1223
-375 -23.4375 1173
54.6875 156.25 1804
281.25 -62.5 1536
-351.562 -164.062 1255
117.188 421.875 1529
-460.938 -54.6875 1153
-328.125 -140.625 1153
-414.062 312.5 1370
-343.75 320.312 1365
304.688 -320.312 1404
0 359.375 1550
31.25 93.75 1153
-406.25 -62.5 1157
-453.125 -15.625 1173
-304.688 390.625 1312
-367.188 312.5 1381
-85.9375 23.4375 1165
-359.375 257.812 1516
23.4375 -164.062 1161
-468.75 -54.6875 1161
187.5 -101.562 1108
-445.312 70.3125 1177
-226.562 23.4375 1153
234.375 429.688 1338
148.438 31.25 1161
-70.3125 390.625 1489
-203.125 273.438 1794
195.312 39.0625 1149
-195.312 -218.75 1250
-453.125 -70.3125 1153
234.375 421.875 1349
-23.4375 382.812 1470
-359.375 -70.3125 1145
-406.25 -140.625 1185
210.938 359.375 1381
226.562 171.875 1173
-148.438 -125 1119
-437.5 -460.938 3064
-39.0625 -226.562 1317
-203.125 265.625 1794
-476.562 296.875 1387
62.5 125 1173
54.6875 351.562 1572
367.188 -234.375 1421
398.438 406.25 1338
312.5 406.25 1387
281.25 -78.125 1503
-398.438 265.625 1464
351.562 390.625 1421
179.688 375 1273
359.375 406.25 1359
-109.375 -289.062 1439
-187.5 -85.9375 1134
-390.625 0 1189
54.6875 164.062 1813
250 429.688 1338
-179.688 -242.188 1245
46.875 226.562 1853
-195.312 23.4375 1161
-453.125 -132.812 1181
-140.625 -179.688 1268
-296.875 390.625 1322
226.562 140.625 1161
-148.438 -187.5 1268
-179.688 -125 1126
-335.938 140.625 1197
-359.375 93.75 1177
476.562 343.75 1398
-171.875 -242.188 1250
-226.562 -164.062 1264
-398.438 328.125 1338
453.125 -156.25 1433
-187.5 -195.312 1264
226.562 -46.875 1119
132.812 62.5 1105
-226.562 -171.875 1259
-406.25 -23.4375 1169
375 -335.938 1381
39.0625 437.5 1421
234.375 140.625 1157
210.938 273.438 1202
234.375 132.812 1157
375 265.625 1189
203.125 320.312 1250
15.625 -125 1108
125 390.625 1632
140.625 -125 1101
-351.562 -101.562 1130
-70.3125 -125 1115
23.4375 359.375 1564
382.812 242.188 1185
-343.75 265.625 1264
226.562 -85.9375 1108
156.25 -23.4375 1126
-343.75 281.25 1264
-320.312 210.938 1241
453.125 -132.812 1452
-351.562 148.438 1193
460.938 -304.688 1381
460.938 414.062 1370
-171.875 -203.125 1264
375 335.938 1427
-414.062 -54.6875 1153
281.25 406.25 1354
-23.4375 320.312 1639
429.688 -257.812 1392
-164.062 -179.688 1268
320.312 -257.812 1421
320.312 242.188 1189
-406.25 -125 1173
304.688 242.188 1189
351.562 -78.125 1483
-460.938 -125 1189
-179.688 281.25 1904
-492.188 -31.25 1169
93.75 414.062 1503
-328.125 320.312 1278
484.375 257.812 1189
46.875 31.25 1161
375 -328.125 1381
343.75 375 1452
210.938 390.625 1387
250 0 1283
335.938 382.812 1427
-390.625 -23.4375 1173
-164.062 -234.375 1250
101.562 31.25 1161
117.188 -109.375 1105
23.4375 -250 1343
-445.312 304.688 1376
-320.312 320.312 1283
-304.688 421.875 1328
54.6875 15.625 1145
15.625 -171.875 1169
-406.25 31.25 1126
-406.25 31.25 1126
-156.25 -312.5 1227
-460.938 312.5 1354
445.312 -62.5 1477
351.562 -54.6875 1483
31.25 15.625 1145
203.125 312.5 1241
62.5 414.062 1458
375 171.875 1161
54.6875 414.062 1445
367.188 429.688 1338
-359.375 85.9375 1177
-468.75 296.875 1392
171.875 -109.375 1105
195.312 375 1264
453.125 398.438 1381
39.0625 265.625 1873
-406.25 -109.375 1173
-367.188 343.75 1343
429.688 398.438 1387
54.6875 132.812 1804
257.812 242.188 1193
-140.625 -281.25 1236
218.75 375 1376
-437.5 -234.375 3300
-492.188 -46.875 1173
-117.188 -289.062 1227
398.438 375 1427
-476.562 -54.6875 1165
296.875 -234.375 1445
-164.062 -304.688 1227
101.562 15.625 1134
101.562 15.625 1134
-351.562 140.625 1193
335.938 390.625 1404
125 437.5 1523
351.562 359.375 1458
429.688 -328.125 1381
46.875 15.625 1145
296.875 312.5 1410
-398.438 296.875 1410
-39.0625 15.625 1161
304.688 -335.938 1415
-460.938 281.25 1427
-414.062 -140.625 1185
15.625 15.625 1149
226.562 203.125 1185
171.875 117.188 1173
78.125 15.625 1141
-101.562 429.688 1529
179.688 -101.562 1108
-500 -78.125 1292
-351.562 210.938 1223
492.188 281.25 1185
226.562 195.312 1177
257.812 421.875 1359
171.875 -101.562 1105
62.5 15.625 1141
242.188 429.688 1333
-23.4375 296.875 1894
-125 -171.875 1268
-460.938 -62.5 1157
93.75 -101.562 1108
234.375 -109.375 1105
203.125 -109.375 1105
-132.812 351.562 1688
164.062 -101.562 1105
453.125 351.562 1387
460.938 -140.625 1445
460.938 -140.625 1445
156.25 -101.562 1108
-54.6875 -289.062 1404
-15.625 296.875 1894
-70.3125 -289.062 1398
250 421.875 1359
-242.188 375 1338
289.062 -117.188 1496
-492.188 -101.562 1245
335.938 406.25 1392
-70.3125 -296.875 1398
-351.562 117.188 1189
-31.25 320.312 1632
-343.75 187.5 1210
-453.125 265.625 1458
351.562 398.438 1404
203.125 328.125 1255
-31.25 -101.562 1119
406.25 62.5 1105
453.125 296.875 1439
320.312 -54.6875 1503
343.75 320.312 1458
-406.25 -78.125 1161
-171.875 -304.688 1227
-414.062 70.3125 1173
335.938 351.562 1365
484.375 195.312 1165
85.9375 15.625 1138
-421.875 -54.6875 1153
289.062 -78.125 1503
125 15.625 1134
-234.375 429.688 1359
46.875 -148.438 1157
-46.875 15.625 1161
140.625 -109.375 1105
-351.562 234.375 1223
-382.812 234.375 1223
210.938 273.438 1202
-93.75 -257.812 1333
-226.562 -156.25 1264
-406.25 273.438 1452
7.8125 31.25 1153
351.562 367.188 1464
234.375 -62.5 1119
234.375 -70.3125 1112
-54.6875 -296.875 1404
265.625 335.938 1365
328.125 367.188 1359
234.375 -78.125 1112
39.0625 234.375 1853
453.125 -78.125 1477
312.5 -296.875 1410
-390.625 -140.625 1206
93.75 -179.688 1210
328.125 -328.125 1398
-85.9375 15.625 1153
-445.312 320.312 1349
-437.5 289.062 1421
328.125 -54.6875 1503
78.125 390.625 1464
-367.188 -70.3125 1145
390.625 -328.125 1376
70.3125 -140.625 1134
23.4375 289.062 1894
296.875 -171.875 1464
-500 257.812 1381
273.438 421.875 1359
460.938 -171.875 1427
-437.5 -39.0625 1153
70.3125 421.875 1458
23.4375 -125 1108
-437.5 -39.0625 1153
117.188 -101.562 1105
359.375 390.625 1415
-304.688 414.062 1322
-70.3125 -296.875 1398
-320.312 273.438 1264
-7.8125 15.625 1149
-500 -46.875 1173
-351.562 335.938 1338
226.562 335.938 1381
85.9375 382.812 1489
-23.4375 320.312 1639
304.688 414.062 1365
320.312 312.5 1415
31.25 31.25 1157
226.562 0 1138
296.875 -54.6875 1496
-54.6875 -281.25 1307
85.9375 429.688 1503
-312.5 375 1302
164.062 15.625 1138
-148.438 -320.312 1227
187.5 23.4375 1123
-210.938 171.875 1766
226.562 23.4375 1138
382.812 421.875 1354
-500 -93.75 1292
62.5 132.812 1804
375 171.875 1161
468.75 -218.75 1410
-171.875 289.062 1883
-468.75 7.8125 1165
54.6875 132.812 1804
-187.5 23.4375 1161
-484.375 -101.562 1245
140.625 15.625 1134
-7.8125 296.875 1883
101.562 -148.438 1123
312.5 -54.6875 1503
-140.625 281.25 1894
460.938 -125 1452
-484.375 -7.8125 1173
-242.188 312.5 1594
-179.688 -54.6875 1145
-265.625 335.938 1343
-398.438 312.5 1370
234.375 140.625 1157
-367.188 -156.25 1250
-195.312 54.6875 1126
-453.125 281.25 1421
429.688 367.188 1427
367.188 367.188 1445
-31.25 31.25 1157
39.0625 15.625 1149
265.625 406.25 1338
-54.6875 15.625 1161
-468.75 -296.875 3333
-187.5 -226.562 1250
-78.125 -265.625 1312
-101.562 23.4375 1177
406.25 242.188 1181
-453.125 -15.625 1173
-85.9375 -281.25 1392
-382.812 -101.562 1185
226.562 179.688 1173
187.5 39.0625 1149
-351.562 -109.375 1126
-382.812 312.5 1370
-421.875 273.438 1445
-132.812 -234.375 1250
-140.625 304.688 1823
46.875 234.375 1853
203.125 390.625 1404
85.9375 -164.062 1210
-117.188 23.4375 1169
-312.5 289.062 1268
460.938 -132.812 1452
156.25 -109.375 1108
460.938 351.562 1381
-125 -273.438 1236
93.75 -148.438 1123
78.125 31.25 1161
328.125 390.625 1427
-117.188 -234.375 1250
351.562 421.875 1359
-328.125 273.438 1264
-31.25 320.312 1632
0 -171.875 1227
-312.5 382.812 1302
359.375 382.812 1410
-445.312 -132.812 1173
460.938 -179.688 1421
-226.562 -179.688 1259
468.75 -234.375 1404
234.375 125 1157
39.0625 242.188 1853
-398.438 -78.125 1169
-132.812 -179.688 1268
367.188 406.25 1398
-351.562 -117.188 1126
-171.875 -273.438 1232
132.812 -109.375 1105
312.5 390.625 1381
492.188 179.688 1157
382.812 398.438 1349
-398.438 -125 1173
234.375 132.812 1157
-359.375 -101.562 1123
46.875 156.25 1804
-320.312 320.312 1283
-343.75 335.938 1333
367.188 398.438 1392
-257.812 367.188 1338
-484.375 -289.062 3300
343.75 359.375 1365
-109.375 -125 1119
-351.562 320.312 1365
-125 375 1655
-85.9375 -125 1115
93.75 -125 1105
218.75 335.938 1387
453.125 -70.3125 1477
7.8125 -187.5 1232
70.3125 -125 1105
421.875 242.188 1181
-273.438 -125 1126
-429.688 273.438 1452
-54.6875 -125 1112
-453.125 0 1185
320.312 390.625 1381
70.3125 429.688 1452
-429.688 226.562 1223
-125 -234.375 1250
54.6875 164.062 1813
-23.4375 351.562 1523
-312.5 281.25 1268
406.25 429.688 1328
-250 -125 1126
-226.562 -125 1123
414.062 -70.3125 1477
-406.25 320.312 1343
-15.625 367.188 1496
296.875 414.062 1365
390.625 414.062 1338
-351.562 265.625 1489
234.375 -54.6875 1119
335.938 421.875 1354
328.125 375 1365
-429.688 320.312 1333
-421.875 312.5 1376
-164.062 23.4375 1169
-421.875 -132.812 1177
-78.125 -125 1115
-351.562 -93.75 1130
-375 312.5 1376
492.188 359.375 1302
-468.75 281.25 1433
453.125 414.062 1359
359.375 421.875 1354
-343.75 210.938 1219
85.9375 -125 1105
375 -226.562 1421
-23.4375 15.625 1185
406.25 -226.562 1410
390.625 265.625 1189
-351.562 -125 1134
-335.938 273.438 1264
70.3125 -203.125 1223
453.125 -93.75 1458
39.0625 -125 1108
148.438 -125 1105
195.312 359.375 1264
109.375 15.625 1138
437.5 -257.812 1392
226.562 171.875 1173
0 -257.812 1317
-382.812 -62.5 1173
-328.125 265.625 1259
-453.125 242.188 1523
85.9375 31.25 1161
23.4375 328.125 1579
359.375 367.188 1452
-390.625 -101.562 1185
-117.188 -179.688 1268
31.25 -140.625 1119
-312.5 421.875 1338
234.375 -78.125 1112
-453.125 218.75 1227
7.8125 -195.312 1232
-101.562 -296.875 1404
-382.812 -46.875 1173
234.375 -109.375 1105
226.562 -15.625 1126
-453.125 -109.375 1169
429.688 -46.875 1477
-437.5 -429.688 3092
210.938 -109.375 1101
468.75 -226.562 1404
226.562 -31.25 1126
296.875 -156.25 1477
398.438 -46.875 1439
-171.875 -171.875 1268
429.688 359.375 1415
382.812 -226.562 1415
-312.5 -148.438 1193
265.625 242.188 1189
-343.75 203.125 1214
46.875 -156.25 1153
-125 -164.062 1268
-359.375 -23.4375 1157
-375 296.875 1404
-156.25 -171.875 1268
0 304.688 1883
-328.125 296.875 1278
-429.688 203.125 1223
226.562 203.125 1185
-210.938 23.4375 1149
-390.625 -7.8125 1214
-78.125 343.75 1572
-234.375 320.312 1338
343.75 414.062 1354
-125 23.4375 1169
164.062 31.25 1169
382.812 429.688 1338
-437.5 -23.4375 1157
-367.188 195.312 1214
-156.25 -289.062 1232
-109.375 320.312 1794
-414.062 -140.625 1185
109.375 -101.562 1105
-7.8125 328.125 1572
-500 -54.6875 1292
359.375 375 1445
148.438 15.625 1134
210.938 281.25 1210
218.75 250 1197
125 -125 1101
-351.562 328.125 1359
382.812 -335.938 1387
343.75 421.875 1354
-351.562 289.062 1445
-15.625 15.625 1153
-62.5 54.6875 1115
93.75 15.625 1138
-414.062 0 1202
7.8125 15.625 1149
0 296.875 1883
-70.3125 429.688 1503
367.188 -328.125 1387
-250 429.688 1349
-429.688 -132.812 1177
445.312 265.625 1189
-117.188 -125 1119
0 -125 1112
156.25 -125 1105
46.875 218.75 1843
23.4375 15.625 1138
-359.375 117.188 1189
421.875 265.625 1189
-382.812 -156.25 1219
39.0625 351.562 1579
70.3125 -156.25 1149
117.188 15.625 1138
-359.375 250 1529
-359.375 -62.5 1145
-437.5 -304.688 3238
-54.6875 -296.875 1398
-15.625 31.25 1157
437.5 406.25 1376
-367.188 -93.75 1108
195.312 406.25 1278
70.3125 390.625 1464
-421.875 -140.625 1193
15.625 406.25 1445
31.25 265.625 1853
328.125 351.562 1365
15.625 31.25 1157
484.375 398.438 1302
-304.688 328.125 1283
54.6875 -125 1108
226.562 210.938 1185
203.125 328.125 1250
-187.5 335.938 1757
-210.938 -125 1130
343.75 390.625 1381
156.25 15.625 1138
304.688 -304.688 1421
-343.75 -7.8125 1161
78.125 390.625 1464
70.3125 15.625 1141
31.25 15.625 1141
453.125 343.75 1387
328.125 -54.6875 1496
0 15.625 1149
-179.688 -304.688 1227
-445.312 -117.188 1169
-15.625 328.125 1564
421.875 273.438 1189
-132.812 -250 1245
-156.25 -304.688 1232
54.6875 15.625 1141
-23.4375 296.875 1894
406.25 265.625 1189
-445.312 -15.625 1157
406.25 -218.75 1421
195.312 421.875 1283
-367.188 -23.4375 1189
203.125 335.938 1250
484.375 -46.875 1236
-31.25 296.875 1883
-476.562 -78.125 1193
-328.125 257.812 1259
-453.125 -171.875 1404
304.688 437.5 1333
453.125 265.625 1185
-335.938 335.938 1338
-500 -39.0625 1185
335.938 375 1365
-117.188 -296.875 1232
-445.312 265.625 1477
-265.625 429.688 1365
203.125 406.25 1278
250 406.25 1349
367.188 390.625 1421
46.875 351.562 1572
468.75 179.688 1153
492.188 15.625 1236
-31.25 320.312 1639
218.75 234.375 1193
343.75 109.375 1145
-273.438 234.375 1365
195.312 -125 1105
343.75 429.688 1322
78.125 -140.625 1112
-492.188 289.062 1365
359.375 242.188 1189
203.125 414.062 1278
-250 39.0625 1126
-429.688 328.125 1343
-148.438 23.4375 1169
-492.188 -15.625 1169
-460.938 -62.5 1165
171.875 -101.562 1108
203.125 39.0625 1153
335.938 398.438 1387
93.75 375 1509
234.375 -46.875 1119
-179.688 -203.125 1259
171.875 429.688 1292
226.562 421.875 1354
-468.75 304.688 1376
234.375 -39.0625 1123
-351.562 281.25 1452
132.812 -125 1101
-367.188 -46.875 1185
-7.8125 359.375 1550
-328.125 281.25 1264
296.875 -164.062 1470
46.875 15.625 1149
-93.75 -304.688 1410
-148.438 -164.062 1273
234.375 421.875 1354
-351.562 312.5 1381
46.875 398.438 1439
242.188 421.875 1349
468.75 -210.938 1410
-195.312 -304.688 1227
-210.938 -304.688 1223
375 398.438 1427
-101.562 15.625 1149
-218.75 -257.812 1232
195.312 46.875 1138
-359.375 343.75 1338
-343.75 296.875 1421
-398.438 -23.4375 1169
-320.312 343.75 1302
187.5 15.625 1134
-39.0625 15.625 1181
-359.375 -31.25 1193
54.6875 351.562 1572
-62.5 15.625 1149
-15.625 437.5 1433
-179.688 -335.938 1439
-242.188 375 1338
414.062 343.75 1410
-101.562 343.75 1748
-414.062 296.875 1392
296.875 -179.688 1464
-304.688 -125 1134
164.062 -125 1108
-101.562 -242.188 1477
320.312 375 1354
-234.375 23.4375 1149
-468.75 195.312 1223
343.75 351.562 1376
218.75 414.062 1349
-351.562 109.375 1181
125 117.188 1177
195.312 390.625 1259
-320.312 15.625 1157
-343.75 304.688 1410
210.938 273.438 1202
-445.312 289.062 1415
226.562 414.062 1349
-414.062 203.125 1219
234.375 -70.3125 1115
398.438 265.625 1189
-187.5 -289.062 1227
46.875 171.875 1813
109.375 54.6875 1108
351.562 109.375 1145
-7.8125 304.688 1883
210.938 31.25 1169
-265.625 -125 1130
320.312 109.375 1145
-484.375 -15.625 1169
468.75 304.688 1458
445.312 242.188 1177
-195.312 -281.25 1227
226.562 218.75 1189
-453.125 -132.812 1202
-429.688 -156.25 1189
-414.062 320.312 1343
-414.062 335.938 1333
-7.8125 367.188 1536
23.4375 289.062 1883
46.875 414.062 1439
101.562 15.625 1138
-437.5 -156.25 1189
-445.312 296.875 1381
343.75 398.438 1381
-132.812 -187.5 1268
-375 -93.75 1189
-15.625 304.688 1883
210.938 281.25 1210
-468.75 140.625 1206
-226.562 -187.5 1259
-164.062 -273.438 1232
312.5 109.375 1141
31.25 328.125 1586
304.688 -54.6875 1458
-117.188 -265.625 1241
-117.188 -171.875 1268
-351.562 -109.375 1119
140.625 117.188 1153
-398.438 304.688 1387
-210.938 -312.5 1223
382.812 -218.75 1421
-500 -148.438 1185
312.5 -218.75 1445
171.875 15.625 1138
179.688 15.625 1138
101.562 -109.375 1105
390.625 -218.75 1421
31.25 281.25 1863
-195.312 -125 1126
46.875 226.562 1843
-421.875 242.188 1529
234.375 -54.6875 1119
382.812 414.062 1354
-445.312 304.688 1376
-117.188 -289.062 1227
125 15.625 1138
-195.312 -203.125 1259
-398.438 328.125 1338
320.312 414.062 1365
-187.5 -257.812 1236
-39.0625 296.875 1883
62.5 15.625 1138
414.062 -46.875 1483
328.125 429.688 1322
257.812 429.688 1317
-453.125 296.875 1392
-31.25 328.125 1639
39.0625 15.625 1149
-406.25 -140.625 1189
-328.125 343.75 1338
445.312 -46.875 1445
210.938 39.0625 1149
-117.188 296.875 1915
468.75 335.938 1387
-351.562 304.688 1410
85.9375 414.062 1477
-351.562 296.875 1421
23.4375 31.25 1157
-125 -226.562 1250
164.062 15.625 1138
-406.25 257.812 1496
109.375 15.625 1138
-203.125 23.4375 1161
-492.188 281.25 1370
-476.562 -335.938 3269
-117.188 -273.438 1232
445.312 398.438 1381
70.3125 -132.812 1108
-132.812 -164.062 1278
210.938 406.25 1404
226.562 187.5 1177
234.375 -23.4375 1123
-414.062 226.562 1223
390.625 187.5 1145
304.688 -273.438 1421
320.312 437.5 1328
312.5 437.5 1317
234.375 -31.25 1126
375 109.375 1141
7.8125 328.125 1586
-54.6875 -273.438 1302
0 304.688 1883
140.625 15.625 1134
218.75 406.25 1398
-500 273.438 1376
234.375 117.188 1157
39.0625 31.25 1165
328.125 109.375 1149
-140.625 -164.062 1273
-23.4375 31.25 1157
406.25 -46.875 1483
78.125 367.188 1543
289.062 406.25 1349
234.375 156.25 1165
468.75 -218.75 1404
226.562 15.625 1138
-343.75 0 1165
78.125 15.625 1138
-390.625 -125 1193
-445.312 -93.75 1161
226.562 179.688 1173
-117.188 289.062 1904
375 406.25 1370
421.875 -46.875 1483
-406.25 328.125 1338
54.6875 31.25 1161
-179.688 23.4375 1161
390.625 -226.562 1415
15.625 15.625 1145
-46.875 296.875 1883
156.25 -101.562 1108
359.375 390.625 1421
-7.8125 15.625 1153
234.375 125 1157
234.375 -46.875 1119
476.562 312.5 1439
164.062 -109.375 1105
203.125 -101.562 1108
-46.875 15.625 1157
-406.25 304.688 1381
-406.25 -46.875 1153
398.438 -210.938 1421
-164.062 31.25 1138
-164.062 304.688 1843
-93.75 414.062 1564
156.25 -109.375 1105
234.375 414.062 1349
234.375 7.8125 1134
429.688 265.625 1189
-398.438 296.875 1410
-359.375 335.938 1343
-39.0625 31.25 1161
367.188 109.375 1145
39.0625 398.438 1439
46.875 445.312 1421
-414.062 242.188 1536
-218.75 23.4375 1153
-54.6875 -234.375 1312
93.75 421.875 1470
203.125 398.438 1259
