ply
format ascii 1.0
comment Created by Open3D
element vertex 2453
property double x
property double y
property double z
end_header
-7.8125 367.188 925
-289.062 -7.8125 3120
93.75 406.25 837
195.312 289.062 873
164.062 445.312 854
31.25 109.375 1038
62.5 132.812 1013
-453.125 -132.812 2767
171.875 78.125 1084
312.5 15.625 1115
-7.8125 343.75 951
-460.938 15.625 3010
-476.562 -226.562 2723
-93.75 296.875 973
101.562 257.812 835
109.375 429.688 867
0 85.9375 1060
-7.8125 335.938 959
382.812 54.6875 901
93.75 226.562 860
281.25 -7.8125 1094
218.75 -117.188 1094
-492.188 -171.875 1959
273.438 273.438 845
203.125 281.25 878
125 343.75 827
54.6875 195.312 1016
54.6875 195.312 1016
7.8125 93.75 1057
-31.25 195.312 1016
-70.3125 335.938 954
398.438 31.25 896
-460.938 -195.312 2541
-453.125 31.25 2984
78.125 429.688 837
31.25 54.6875 1381
23.4375 414.062 880
109.375 218.75 867
-54.6875 195.312 903
226.562 -140.625 1097
250 414.062 882
-382.812 31.25 3120
289.062 54.6875 1123
15.625 414.062 880
250 -171.875 1101
46.875 437.5 858
156.25 375 829
-281.25 54.6875 1343
-382.812 -7.8125 3064
406.25 281.25 823
54.6875 414.062 847
-93.75 210.938 964
453.125 281.25 831
156.25 398.438 829
-328.125 -7.8125 3120
62.5 296.875 867
46.875 304.688 871
398.438 -31.25 910
281.25 421.875 875
-15.625 54.6875 1381
78.125 460.938 839
101.562 304.688 829
492.188 265.625 835
273.438 281.25 845
-484.375 -437.5 2432
343.75 414.062 885
-257.812 -7.8125 3208
117.188 210.938 875
-273.438 -7.8125 3149
23.4375 93.75 1044
132.812 140.625 956
39.0625 179.688 1038
367.188 289.062 817
210.938 289.062 875
-31.25 -15.625 3208
453.125 -54.6875 933
-7.8125 54.6875 1381
375 78.125 910
70.3125 445.312 854
-31.25 273.438 951
375 296.875 817
-93.75 312.5 978
85.9375 289.062 873
46.875 382.812 845
-15.625 85.9375 1054
-484.375 -453.125 2415
31.25 179.688 1038
-7.8125 93.75 1057
453.125 257.812 843
0 93.75 1057
320.312 296.875 813
117.188 78.125 1338
257.812 242.188 885
335.938 304.688 813
484.375 -23.4375 906
367.188 -23.4375 898
156.25 250 858
-46.875 -101.562 3092
-23.4375 281.25 951
218.75 156.25 995
-54.6875 242.188 935
460.938 93.75 948
46.875 54.6875 1387
195.312 304.688 860
390.625 296.875 821
187.5 281.25 882
-93.75 320.312 970
390.625 164.062 956
-46.875 187.5 903
250 429.688 869
-445.312 -70.3125 2835
-23.4375 54.6875 1381
-93.75 109.375 1010
414.062 140.625 956
203.125 -70.3125 1105
-484.375 -390.625 2467
-460.938 -320.312 2598
359.375 453.125 849
164.062 390.625 829
-46.875 281.25 943
359.375 -23.4375 903
-460.938 -453.125 2450
132.812 109.375 1264
140.625 328.125 833
453.125 273.438 831
7.8125 54.6875 1387
-85.9375 320.312 967
39.0625 265.625 827
109.375 257.812 837
-46.875 93.75 1038
85.9375 265.625 829
484.375 265.625 835
460.938 273.438 831
335.938 -78.125 1060
242.188 375 908
132.812 -39.0625 1292
429.688 39.0625 910
226.562 0 1134
296.875 304.688 813
195.312 265.625 851
359.375 15.625 898
132.812 46.875 1273
101.562 62.5 1376
445.312 140.625 970
15.625 101.562 1050
421.875 281.25 825
-117.188 125 987
492.188 273.438 835
437.5 117.188 954
-39.0625 281.25 948
-93.75 281.25 956
70.3125 125 1004
125 257.812 847
195.312 281.25 880
171.875 234.375 875
437.5 7.8125 896
101.562 289.062 831
398.438 148.438 959
156.25 171.875 928
125 359.375 827
132.812 203.125 889
-468.75 -179.688 2485
226.562 15.625 1181
140.625 -31.25 1268
-70.3125 203.125 930
226.562 406.25 894
453.125 437.5 860
-460.938 -335.938 2598
101.562 -54.6875 3208
117.188 406.25 839
468.75 281.25 831
484.375 15.625 918
-31.25 226.562 878
156.25 335.938 833
164.062 -54.6875 1322
343.75 304.688 817
375 289.062 817
429.688 304.688 835
453.125 -7.8125 898
-500 -312.5 2053
78.125 140.625 998
31.25 101.562 1038
492.188 93.75 1050
203.125 265.625 885
179.688 226.562 885
-15.625 179.688 1034
390.625 140.625 948
-156.25 453.125 833
-31.25 296.875 948
-343.75 312.5 951
-281.25 -7.8125 3120
54.6875 445.312 851
398.438 -31.25 910
-93.75 218.75 989
265.625 70.3125 1094
-101.562 125 998
-460.938 -312.5 2598
-70.3125 109.375 1025
31.25 109.375 1038
468.75 445.312 860
203.125 125 1038
453.125 109.375 956
-476.562 -164.062 2333
492.188 -148.438 3149
-265.625 -7.8125 3178
-460.938 -351.562 2560
62.5 453.125 843
23.4375 265.625 833
0 54.6875 1381
15.625 257.812 871
484.375 -265.625 2984
281.25 296.875 825
23.4375 257.812 833
234.375 273.438 938
-320.312 421.875 845
289.062 -78.125 1057
117.188 265.625 843
429.688 125 956
367.188 171.875 948
15.625 250 869
109.375 156.25 973
406.25 -23.4375 901
476.562 289.062 833
39.0625 54.6875 1387
187.5 93.75 1077
265.625 -109.375 1063
101.562 421.875 873
54.6875 54.6875 1387
15.625 304.688 918
250 -93.75 1067
-445.312 -132.812 2767
367.188 62.5 906
140.625 156.25 943
382.812 289.062 821
132.812 343.75 827
125 250 839
195.312 382.812 841
93.75 62.5 1376
179.688 390.625 839
-351.562 437.5 829
101.562 226.562 860
0 171.875 1044
421.875 289.062 825
-476.562 -289.062 2618
-39.0625 296.875 946
257.812 -70.3125 1063
85.9375 218.75 860
445.312 -23.4375 901
398.438 93.75 925
-484.375 -125 2198
398.438 398.438 887
-117.188 398.438 885
-46.875 218.75 896
210.938 -132.812 1112
171.875 226.562 867
453.125 -39.0625 923
164.062 273.438 843
328.125 0 930
289.062 -132.812 1063
164.062 406.25 837
-406.25 -7.8125 3064
31.25 54.6875 1381
195.312 171.875 910
-46.875 101.562 1038
234.375 -109.375 1080
234.375 -109.375 1080
250 226.562 896
226.562 171.875 967
62.5 367.188 841
171.875 398.438 837
320.312 156.25 970
398.438 164.062 956
15.625 -15.625 3238
328.125 296.875 813
-437.5 -15.625 2933
-312.5 -7.8125 3120
109.375 148.438 975
-125 132.812 970
218.75 -375 2835
265.625 429.688 871
-15.625 289.062 948
101.562 429.688 864
429.688 78.125 930
375 7.8125 880
125 421.875 875
-70.3125 304.688 938
171.875 101.562 1123
414.062 46.875 908
242.188 46.875 1134
242.188 39.0625 1141
140.625 273.438 837
171.875 328.125 837
179.688 289.062 873
-484.375 -31.25 3064
78.125 320.312 851
78.125 273.438 845
93.75 304.688 851
476.562 54.6875 933
117.188 101.562 1302
39.0625 171.875 1041
390.625 171.875 946
-484.375 -140.625 2256
367.188 -23.4375 898
85.9375 15.625 3300
7.8125 367.188 925
132.812 429.688 869
304.688 -101.562 1054
414.062 15.625 891
39.0625 304.688 906
-7.8125 -15.625 3238
-453.125 -203.125 2618
-23.4375 -15.625 3238
164.062 335.938 835
-101.562 203.125 964
460.938 46.875 923
421.875 148.438 964
109.375 398.438 833
203.125 375 843
70.3125 375 837
-78.125 281.25 943
398.438 54.6875 906
164.062 257.812 851
492.188 0 910
210.938 382.812 845
54.6875 273.438 823
273.438 -140.625 1073
156.25 312.5 849
148.438 406.25 833
-242.188 -7.8125 3208
171.875 265.625 847
-70.3125 101.562 1025
382.812 296.875 821
453.125 406.25 891
54.6875 117.188 1016
125 406.25 837
351.562 304.688 817
289.062 304.688 815
-70.3125 343.75 946
-39.0625 187.5 1025
257.812 -148.438 1084
46.875 54.6875 1387
101.562 257.812 835
125 93.75 1302
-171.875 234.375 1070
460.938 281.25 831
195.312 109.375 1044
359.375 46.875 906
234.375 39.0625 1145
273.438 31.25 1157
54.6875 414.062 847
421.875 -15.625 894
31.25 -15.625 3269
93.75 281.25 835
46.875 195.312 1016
125 265.625 843
93.75 273.438 843
210.938 367.188 851
281.25 -15.625 1087
453.125 15.625 906
132.812 328.125 833
-54.6875 343.75 948
-78.125 335.938 954
414.062 -15.625 891
132.812 296.875 827
-453.125 46.875 2984
-31.25 328.125 973
109.375 257.812 837
406.25 54.6875 910
-132.812 140.625 967
156.25 273.438 839
242.188 -117.188 1080
-93.75 265.625 956
-78.125 257.812 948
109.375 328.125 835
132.812 335.938 829
179.688 382.812 837
429.688 156.25 964
-85.9375 304.688 967
343.75 296.875 815
23.4375 414.062 880
289.062 -15.625 1080
484.375 398.438 901
296.875 312.5 813
335.938 171.875 946
-78.125 187.5 920
273.438 -195.312 1080
85.9375 265.625 829
39.0625 117.188 1028
-85.9375 -15.625 3238
234.375 398.438 898
460.938 54.6875 928
-62.5 257.812 951
85.9375 382.812 837
289.062 -101.562 1057
257.812 429.688 869
296.875 421.875 875
335.938 414.062 885
85.9375 437.5 860
-453.125 -187.5 2598
54.6875 421.875 847
156.25 250 858
140.625 296.875 827
320.312 -148.438 1073
218.75 359.375 862
328.125 421.875 875
437.5 156.25 962
179.688 179.688 906
429.688 281.25 825
93.75 406.25 837
54.6875 125 1016
93.75 437.5 860
-250 -7.8125 3208
101.562 273.438 839
304.688 421.875 875
296.875 -23.4375 1077
242.188 7.8125 1115
234.375 421.875 878
281.25 -78.125 1063
398.438 171.875 948
156.25 171.875 928
406.25 164.062 954
335.938 23.4375 930
70.3125 195.312 1016
476.562 31.25 923
39.0625 312.5 898
-62.5 335.938 956
-54.6875 335.938 956
-62.5 203.125 908
171.875 421.875 878
375 171.875 946
460.938 31.25 915
-85.9375 328.125 962
62.5 445.312 851
-85.9375 296.875 967
156.25 265.625 845
93.75 265.625 841
46.875 304.688 871
398.438 296.875 823
101.562 421.875 873
-15.625 -15.625 3238
273.438 -164.062 1087
296.875 -179.688 1077
375 406.25 891
31.25 351.562 869
468.75 273.438 831
-39.0625 328.125 970
421.875 281.25 825
289.062 312.5 817
414.062 0 889
-421.875 31.25 3037
-85.9375 117.188 1013
132.812 453.125 847
281.25 304.688 825
218.75 -93.75 1090
7.8125 -15.625 3269
289.062 -156.25 1077
62.5 132.812 1013
328.125 171.875 946
0 -15.625 3269
46.875 406.25 858
15.625 93.75 1054
359.375 -23.4375 903
85.9375 421.875 835
-453.125 -226.562 2723
265.625 406.25 862
109.375 421.875 875
7.8125 304.688 928
445.312 406.25 889
78.125 312.5 851
-453.125 203.125 2415
-476.562 -140.625 2256
351.562 23.4375 913
-101.562 117.188 1001
429.688 -78.125 1060
484.375 -7.8125 903
359.375 289.062 817
-453.125 -234.375 2701
429.688 289.062 825
-39.0625 93.75 1044
23.4375 179.688 1038
93.75 367.188 837
406.25 -31.25 910
195.312 101.562 1047
437.5 -85.9375 1063
218.75 312.5 867
429.688 31.25 908
414.062 101.562 938
31.25 304.688 908
132.812 273.438 837
70.3125 460.938 839
-23.4375 312.5 987
-23.4375 179.688 1034
140.625 164.062 943
171.875 234.375 875
195.312 164.062 910
70.3125 453.125 843
39.0625 -15.625 3269
0 242.188 849
390.625 289.062 821
460.938 70.3125 935
-460.938 -328.125 2598
-39.0625 -15.625 3238
140.625 265.625 843
218.75 382.812 845
359.375 -31.25 908
-31.25 289.062 948
171.875 218.75 867
460.938 23.4375 910
-445.312 -117.188 2767
54.6875 54.6875 1387
226.562 335.938 871
-414.062 78.125 2835
31.25 265.625 827
421.875 15.625 894
39.0625 437.5 858
218.75 156.25 995
-257.812 359.375 910
-460.938 265.625 2256
250 -125 1073
7.8125 335.938 962
-31.25 -15.625 3208
132.812 156.25 951
132.812 156.25 951
398.438 -164.062 3149
54.6875 304.688 869
218.75 226.562 989
39.0625 187.5 1028
242.188 210.938 925
70.3125 382.812 835
-85.9375 109.375 1013
335.938 296.875 813
406.25 304.688 829
-140.625 210.938 1105
-234.375 -7.8125 3208
140.625 304.688 867
-257.812 -7.8125 3208
31.25 375 860
117.188 304.688 829
226.562 -62.5 1090
406.25 -23.4375 901
203.125 117.188 1038
93.75 210.938 864
453.125 390.625 898
-203.125 -7.8125 3208
-46.875 335.938 956
460.938 273.438 831
367.188 296.875 817
414.062 -31.25 910
437.5 -23.4375 901
148.438 148.438 943
304.688 304.688 811
-226.562 -7.8125 3208
132.812 265.625 843
62.5 281.25 873
-46.875 -15.625 3208
359.375 -70.3125 1070
484.375 7.8125 915
70.3125 54.6875 1381
70.3125 421.875 837
-39.0625 195.312 896
125 210.938 878
257.812 31.25 1161
140.625 359.375 825
-296.875 421.875 847
382.812 406.25 894
218.75 367.188 858
156.25 406.25 837
-7.8125 -15.625 3238
93.75 54.6875 1387
414.062 117.188 948
-62.5 250 959
140.625 257.812 847
70.3125 296.875 862
140.625 132.812 951
-46.875 101.562 1038
-93.75 265.625 956
54.6875 406.25 851
-78.125 312.5 959
273.438 429.688 869
-78.125 257.812 948
148.438 289.062 833
156.25 179.688 913
-39.0625 226.562 882
312.5 312.5 811
-15.625 289.062 948
445.312 -15.625 896
-437.5 171.875 2560
328.125 304.688 813
23.4375 257.812 833
195.312 398.438 839
-453.125 195.312 2415
468.75 281.25 831
242.188 414.062 885
250 226.562 896
468.75 -31.25 910
335.938 125 954
257.812 -187.5 1094
78.125 132.812 1001
62.5 125 1013
-85.9375 296.875 967
375 -23.4375 898
382.812 7.8125 880
140.625 406.25 833
273.438 -85.9375 1063
-210.938 -7.8125 3208
125 156.25 959
125 296.875 827
-289.062 62.5 1333
218.75 -343.75 2883
46.875 273.438 827
109.375 -351.562 2835
460.938 -7.8125 898
-335.938 -7.8125 3092
-500 -351.562 2579
-54.6875 -15.625 3208
281.25 -93.75 1060
-242.188 -7.8125 3208
-125 250 1057
476.562 445.312 858
148.438 250 856
101.562 148.438 978
85.9375 54.6875 1387
445.312 117.188 956
-101.562 242.188 992
31.25 429.688 864
140.625 242.188 851
414.062 -85.9375 1067
429.688 -15.625 894
414.062 -7.8125 889
414.062 445.312 856
328.125 70.3125 951
343.75 179.688 938
-23.4375 -31.25 3208
62.5 203.125 1007
164.062 429.688 867
296.875 -117.188 1057
289.062 15.625 1112
-132.812 164.062 962
85.9375 460.938 839
-101.562 101.562 1010
421.875 -257.812 3010
164.062 257.812 851
-281.25 62.5 1333
-93.75 281.25 956
-117.188 156.25 951
367.188 -62.5 1080
429.688 281.25 825
-125 132.812 970
140.625 343.75 829
421.875 164.062 954
-39.0625 281.25 948
437.5 46.875 918
109.375 414.062 837
-164.062 -7.8125 3208
-210.938 62.5 1343
-54.6875 351.562 940
-132.812 226.562 1087
312.5 421.875 875
289.062 -23.4375 1077
-375 62.5 1317
414.062 -23.4375 901
-312.5 62.5 1328
351.562 179.688 935
23.4375 171.875 1044
351.562 -15.625 908
70.3125 140.625 1004
179.688 242.188 867
335.938 -62.5 1060
335.938 179.688 938
54.6875 445.312 851
132.812 203.125 889
320.312 312.5 813
265.625 -179.688 1087
-109.375 187.5 943
445.312 156.25 962
234.375 187.5 943
15.625 101.562 1050
23.4375 -15.625 3269
39.0625 117.188 1028
250 -117.188 1070
437.5 281.25 827
-62.5 195.312 906
-484.375 39.0625 2198
-296.875 62.5 1328
406.25 296.875 823
93.75 335.938 837
78.125 218.75 851
-187.5 -7.8125 3208
132.812 304.688 829
-460.938 -343.75 2579
-70.3125 195.312 913
117.188 101.562 1302
-460.938 -289.062 2618
476.562 273.438 831
39.0625 109.375 1028
-62.5 210.938 908
-39.0625 101.562 1041
101.562 398.438 835
70.3125 445.312 854
398.438 296.875 823
54.6875 375 839
460.938 39.0625 920
-500 -78.125 1993
125 406.25 837
437.5 289.062 827
62.5 382.812 835
-250 62.5 1338
15.625 -15.625 3238
132.812 140.625 956
210.938 140.625 1007
78.125 54.6875 1381
-343.75 62.5 1317
460.938 85.9375 946
85.9375 328.125 845
453.125 148.438 973
-351.562 62.5 1322
-453.125 -148.438 2723
351.562 -101.562 1067
-320.312 62.5 1328
-359.375 62.5 1322
125 281.25 829
164.062 54.6875 1119
226.562 382.812 915
195.312 382.812 841
-31.25 187.5 1022
-367.188 62.5 1322
429.688 445.312 858
250 406.25 878
125 54.6875 1307
437.5 156.25 962
-265.625 62.5 1338
234.375 414.062 887
421.875 398.438 896
476.562 -54.6875 1105
296.875 31.25 1157
117.188 156.25 964
-39.0625 367.188 925
-335.938 62.5 1322
484.375 125 1007
132.812 257.812 847
101.562 54.6875 1392
-179.688 62.5 1343
-7.8125 296.875 938
351.562 414.062 885
171.875 109.375 1126
-109.375 164.062 946
445.312 164.062 956
93.75 54.6875 1387
445.312 398.438 901
-109.375 171.875 943
-54.6875 23.4375 3269
273.438 46.875 1130
437.5 -23.4375 901
140.625 156.25 943
171.875 257.812 851
265.625 265.625 860
367.188 304.688 819
375 171.875 946
429.688 148.438 967
-218.75 62.5 1343
406.25 -31.25 910
-257.812 62.5 1338
296.875 -148.438 1073
-62.5 257.812 951
304.688 -171.875 1077
62.5 132.812 1013
171.875 398.438 837
132.812 250 845
-304.688 62.5 1328
312.5 187.5 928
421.875 15.625 894
-54.6875 195.312 903
62.5 304.688 862
125 335.938 829
414.062 164.062 954
484.375 445.312 858
109.375 281.25 833
359.375 304.688 817
-70.3125 257.812 948
289.062 304.688 815
453.125 140.625 973
468.75 398.438 898
-476.562 -296.875 2618
-421.875 -15.625 3010
-414.062 85.9375 2789
-226.562 62.5 1343
15.625 93.75 1054
101.562 296.875 831
78.125 296.875 862
484.375 -54.6875 1105
226.562 -109.375 1087
46.875 -15.625 3269
85.9375 281.25 843
117.188 429.688 869
-39.0625 93.75 1044
242.188 421.875 873
-429.688 -46.875 2958
148.438 406.25 833
39.0625 304.688 906
453.125 -46.875 933
437.5 -15.625 896
132.812 15.625 1273
39.0625 437.5 858
492.188 -54.6875 1094
78.125 359.375 843
164.062 101.562 1123
-62.5 109.375 1028
-46.875 265.625 948
23.4375 351.562 946
210.938 437.5 860
242.188 210.938 925
62.5 312.5 862
31.25 -15.625 3269
125 250 839
-46.875 210.938 896
-484.375 -117.188 2184
-31.25 23.4375 3269
-78.125 195.312 923
-140.625 289.062 1004
195.312 281.25 880
476.562 382.812 891
406.25 164.062 954
148.438 281.25 835
-453.125 7.8125 2883
109.375 54.6875 1381
-250 -7.8125 3208
414.062 -31.25 910
-101.562 179.688 940
156.25 453.125 847
179.688 398.438 843
93.75 398.438 835
-179.688 -7.8125 3208
117.188 421.875 875
85.9375 390.625 835
78.125 445.312 854
-31.25 93.75 1050
382.812 171.875 943
156.25 234.375 860
460.938 390.625 908
117.188 218.75 869
414.062 23.4375 896
226.562 351.562 862
-289.062 62.5 1333
-109.375 132.812 987
-484.375 -132.812 2226
234.375 195.312 938
375 296.875 817
125 31.25 1278
304.688 -148.438 1077
460.938 117.188 959
257.812 250 878
171.875 445.312 854
476.562 281.25 831
70.3125 296.875 862
179.688 296.875 867
320.312 421.875 878
46.875 195.312 1016
-312.5 62.5 1328
-39.0625 187.5 1025
23.4375 398.438 871
46.875 445.312 849
351.562 -62.5 1063
164.062 242.188 867
320.312 156.25 970
-195.312 -7.8125 3208
320.312 7.8125 1101
390.625 406.25 894
218.75 320.312 867
281.25 -23.4375 1077
343.75 414.062 885
-101.562 312.5 978
-203.125 -7.8125 3208
445.312 -46.875 933
15.625 250 869
7.8125 250 871
-23.4375 179.688 1034
-109.375 179.688 943
382.812 -23.4375 898
7.8125 -15.625 3269
-437.5 62.5 2908
101.562 312.5 829
15.625 156.25 1060
-296.875 62.5 1328
289.062 312.5 817
93.75 421.875 837
429.688 -23.4375 901
-132.812 289.062 1004
109.375 429.688 867
-23.4375 312.5 987
-460.938 -304.688 2618
-460.938 -218.75 2680
-429.688 140.625 2639
-453.125 -218.75 2680
132.812 164.062 951
289.062 -117.188 1060
171.875 304.688 860
-375 62.5 1317
281.25 -156.25 1077
-31.25 343.75 948
281.25 304.688 825
343.75 -117.188 1067
-62.5 101.562 1031
492.188 -46.875 1080
351.562 54.6875 920
-437.5 -62.5 2835
421.875 -7.8125 891
335.938 304.688 813
-460.938 -187.5 2503
62.5 117.188 1013
312.5 23.4375 1173
39.0625 -15.625 3269
-460.938 -406.25 2503
117.188 359.375 829
-320.312 62.5 1328
46.875 421.875 860
250 375 898
187.5 296.875 864
148.438 -23.4375 1255
125 429.688 869
-484.375 -414.062 2450
-476.562 117.188 2286
-203.125 62.5 1343
-195.312 62.5 1343
414.062 -414.062 2767
273.438 281.25 845
179.688 93.75 1112
93.75 265.625 841
-70.3125 335.938 954
-453.125 -242.188 2701
421.875 -23.4375 901
414.062 -7.8125 889
296.875 304.688 813
218.75 421.875 880
-46.875 195.312 903
109.375 304.688 829
179.688 242.188 867
-70.3125 343.75 946
414.062 -23.4375 901
406.25 -7.8125 887
101.562 156.25 978
-476.562 -257.812 2659
132.812 359.375 825
351.562 46.875 920
31.25 187.5 1028
70.3125 210.938 998
414.062 398.438 894
-164.062 210.938 1101
-492.188 -359.375 2560
-281.25 62.5 1333
289.062 -62.5 1060
-476.562 -265.625 2618
367.188 54.6875 903
62.5 437.5 847
-460.938 -335.938 2598
421.875 -31.25 913
164.062 273.438 843
-54.6875 265.625 946
375 39.0625 894
250 39.0625 1141
-359.375 62.5 1322
195.312 437.5 864
171.875 85.9375 1080
-23.4375 234.375 878
-460.938 -398.438 2522
85.9375 437.5 837
109.375 265.625 841
117.188 257.812 835
-234.375 62.5 1343
85.9375 140.625 992
351.562 296.875 815
-210.938 62.5 1343
445.312 289.062 825
-234.375 -7.8125 3208
93.75 273.438 843
421.875 31.25 901
101.562 414.062 839
-468.75 -406.25 2485
0 171.875 1050
390.625 7.8125 880
46.875 125 1022
-500 -445.312 2467
148.438 351.562 829
257.812 242.188 882
-250 62.5 1343
70.3125 429.688 835
-328.125 62.5 1328
-46.875 273.438 946
468.75 273.438 831
421.875 273.438 831
-132.812 164.062 956
289.062 -46.875 1063
31.25 359.375 858
179.688 218.75 873
-93.75 179.688 933
70.3125 273.438 854
-476.562 -281.25 2659
-156.25 -7.8125 3208
46.875 367.188 847
359.375 -93.75 1073
406.25 445.312 860
31.25 273.438 825
164.062 335.938 835
70.3125 367.188 841
257.812 7.8125 1119
203.125 125 1038
-70.3125 257.812 954
-289.062 -7.8125 3149
468.75 70.3125 935
171.875 382.812 833
-476.562 -304.688 2598
195.312 281.25 885
148.438 289.062 833
-265.625 62.5 1343
226.562 437.5 864
164.062 179.688 918
-500 -93.75 2040
132.812 289.062 829
-335.938 62.5 1328
421.875 -46.875 930
109.375 257.812 835
468.75 -31.25 915
171.875 390.625 833
85.9375 226.562 858
-296.875 320.312 954
-273.438 62.5 1333
218.75 281.25 885
-460.938 -375 2541
265.625 -85.9375 1063
445.312 -15.625 896
-31.25 -93.75 3092
203.125 398.438 839
257.812 -85.9375 1067
-437.5 -54.6875 2883
156.25 343.75 831
148.438 179.688 918
312.5 -171.875 1073
23.4375 414.062 882
-164.062 62.5 1354
437.5 445.312 858
218.75 -15.625 1130
320.312 -62.5 1054
437.5 -15.625 896
-101.562 273.438 956
328.125 312.5 813
398.438 289.062 821
-78.125 289.062 943
320.312 117.188 973
203.125 -46.875 1119
-23.4375 93.75 1050
148.438 242.188 854
7.8125 304.688 925
62.5 -15.625 3269
-226.562 242.188 1057
359.375 -15.625 898
-132.812 62.5 1359
421.875 -7.8125 889
-125 171.875 948
39.0625 367.188 851
-226.562 -7.8125 3208
-476.562 -328.125 2598
85.9375 -265.625 2933
250 -70.3125 1067
-62.5 109.375 1028
-453.125 -156.25 2701
421.875 0 889
-218.75 62.5 1343
218.75 156.25 992
164.062 281.25 839
54.6875 -15.625 3269
445.312 15.625 901
54.6875 273.438 821
406.25 296.875 821
484.375 273.438 831
250 429.688 873
-226.562 62.5 1343
351.562 179.688 935
-375 62.5 1322
-468.75 -164.062 2398
-242.188 62.5 1343
117.188 343.75 829
-156.25 62.5 1354
273.438 70.3125 1094
-484.375 70.3125 2256
-15.625 179.688 1038
429.688 -23.4375 903
54.6875 203.125 1010
70.3125 375 837
226.562 31.25 1165
484.375 15.625 915
-101.562 171.875 940
304.688 304.688 811
351.562 15.625 913
101.562 343.75 833
109.375 156.25 973
-445.312 -85.9375 2835
390.625 -23.4375 901
289.062 -101.562 1057
250 -101.562 1067
234.375 -382.812 2812
484.375 281.25 831
375 179.688 935
492.188 -343.75 2908
132.812 335.938 833
148.438 320.312 847
-62.5 351.562 940
-484.375 -351.562 2560
164.062 304.688 864
-140.625 62.5 1359
78.125 382.812 835
62.5 273.438 821
445.312 -54.6875 940
-257.812 62.5 1343
132.812 406.25 829
-148.438 62.5 1354
-31.25 101.562 1050
101.562 265.625 833
250 421.875 878
187.5 -46.875 1130
289.062 62.5 1108
148.438 328.125 837
179.688 -46.875 1307
187.5 390.625 841
-375 93.75 1264
148.438 273.438 839
476.562 273.438 831
-85.9375 179.688 928
46.875 187.5 1031
-210.938 -7.8125 3208
171.875 -46.875 1307
296.875 -171.875 1073
-390.625 179.688 1119
453.125 93.75 943
156.25 460.938 843
445.312 62.5 923
-460.938 -367.188 2541
-460.938 -445.312 2467
-109.375 125 992
93.75 414.062 837
406.25 171.875 951
468.75 46.875 925
429.688 15.625 894
101.562 54.6875 1392
-101.562 203.125 967
70.3125 140.625 1004
273.438 382.812 847
-7.8125 296.875 935
382.812 296.875 821
-93.75 125 1004
125 273.438 839
-429.688 -15.625 2933
265.625 62.5 1105
-445.312 414.062 841
-54.6875 218.75 896
23.4375 296.875 896
148.438 453.125 849
421.875 -23.4375 906
23.4375 257.812 831
351.562 312.5 817
0 304.688 930
85.9375 218.75 858
132.812 7.8125 1273
-78.125 242.188 989
382.812 171.875 948
70.3125 -15.625 3269
54.6875 312.5 869
-171.875 -7.8125 3208
421.875 179.688 935
234.375 -85.9375 1077
140.625 195.312 898
46.875 195.312 1022
23.4375 -15.625 3238
-437.5 -46.875 2883
312.5 -148.438 1073
-484.375 -312.5 2598
265.625 265.625 860
-156.25 23.4375 3238
437.5 281.25 825
31.25 429.688 869
-93.75 187.5 933
210.938 -7.8125 1141
406.25 -7.8125 885
421.875 304.688 829
281.25 429.688 871
289.062 31.25 1165
-39.0625 328.125 975
-85.9375 195.312 928
359.375 179.688 935
148.438 -46.875 1307
-148.438 -7.8125 3208
382.812 39.0625 891
289.062 429.688 871
367.188 304.688 817
-101.562 312.5 981
-125 62.5 1354
453.125 -54.6875 1073
476.562 -23.4375 906
-54.6875 335.938 959
320.312 312.5 813
328.125 187.5 930
39.0625 273.438 823
234.375 406.25 894
70.3125 320.312 854
-445.312 -140.625 2744
-351.562 31.25 3120
156.25 -46.875 1307
-445.312 195.312 2398
429.688 398.438 891
15.625 171.875 1047
148.438 296.875 831
187.5 398.438 841
250 31.25 1165
164.062 414.062 839
132.812 304.688 829
46.875 382.812 843
46.875 421.875 858
195.312 414.062 887
23.4375 179.688 1041
289.062 -140.625 1067
-109.375 62.5 1354
406.25 289.062 821
-445.312 -78.125 2835
-195.312 62.5 1349
414.062 23.4375 894
140.625 421.875 837
-203.125 62.5 1349
101.562 421.875 843
-132.812 -7.8125 3238
-117.188 179.688 946
226.562 390.625 913
125 125 1264
304.688 62.5 1112
85.9375 148.438 992
-85.9375 335.938 956
-78.125 -7.8125 3238
453.125 289.062 829
62.5 453.125 847
-54.6875 265.625 946
140.625 -46.875 1307
335.938 -109.375 1060
156.25 406.25 831
453.125 31.25 910
-492.188 -234.375 1915
390.625 54.6875 898
-164.062 62.5 1354
-460.938 -390.625 2541
-117.188 62.5 1354
476.562 296.875 837
-140.625 218.75 1101
109.375 406.25 835
46.875 273.438 821
23.4375 101.562 1044
-78.125 62.5 1365
31.25 179.688 1041
-85.9375 234.375 992
437.5 15.625 898
-140.625 -7.8125 3208
257.812 250 880
468.75 85.9375 940
210.938 15.625 1185
265.625 273.438 860
54.6875 273.438 821
445.312 156.25 964
39.0625 320.312 898
328.125 -62.5 1054
171.875 242.188 871
484.375 382.812 891
-31.25 234.375 906
429.688 -7.8125 889
-460.938 -273.438 2659
-171.875 62.5 1354
-187.5 62.5 1349
-78.125 117.188 1016
304.688 -156.25 1077
23.4375 437.5 862
-46.875 101.562 1038
101.562 390.625 833
-101.562 62.5 1354
-78.125 343.75 948
-31.25 93.75 1050
-437.5 -70.3125 2835
-132.812 62.5 1359
265.625 -156.25 1080
445.312 281.25 825
273.438 289.062 837
187.5 320.312 849
23.4375 382.812 864
148.438 171.875 935
-476.562 -335.938 2579
93.75 281.25 837
414.062 296.875 821
265.625 54.6875 1119
398.438 39.0625 896
148.438 382.812 827
46.875 -15.625 3269
93.75 148.438 981
54.6875 453.125 847
429.688 70.3125 920
46.875 125 1022
31.25 421.875 875
-484.375 -335.938 2598
437.5 140.625 962
-312.5 31.25 3120
164.062 453.125 851
164.062 273.438 843
445.312 445.312 858
367.188 296.875 815
148.438 257.812 849
101.562 226.562 862
85.9375 265.625 829
78.125 218.75 854
375 304.688 817
375 296.875 817
-93.75 328.125 964
156.25 398.438 829
187.5 296.875 869
-39.0625 273.438 948
-54.6875 101.562 1034
117.188 406.25 833
-23.4375 93.75 1050
281.25 -93.75 1057
437.5 398.438 894
-179.688 -7.8125 3208
-148.438 62.5 1354
320.312 304.688 813
453.125 46.875 920
164.062 -15.625 1250
460.938 406.25 894
367.188 -15.625 894
148.438 164.062 940
234.375 195.312 938
-7.8125 234.375 860
-140.625 62.5 1359
-164.062 -7.8125 3208
398.438 406.25 894
484.375 -15.625 903
375 0 878
140.625 335.938 833
390.625 312.5 827
-117.188 242.188 995
-78.125 281.25 943
-101.562 304.688 989
125 257.812 839
-460.938 -351.562 2560
328.125 312.5 813
78.125 273.438 843
109.375 437.5 864
242.188 429.688 873
445.312 31.25 908
312.5 304.688 811
-62.5 343.75 948
62.5 210.938 1001
179.688 101.562 1112
93.75 289.062 835
-93.75 62.5 1359
-101.562 273.438 956
-210.938 62.5 1343
390.625 39.0625 894
429.688 15.625 894
62.5 406.25 835
-179.688 62.5 1349
164.062 187.5 910
23.4375 312.5 908
398.438 -7.8125 882
78.125 375 837
101.562 406.25 835
273.438 429.688 871
171.875 179.688 913
218.75 390.625 845
281.25 -109.375 1060
335.938 312.5 813
335.938 -78.125 1060
203.125 289.062 875
-460.938 -414.062 2485
23.4375 187.5 1031
218.75 164.062 989
62.5 -15.625 3269
-70.3125 343.75 948
46.875 117.188 1022
-453.125 -203.125 2579
335.938 31.25 938
390.625 -23.4375 901
390.625 171.875 948
296.875 -148.438 1073
281.25 304.688 825
421.875 164.062 954
7.8125 93.75 1057
23.4375 171.875 1047
101.562 265.625 833
0 93.75 1057
234.375 171.875 956
210.938 140.625 1007
468.75 -46.875 925
-460.938 -320.312 2598
281.25 -148.438 1073
85.9375 398.438 833
54.6875 132.812 1016
78.125 -15.625 3269
54.6875 406.25 839
390.625 414.062 887
460.938 -46.875 920
453.125 -31.25 915
7.8125 101.562 1057
460.938 -31.25 913
203.125 148.438 1031
23.4375 109.375 1044
-382.812 7.8125 3092
-132.812 148.438 967
-62.5 62.5 1359
-23.4375 101.562 1054
242.188 210.938 920
382.812 -23.4375 903
-156.25 -7.8125 3208
335.938 0 928
-70.3125 257.812 954
-484.375 85.9375 2256
320.312 -171.875 1077
-500 -7.8125 2129
-125 -7.8125 3238
-7.8125 328.125 973
-15.625 93.75 1054
265.625 -46.875 1067
-351.562 187.5 1115
-15.625 359.375 938
-7.8125 93.75 1057
-210.938 242.188 1057
421.875 -78.125 1060
359.375 367.188 849
-78.125 312.5 959
39.0625 367.188 851
195.312 398.438 839
328.125 -93.75 1057
-476.562 -320.312 2598
-85.9375 312.5 967
-453.125 -234.375 2701
296.875 -179.688 1073
-101.562 -15.625 3208
-132.812 132.812 975
117.188 156.25 964
-445.312 -132.812 2744
-70.3125 62.5 1359
140.625 132.812 1236
-492.188 -343.75 2560
-23.4375 187.5 1025
250 234.375 896
421.875 296.875 823
468.75 -179.688 3120
156.25 429.688 869
343.75 -93.75 1060
156.25 289.062 835
23.4375 421.875 878
93.75 156.25 981
31.25 312.5 906
-85.9375 62.5 1365
390.625 296.875 821
-54.6875 109.375 1034
109.375 351.562 829
359.375 414.062 887
-484.375 93.75 2271
-468.75 -171.875 2398
460.938 375 880
62.5 375 837
-85.9375 265.625 951
62.5 281.25 896
476.562 -46.875 928
-156.25 62.5 1354
492.188 -171.875 3149
93.75 414.062 837
445.312 437.5 864
234.375 367.188 864
15.625 257.812 869
429.688 0 889
-437.5 -23.4375 2908
46.875 367.188 847
39.0625 195.312 1019
445.312 39.0625 910
-54.6875 62.5 1365
445.312 0 894
-46.875 62.5 1359
-460.938 -359.375 2541
203.125 -15.625 1141
179.688 382.812 837
-46.875 187.5 906
140.625 273.438 839
132.812 54.6875 1236
281.25 39.0625 1153
257.812 -187.5 1097
-109.375 62.5 1354
132.812 31.25 1236
-93.75 226.562 992
39.0625 273.438 823
85.9375 -15.625 3269
-453.125 -195.312 2579
85.9375 273.438 843
492.188 273.438 831
-78.125 62.5 1365
382.812 62.5 903
437.5 31.25 906
-125 62.5 1354
109.375 460.938 843
125 351.562 827
-304.688 31.25 3120
-320.312 31.25 3120
187.5 -93.75 1134
-15.625 101.562 1054
437.5 -7.8125 891
195.312 31.25 1161
-132.812 218.75 1101
78.125 328.125 849
179.688 328.125 843
414.062 39.0625 901
7.8125 54.6875 1387
140.625 289.062 831
390.625 -179.688 3092
109.375 226.562 864
335.938 179.688 943
125 429.688 871
382.812 304.688 821
-273.438 -7.8125 3149
0 367.188 928
257.812 46.875 1138
-117.188 -7.8125 3238
156.25 296.875 833
164.062 -46.875 1307
101.562 289.062 833
-93.75 117.188 1007
70.3125 203.125 1013
414.062 289.062 821
-78.125 203.125 933
-117.188 62.5 1354
453.125 281.25 829
242.188 54.6875 1119
-23.4375 62.5 1370
289.062 -117.188 1060
265.625 -101.562 1063
-437.5 -78.125 2835
93.75 437.5 864
62.5 304.688 864
195.312 312.5 854
468.75 437.5 862
304.688 54.6875 1123
-101.562 62.5 1354
242.188 421.875 878
70.3125 390.625 833
-23.4375 367.188 928
398.438 179.688 938
93.75 -15.625 3269
187.5 101.562 1084
367.188 179.688 935
46.875 445.312 854
39.0625 437.5 860
156.25 257.812 851
398.438 7.8125 882
140.625 382.812 827
-31.25 62.5 1359
195.312 164.062 1057
-445.312 -148.438 2744
-93.75 62.5 1359
-125 171.875 948
140.625 179.688 943
359.375 179.688 935
359.375 -15.625 898
70.3125 -15.625 3269
429.688 164.062 954
171.875 23.4375 1173
-62.5 62.5 1359
445.312 15.625 901
-54.6875 343.75 954
492.188 281.25 831
179.688 101.562 1112
218.75 23.4375 1173
-46.875 343.75 951
390.625 -23.4375 901
242.188 31.25 1165
0 101.562 1057
218.75 62.5 1112
109.375 265.625 841
-39.0625 367.188 928
335.938 304.688 813
70.3125 453.125 845
476.562 -23.4375 906
-62.5 351.562 940
-328.125 31.25 3120
226.562 179.688 962
273.438 289.062 837
-31.25 187.5 1028
156.25 382.812 829
273.438 296.875 839
-31.25 304.688 948
39.0625 187.5 1031
335.938 -15.625 918
78.125 242.188 843
62.5 289.062 871
468.75 390.625 894
257.812 -140.625 1080
-500 -335.938 2598
-390.625 0 3064
492.188 39.0625 920
351.562 -109.375 1067
460.938 -23.4375 906
414.062 54.6875 908
460.938 101.562 951
398.438 -23.4375 903
312.5 421.875 878
429.688 15.625 894
31.25 437.5 860
-500 -62.5 2040
257.812 39.0625 1145
421.875 406.25 894
312.5 171.875 951
296.875 429.688 871
117.188 437.5 864
210.938 406.25 896
-421.875 125 2723
-70.3125 328.125 951
-39.0625 62.5 1359
304.688 320.312 813
-39.0625 187.5 1025
-93.75 328.125 964
226.562 23.4375 1173
109.375 54.6875 1392
-359.375 62.5 1322
85.9375 406.25 831
429.688 54.6875 913
-445.312 187.5 2398
187.5 -39.0625 1138
15.625 367.188 930
-70.3125 62.5 1359
312.5 195.312 923
-289.062 62.5 1338
-296.875 31.25 3208
93.75 54.6875 1387
15.625 312.5 918
0 93.75 1057
437.5 148.438 967
343.75 312.5 813
-460.938 -343.75 2579
375 296.875 817
93.75 234.375 856
210.938 148.438 1007
-117.188 132.812 981
-15.625 351.562 946
203.125 -382.812 2812
382.812 296.875 821
195.312 109.375 1050
-335.938 31.25 3149
-367.188 0 3092
250 421.875 878
132.812 437.5 862
-93.75 320.312 970
257.812 -78.125 1063
328.125 421.875 878
-101.562 -7.8125 3208
-445.312 39.0625 3010
-132.812 -7.8125 3238
-164.062 31.25 3238
-460.938 -78.125 2859
460.938 289.062 829
62.5 453.125 847
164.062 250 862
-421.875 0 2958
-476.562 -351.562 2541
242.188 -70.3125 1073
250 -156.25 1094
-195.312 31.25 3092
54.6875 203.125 1010
375 15.625 880
406.25 54.6875 908
78.125 148.438 998
203.125 -70.3125 1108
85.9375 93.75 1317
-85.9375 242.188 995
351.562 -15.625 908
359.375 -39.0625 915
453.125 289.062 829
-85.9375 335.938 956
-85.9375 187.5 928
-7.8125 101.562 1057
367.188 -15.625 894
-437.5 156.25 2560
7.8125 -31.25 3238
-101.562 296.875 995
23.4375 421.875 878
-78.125 109.375 1016
-31.25 281.25 951
164.062 382.812 829
-414.062 421.875 839
148.438 265.625 845
117.188 164.062 964
-492.188 -109.375 2016
-54.6875 304.688 935
414.062 -85.9375 1063
335.938 -117.188 1063
218.75 -117.188 1094
-117.188 171.875 948
85.9375 390.625 835
-15.625 62.5 1370
203.125 390.625 839
437.5 15.625 898
195.312 117.188 1054
101.562 273.438 841
85.9375 273.438 843
218.75 0 1138
125 54.6875 1292
85.9375 429.688 831
257.812 250 880
-492.188 -335.938 2598
460.938 390.625 891
-85.9375 328.125 967
31.25 109.375 1038
398.438 -7.8125 882
23.4375 23.4375 3300
-7.8125 93.75 1057
187.5 289.062 878
-54.6875 62.5 1365
7.8125 101.562 1057
406.25 7.8125 887
203.125 132.812 1038
-171.875 -7.8125 3208
460.938 15.625 903
-46.875 328.125 951
132.812 414.062 837
39.0625 179.688 1041
218.75 320.312 864
187.5 101.562 1084
320.312 15.625 1101
492.188 382.812 894
117.188 101.562 1307
23.4375 101.562 1044
281.25 -171.875 1077
39.0625 375 851
132.812 281.25 833
-460.938 -187.5 2560
-460.938 -429.688 2485
-46.875 273.438 946
78.125 15.625 3300
257.812 257.812 873
179.688 234.375 880
-218.75 375 906
414.062 39.0625 901
351.562 7.8125 913
367.188 296.875 815
484.375 375 885
78.125 445.312 856
-148.438 -7.8125 3208
-359.375 187.5 1115
-132.812 234.375 1080
421.875 296.875 823
0 -109.375 3149
398.438 -23.4375 903
320.312 125 978
421.875 125 948
250 414.062 880
-93.75 125 1004
359.375 -15.625 898
-460.938 -421.875 2503
-484.375 -320.312 2618
117.188 257.812 835
250 -179.688 1105
125 257.812 839
39.0625 312.5 901
257.812 -179.688 1101
-15.625 -15.625 3238
-460.938 -203.125 2579
-78.125 117.188 1016
31.25 117.188 1038
70.3125 -62.5 3178
187.5 453.125 849
-46.875 226.562 923
0 343.75 956
484.375 -15.625 903
414.062 7.8125 889
54.6875 -15.625 3269
242.188 218.75 923
-23.4375 289.062 951
7.8125 93.75 1057
164.062 343.75 831
-46.875 218.75 896
23.4375 312.5 908
390.625 132.812 940
-437.5 -62.5 2835
234.375 -140.625 1094
132.812 351.562 827
265.625 273.438 860
-54.6875 203.125 898
132.812 -31.25 1278
398.438 -31.25 915
117.188 85.9375 1312
-54.6875 101.562 1034
453.125 -31.25 915
-93.75 -203.125 2958
93.75 218.75 867
171.875 242.188 871
-46.875 101.562 1038
421.875 289.062 823
-46.875 62.5 1359
-54.6875 109.375 1034
-23.4375 62.5 1370
-492.188 -320.312 2065
-468.75 -398.438 2503
-492.188 -351.562 2560
234.375 296.875 935
320.312 296.875 813
-140.625 -7.8125 3208
70.3125 273.438 854
-328.125 429.688 843
-500 -343.75 2598
-476.562 -343.75 2541
-171.875 -398.438 2659
250 15.625 1119
-500 -320.312 2065
390.625 148.438 948
-7.8125 62.5 1370
70.3125 218.75 992
179.688 -257.812 2984
195.312 273.438 851
-62.5 -257.812 2883
250 234.375 896
-484.375 -85.9375 2053
-39.0625 257.812 920
31.25 187.5 1031
445.312 -85.9375 1063
250 -85.9375 1067
210.938 156.25 1013
226.562 257.812 962
54.6875 421.875 845
-492.188 -304.688 2116
-109.375 -7.8125 3238
93.75 414.062 837
320.312 304.688 813
-109.375 179.688 946
437.5 164.062 959
257.812 -117.188 1067
460.938 281.25 829
406.25 109.375 933
109.375 265.625 841
140.625 164.062 946
85.9375 375 837
-46.875 109.375 1038
335.938 187.5 930
78.125 390.625 833
-46.875 281.25 943
-70.3125 351.562 940
-70.3125 109.375 1022
-70.3125 117.188 1022
62.5 -85.9375 3149
85.9375 335.938 845
-453.125 -242.188 2701
125 164.062 959
179.688 398.438 839
398.438 171.875 951
125 93.75 1302
-453.125 -250 2701
234.375 429.688 871
62.5 -375 2789
125 398.438 827
109.375 406.25 835
476.562 335.938 860
78.125 218.75 854
125 414.062 837
-31.25 62.5 1359
78.125 148.438 998
289.062 429.688 871
7.8125 343.75 959
23.4375 62.5 1370
140.625 250 847
257.812 -171.875 1097
156.25 343.75 831
85.9375 226.562 858
-468.75 164.062 2333
445.312 -15.625 896
-414.062 0 3064
367.188 -15.625 894
70.3125 -179.688 3064
101.562 429.688 869
125 289.062 829
156.25 179.688 915
7.8125 62.5 1370
312.5 62.5 1108
-15.625 296.875 946
398.438 62.5 906
218.75 164.062 989
242.188 -109.375 1077
179.688 101.562 1112
132.812 265.625 845
-31.25 296.875 948
85.9375 445.312 856
109.375 351.562 829
54.6875 453.125 847
15.625 62.5 1370
-460.938 -375 2541
203.125 125 1038
195.312 406.25 839
-109.375 296.875 1001
421.875 -7.8125 889
-484.375 31.25 2198
468.75 54.6875 930
-429.688 31.25 3010
234.375 -101.562 1077
156.25 281.25 837
-78.125 343.75 948
484.375 -7.8125 903
414.062 -7.8125 889
156.25 257.812 851
281.25 312.5 821
-187.5 31.25 3238
-39.0625 335.938 962
351.562 31.25 915
468.75 -46.875 925
140.625 460.938 843
312.5 320.312 813
460.938 -31.25 913
0 23.4375 3300
242.188 320.312 915
382.812 304.688 821
101.562 78.125 1338
367.188 179.688 935
23.4375 421.875 878
-437.5 -31.25 2883
164.062 265.625 847
132.812 164.062 951
0 179.688 1038
218.75 328.125 867
-93.75 -7.8125 3208
-93.75 226.562 992
140.625 257.812 849
46.875 414.062 860
351.562 421.875 880
335.938 421.875 878
343.75 187.5 933
54.6875 125 1016
117.188 414.062 839
-62.5 62.5 1359
250 437.5 864
-492.188 -93.75 2078
429.688 78.125 928
296.875 -15.625 1077
-93.75 179.688 933
484.375 437.5 858
273.438 437.5 862
-23.4375 351.562 946
-453.125 -15.625 2933
445.312 148.438 970
-101.562 179.688 940
390.625 62.5 903
179.688 390.625 837
242.188 15.625 1119
93.75 343.75 839
312.5 -46.875 1060
375 414.062 889
234.375 78.125 1084
242.188 390.625 903
-46.875 195.312 906
171.875 406.25 839
39.0625 445.312 854
-70.3125 210.938 935
250 -164.062 1097
78.125 304.688 860
0 375 923
70.3125 304.688 860
351.562 453.125 851
429.688 164.062 954
320.312 312.5 813
273.438 -171.875 1080
281.25 -140.625 1067
156.25 320.312 845
23.4375 429.688 871
179.688 304.688 862
-359.375 0 3092
218.75 -39.0625 1105
460.938 0 898
-54.6875 195.312 906
15.625 359.375 938
70.3125 367.188 841
382.812 296.875 821
390.625 296.875 821
125 265.625 847
296.875 320.312 813
-351.562 0 3092
406.25 -15.625 894
164.062 437.5 862
109.375 156.25 973
359.375 -23.4375 906
-93.75 328.125 964
171.875 390.625 833
62.5 210.938 1001
39.0625 328.125 894
-156.25 31.25 3238
62.5 140.625 1013
390.625 304.688 821
226.562 -101.562 1084
203.125 -15.625 1141
0 62.5 1370
101.562 320.312 839
125 343.75 829
351.562 -93.75 1063
226.562 179.688 962
468.75 281.25 829
414.062 406.25 896
132.812 46.875 1236
171.875 335.938 837
117.188 429.688 871
101.562 281.25 835
148.438 164.062 940
93.75 -15.625 3269
328.125 171.875 951
375 -15.625 889
-460.938 -367.188 2541
296.875 -70.3125 1054
156.25 273.438 841
421.875 23.4375 896
289.062 -187.5 1073
-421.875 132.812 2701
70.3125 132.812 1004
328.125 304.688 813
320.312 164.062 959
-468.75 -156.25 2333
328.125 7.8125 928
203.125 382.812 843
226.562 390.625 913
296.875 -140.625 1070
93.75 437.5 864
70.3125 296.875 867
-476.562 -148.438 2286
-31.25 335.938 962
242.188 218.75 923
-453.125 -164.062 2723
78.125 289.062 873
429.688 -7.8125 889
39.0625 312.5 901
156.25 31.25 1189
85.9375 304.688 860
171.875 242.188 871
171.875 85.9375 1080
-406.25 39.0625 3037
117.188 85.9375 1312
125 125 1264
460.938 54.6875 923
54.6875 304.688 869
-390.625 0 3064
406.25 -23.4375 906
351.562 312.5 817
273.438 39.0625 1145
476.562 39.0625 920
39.0625 421.875 862
7.8125 421.875 878
39.0625 62.5 1370
148.438 156.25 943
-125 31.25 3238
234.375 203.125 935
-398.438 0 3064
31.25 62.5 1370
70.3125 453.125 845
117.188 109.375 1288
-46.875 335.938 959
-93.75 250 998
367.188 304.688 817
445.312 -7.8125 894
78.125 -15.625 3269
-132.812 148.438 967
179.688 242.188 869
296.875 70.3125 1094
234.375 421.875 880
-39.0625 195.312 896
-62.5 109.375 1028
296.875 335.938 819
-460.938 -406.25 2503
296.875 -54.6875 1060
70.3125 210.938 1001
281.25 -148.438 1073
421.875 156.25 967
125 156.25 959
195.312 -23.4375 1149
31.25 437.5 860
78.125 210.938 1001
46.875 406.25 860
335.938 -39.0625 1067
453.125 39.0625 915
148.438 7.8125 1219
265.625 273.438 860
125 289.062 829
289.062 -93.75 1054
-125 234.375 1080
-85.9375 304.688 967
257.812 -148.438 1084
492.188 101.562 1041
429.688 296.875 827
-15.625 93.75 1054
273.438 -179.688 1080
289.062 312.5 815
437.5 406.25 894
445.312 46.875 918
429.688 289.062 827
-39.0625 101.562 1041
250 46.875 1134
-492.188 -46.875 2053
-460.938 93.75 2271
101.562 265.625 833
-445.312 -156.25 2744
421.875 54.6875 910
-132.812 -15.625 3208
-7.8125 62.5 1370
-125 140.625 970
31.25 296.875 896
-500 -85.9375 2005
-46.875 101.562 1038
93.75 273.438 843
351.562 -7.8125 908
-476.562 -156.25 2333
273.438 289.062 837
-453.125 -226.562 2701
460.938 429.688 873
101.562 156.25 978
367.188 -15.625 894
203.125 -62.5 1108
-62.5 257.812 954
117.188 273.438 839
437.5 125 954
101.562 304.688 831
195.312 390.625 839
46.875 453.125 845
398.438 -23.4375 903
281.25 312.5 821
70.3125 -343.75 2835
-85.9375 62.5 1365
125 304.688 829
226.562 -54.6875 1090
-437.5 -70.3125 2835
-101.562 125 998
476.562 390.625 901
164.062 398.438 829
-85.9375 -7.8125 3238
101.562 164.062 978
-429.688 -15.625 2933
-218.75 -7.8125 3208
132.812 117.188 1268
343.75 390.625 860
437.5 -15.625 896
468.75 289.062 829
-476.562 -335.938 2579
234.375 289.062 943
-117.188 -7.8125 3238
234.375 39.0625 1145
46.875 414.062 860
7.8125 312.5 925
-476.562 -132.812 2241
85.9375 398.438 833
-445.312 -93.75 2835
-382.812 0 3064
140.625 171.875 946
335.938 304.688 813
382.812 -15.625 889
62.5 460.938 841
468.75 312.5 841
62.5 375 837
-62.5 265.625 946
250 -101.562 1067
453.125 23.4375 908
296.875 312.5 811
-46.875 359.375 935
-46.875 109.375 1038
210.938 148.438 1007
164.062 187.5 910
23.4375 62.5 1370
429.688 85.9375 930
226.562 187.5 967
-70.3125 117.188 1022
-476.562 -367.188 2541
85.9375 273.438 843
218.75 335.938 864
-343.75 0 3092
179.688 187.5 901
-85.9375 -78.125 3120
-109.375 125 992
273.438 -187.5 1087
7.8125 62.5 1370
-117.188 132.812 981
335.938 23.4375 930
-62.5 218.75 933
406.25 406.25 891
-78.125 -7.8125 3238
93.75 421.875 835
195.312 117.188 1054
-101.562 -7.8125 3208
-85.9375 125 1010
85.9375 406.25 831
-78.125 343.75 948
31.25 -343.75 2835
-54.6875 226.562 923
-85.9375 335.938 956
132.812 414.062 837
375 179.688 935
375 -15.625 889
62.5 320.312 862
398.438 304.688 823
101.562 406.25 835
406.25 171.875 951
312.5 -148.438 1073
-289.062 429.688 845
-70.3125 -7.8125 3238
429.688 39.0625 908
-460.938 -453.125 2467
101.562 234.375 856
-312.5 429.688 843
351.562 187.5 928
15.625 62.5 1370
195.312 -31.25 1134
343.75 39.0625 925
23.4375 187.5 1031
31.25 273.438 825
-23.4375 62.5 1370
492.188 7.8125 910
46.875 62.5 1370
-101.562 210.938 964
-492.188 -85.9375 2005
328.125 312.5 813
-78.125 265.625 946
242.188 -125 1080
39.0625 195.312 1019
-70.3125 203.125 915
289.062 -7.8125 1087
-109.375 -15.625 3238
93.75 234.375 856
164.062 414.062 839
414.062 -23.4375 906
226.562 -148.438 1105
70.3125 375 837
171.875 109.375 1141
15.625 109.375 1050
-460.938 -210.938 2680
234.375 320.312 871
-7.8125 179.688 1038
406.25 -23.4375 906
54.6875 367.188 847
437.5 164.062 962
281.25 23.4375 1112
210.938 164.062 1007
-460.938 -359.375 2560
-484.375 46.875 2212
437.5 -78.125 1057
257.812 257.812 875
218.75 164.062 987
132.812 273.438 843
421.875 164.062 962
62.5 109.375 1022
156.25 414.062 835
406.25 -15.625 901
-39.0625 375 928
281.25 -109.375 1063
343.75 304.688 813
-101.562 187.5 938
39.0625 125 1028
156.25 187.5 918
273.438 -140.625 1077
-414.062 70.3125 2908
343.75 187.5 935
382.812 414.062 891
281.25 70.3125 1105
234.375 414.062 891
476.562 46.875 925
-109.375 195.312 946
289.062 39.0625 1161
437.5 296.875 823
109.375 429.688 875
62.5 140.625 1013
23.4375 179.688 1047
-93.75 273.438 951
-46.875 351.562 948
15.625 421.875 882
-484.375 23.4375 2184
54.6875 23.4375 3300
437.5 289.062 823
31.25 320.312 906
234.375 31.25 1169
-148.438 218.75 1108
-78.125 62.5 1370
359.375 31.25 898
453.125 148.438 970
-414.062 62.5 2958
-23.4375 187.5 1034
343.75 421.875 880
453.125 78.125 928
203.125 421.875 882
39.0625 117.188 1028
476.562 281.25 829
390.625 179.688 943
132.812 296.875 829
414.062 171.875 956
-93.75 125 1004
-23.4375 320.312 987
421.875 23.4375 894
54.6875 375 843
382.812 179.688 943
195.312 171.875 1054
-54.6875 109.375 1034
15.625 101.562 1054
125 414.062 831
-429.688 23.4375 2984
414.062 0 887
484.375 23.4375 910
382.812 -15.625 896
-445.312 -164.062 2701
281.25 39.0625 1153
-476.562 -328.125 2598
476.562 54.6875 925
164.062 62.5 1119
54.6875 62.5 1376
85.9375 156.25 992
195.312 296.875 875
234.375 23.4375 1185
-101.562 320.312 978
46.875 429.688 856
-85.9375 304.688 964
-132.812 171.875 956
195.312 289.062 882
468.75 132.812 962
-445.312 -140.625 2744
140.625 203.125 898
195.312 39.0625 1149
234.375 203.125 935
46.875 132.812 1022
125 218.75 878
-406.25 0 3064
148.438 257.812 856
93.75 343.75 837
101.562 437.5 867
437.5 -15.625 901
39.0625 62.5 1376
39.0625 445.312 858
273.438 54.6875 1130
437.5 54.6875 913
296.875 -148.438 1073
359.375 421.875 882
375 70.3125 901
468.75 -23.4375 908
101.562 351.562 831
414.062 -15.625 901
210.938 304.688 871
390.625 78.125 908
93.75 382.812 835
93.75 406.25 835
171.875 234.375 867
406.25 304.688 821
453.125 398.438 891
31.25 312.5 908
-101.562 132.812 998
62.5 195.312 1025
109.375 312.5 827
-7.8125 23.4375 3300
-140.625 31.25 3238
281.25 -70.3125 1057
-39.0625 -7.8125 3238
-109.375 187.5 946
-109.375 171.875 946
-437.5 187.5 2467
-7.8125 304.688 935
242.188 218.75 918
-70.3125 351.562 946
-62.5 343.75 954
109.375 281.25 835
-62.5 359.375 935
-148.438 31.25 3238
484.375 39.0625 920
-125 46.875 1370
-70.3125 343.75 954
226.562 39.0625 1157
-429.688 -101.562 2908
203.125 31.25 1169
140.625 414.062 829
453.125 445.312 860
265.625 437.5 869
-156.25 242.188 1073
62.5 132.812 1010
-15.625 242.188 862
406.25 0 885
-445.312 -148.438 2767
-46.875 -7.8125 3238
414.062 31.25 896
-109.375 -7.8125 3208
242.188 437.5 869
359.375 312.5 815
-46.875 273.438 948
218.75 328.125 869
-445.312 -179.688 2701
-453.125 -257.812 2639
78.125 226.562 854
-62.5 -7.8125 3238
179.688 250 869
-93.75 -7.8125 3208
-484.375 -109.375 2170
-93.75 31.25 3238
273.438 296.875 837
15.625 312.5 918
132.812 210.938 889
7.8125 257.812 871
70.3125 218.75 998
-320.312 0 3120
398.438 296.875 821
429.688 -15.625 901
140.625 164.062 943
320.312 320.312 811
164.062 93.75 1165
-437.5 54.6875 3010
468.75 23.4375 908
132.812 257.812 843
31.25 62.5 1376
210.938 -54.6875 1101
375 421.875 885
-101.562 312.5 987
140.625 265.625 849
-62.5 289.062 935
429.688 406.25 894
289.062 23.4375 1108
421.875 -23.4375 910
125 437.5 867
-54.6875 273.438 946
460.938 398.438 894
421.875 39.0625 901
70.3125 343.75 854
-85.9375 265.625 951
492.188 390.625 891
187.5 406.25 845
140.625 335.938 835
-85.9375 367.188 925
445.312 -7.8125 894
125 367.188 825
484.375 390.625 891
46.875 281.25 819
414.062 23.4375 891
85.9375 320.312 849
15.625 375 928
15.625 375 928
-351.562 0 3092
257.812 257.812 875
210.938 398.438 837
242.188 429.688 878
-429.688 -7.8125 2908
-101.562 234.375 989
-85.9375 117.188 1013
132.812 23.4375 1278
-125 179.688 946
46.875 453.125 851
476.562 437.5 862
109.375 359.375 829
242.188 421.875 882
226.562 398.438 906
132.812 148.438 956
250 296.875 898
257.812 265.625 875
-62.5 109.375 1031
460.938 78.125 933
414.062 148.438 954
257.812 15.625 1138
-335.938 0 3120
