ply
format ascii 1.0
comment Created by Open3D
element vertex 2320
property double x
property double y
property double z
end_header
-148.438 281.25 1680
187.5 320.312 1536
242.188 335.938 1458
218.75 -390.625 1365
-179.688 54.6875 1255
-375 210.938 1833
-296.875 375 1543
195.312 437.5 1523
23.4375 -210.938 1516
140.625 289.062 1543
382.812 -164.062 3539
54.6875 320.312 1680
-109.375 -31.25 1227
85.9375 226.562 1639
195.312 265.625 1594
-335.938 -46.875 1202
-109.375 46.875 1232
78.125 320.312 1671
164.062 320.312 1529
-187.5 117.188 2005
132.812 320.312 1543
203.125 54.6875 1219
-164.062 -156.25 1134
93.75 320.312 1680
54.6875 242.188 1516
351.562 234.375 2170
-187.5 101.562 1981
-109.375 382.812 1536
54.6875 257.812 1536
-101.562 148.438 1297
15.625 187.5 1307
-109.375 85.9375 1255
156.25 289.062 1536
78.125 289.062 1731
171.875 289.062 1550
46.875 187.5 1307
54.6875 187.5 1312
-250 -148.438 1141
179.688 265.625 1594
54.6875 281.25 1564
101.562 320.312 1688
93.75 125 1236
117.188 -328.125 1404
-7.8125 320.312 1671
101.562 125 1236
-101.562 125 1283
-343.75 -46.875 1206
-335.938 -46.875 1202
39.0625 445.312 1731
101.562 289.062 1739
78.125 281.25 1766
62.5 187.5 1312
62.5 289.062 1564
-140.625 164.062 1993
23.4375 187.5 1307
-93.75 -101.562 1370
7.8125 187.5 1307
85.9375 289.062 1731
-242.188 257.812 1601
132.812 328.125 1663
148.438 257.812 1594
7.8125 320.312 1671
109.375 320.312 1671
-210.938 -234.375 1259
125 289.062 1731
85.9375 125 1236
179.688 328.125 1671
-46.875 250 1516
-468.75 218.75 1477
-468.75 -296.875 1223
109.375 343.75 1632
-218.75 -46.875 1206
-351.562 -46.875 1206
-31.25 296.875 1529
210.938 421.875 1523
46.875 281.25 1550
257.812 437.5 1523
-242.188 -218.75 1210
140.625 328.125 1663
-250 234.375 1671
117.188 320.312 1671
-93.75 375 1509
-281.25 -46.875 1206
-312.5 -46.875 1197
281.25 429.688 1739
-85.9375 359.375 1489
-203.125 -46.875 1197
203.125 289.062 1550
-265.625 -46.875 1193
70.3125 281.25 1766
-320.312 -46.875 1197
218.75 328.125 1503
-101.562 140.625 1288
-31.25 289.062 1496
39.0625 46.875 1219
179.688 289.062 1543
-421.875 -351.562 1206
54.6875 367.188 1586
-78.125 257.812 1387
23.4375 195.312 1307
156.25 328.125 1655
-39.0625 304.688 1543
-242.188 -226.562 1210
-23.4375 242.188 1503
-257.812 -156.25 1134
335.938 187.5 1288
-218.75 -226.562 1214
-304.688 -46.875 1202
-179.688 46.875 1255
-242.188 -46.875 1197
-125 78.125 1250
109.375 -156.25 1523
62.5 46.875 1173
0 320.312 1671
-437.5 -414.062 1381
-46.875 304.688 1543
125 328.125 1663
-187.5 62.5 1959
296.875 328.125 1410
-164.062 -31.25 1227
-117.188 187.5 1333
46.875 234.375 1523
234.375 382.812 1483
-93.75 367.188 1503
31.25 187.5 1312
164.062 109.375 1250
179.688 320.312 1536
-242.188 351.562 1586
156.25 -257.812 1452
-171.875 132.812 2016
-101.562 210.938 1370
-414.062 -437.5 1398
-54.6875 359.375 1601
148.438 289.062 1536
351.562 187.5 1288
-164.062 250 1655
125 210.938 1564
62.5 281.25 1564
132.812 289.062 1550
171.875 296.875 1550
226.562 195.312 1312
-101.562 195.312 1354
93.75 -453.125 1381
-164.062 289.062 1632
117.188 289.062 1731
-23.4375 304.688 1543
171.875 320.312 1536
-273.438 -46.875 1197
164.062 289.062 1557
328.125 218.75 1322
210.938 289.062 1550
242.188 312.5 1427
187.5 289.062 1557
85.9375 281.25 1766
-39.0625 296.875 1529
109.375 -320.312 1421
-203.125 117.188 2016
-187.5 54.6875 1264
164.062 117.188 1245
-93.75 351.562 1489
23.4375 320.312 1671
289.062 351.562 1433
-109.375 54.6875 1232
31.25 296.875 1543
-93.75 359.375 1489
117.188 -460.938 3120
132.812 265.625 1601
-101.562 242.188 1392
117.188 296.875 1731
-179.688 85.9375 1970
-453.125 -234.375 1264
125 320.312 1671
-15.625 156.25 1292
125 -328.125 1404
70.3125 -429.688 1359
-93.75 382.812 1523
210.938 281.25 1550
-15.625 304.688 1496
-296.875 -46.875 1206
-226.562 -46.875 1197
-195.312 -46.875 1197
-187.5 -148.438 1141
-117.188 -54.6875 1193
70.3125 187.5 1307
-429.688 226.562 1705
-156.25 226.562 1705
109.375 289.062 1731
140.625 320.312 1536
109.375 281.25 1766
-7.8125 281.25 1496
156.25 257.812 1586
101.562 -429.688 1354
179.688 296.875 1543
-476.562 234.375 1464
312.5 62.5 1219
-390.625 148.438 1915
-156.25 -46.875 1197
109.375 -312.5 1421
-257.812 242.188 1639
-203.125 -148.438 1141
-109.375 70.3125 1245
78.125 117.188 1250
-218.75 -148.438 1141
39.0625 187.5 1312
117.188 -320.312 1415
195.312 289.062 1557
-23.4375 312.5 1543
242.188 304.688 1427
-234.375 -46.875 1197
93.75 296.875 1739
70.3125 289.062 1739
93.75 289.062 1731
-179.688 62.5 1959
54.6875 265.625 1557
-23.4375 273.438 1509
54.6875 187.5 1312
-234.375 -265.625 1223
-101.562 117.188 1273
-250 -46.875 1202
-125 -125 1153
101.562 281.25 1776
-125 54.6875 1236
-148.438 296.875 1671
93.75 -156.25 1523
156.25 289.062 1536
7.8125 296.875 1523
476.562 -265.625 3149
351.562 -156.25 1564
148.438 429.688 1523
156.25 437.5 1523
-23.4375 203.125 1536
-351.562 125 2028
-125 46.875 1232
-7.8125 304.688 1496
78.125 234.375 1509
101.562 -320.312 1421
437.5 -148.438 3468
156.25 132.812 1236
-117.188 304.688 1445
125 -320.312 1410
-179.688 -46.875 1197
-328.125 -46.875 1202
171.875 328.125 1671
-328.125 156.25 1993
-210.938 -46.875 1202
62.5 187.5 1312
-101.562 132.812 1288
-406.25 -257.812 1268
0 429.688 1529
375 429.688 1748
203.125 -203.125 1496
-54.6875 242.188 1523
148.438 328.125 1655
476.562 429.688 1731
187.5 242.188 1564
-85.9375 328.125 1458
23.4375 203.125 1307
328.125 234.375 1333
-148.438 78.125 1970
46.875 187.5 1307
46.875 187.5 1307
70.3125 398.438 1543
117.188 -312.5 1421
85.9375 328.125 1663
226.562 218.75 1273
-101.562 -62.5 1283
398.438 328.125 1926
-54.6875 257.812 1529
-140.625 140.625 2040
109.375 -429.688 1354
46.875 312.5 1663
218.75 218.75 1594
70.3125 46.875 1173
-273.438 187.5 1757
187.5 281.25 1579
125 -156.25 1523
70.3125 234.375 1509
-289.062 -46.875 1206
-367.188 -46.875 1202
109.375 328.125 1663
195.312 281.25 1579
31.25 281.25 1529
148.438 312.5 1523
0 164.062 1297
-296.875 -203.125 1181
-101.562 187.5 1322
-375 -46.875 1202
15.625 328.125 1663
93.75 281.25 1731
312.5 273.438 1365
-484.375 -23.4375 1185
-156.25 -31.25 1227
15.625 187.5 1307
15.625 187.5 1307
78.125 273.438 1776
101.562 242.188 1616
242.188 320.312 1470
101.562 -218.75 1489
-15.625 296.875 1496
-429.688 296.875 1543
-7.8125 187.5 1312
140.625 289.062 1543
218.75 281.25 1564
0 187.5 1312
-23.4375 46.875 1227
-125 -46.875 1193
203.125 281.25 1550
-351.562 343.75 1586
101.562 -156.25 1523
-179.688 78.125 1970
-15.625 257.812 1496
210.938 -296.875 1433
-101.562 203.125 1365
-85.9375 257.812 1387
78.125 281.25 1766
109.375 -453.125 1387
-125 62.5 1245
-109.375 -242.188 1307
-164.062 242.188 1680
234.375 54.6875 1223
-218.75 164.062 1947
15.625 320.312 1680
109.375 -328.125 1410
-429.688 312.5 1543
203.125 -437.5 1370
-156.25 437.5 1722
-101.562 148.438 1297
70.3125 187.5 1307
62.5 265.625 1557
-125 -140.625 1145
-101.562 140.625 1288
-101.562 101.562 1264
39.0625 125 1250
-500 343.75 1536
-164.062 -46.875 1197
23.4375 -218.75 1523
23.4375 -226.562 1509
-257.812 -46.875 1197
-242.188 -46.875 1197
-195.312 -31.25 1232
304.688 304.688 1392
304.688 109.375 1250
-31.25 257.812 1503
-125 -132.812 1149
382.812 -132.812 3576
85.9375 46.875 1173
-15.625 429.688 1536
-109.375 421.875 1529
-179.688 109.375 2005
-101.562 109.375 1268
257.812 304.688 1410
218.75 -382.812 1370
-31.25 304.688 1543
-242.188 -156.25 1130
156.25 281.25 1776
46.875 101.562 1250
195.312 328.125 1671
-101.562 93.75 1264
179.688 281.25 1579
23.4375 -179.688 1529
-414.062 -335.938 1219
85.9375 187.5 1307
-179.688 85.9375 1970
101.562 234.375 1609
46.875 289.062 1557
15.625 15.625 1169
-312.5 250 1766
203.125 -195.312 1496
78.125 187.5 1307
218.75 -398.438 1370
101.562 46.875 1169
93.75 234.375 1632
85.9375 320.312 1688
-54.6875 187.5 1322
-101.562 -265.625 1398
-78.125 -171.875 1523
-187.5 -46.875 1197
-375 23.4375 1189
164.062 328.125 1671
-101.562 -62.5 1283
-218.75 -46.875 1206
-382.812 -46.875 1202
-179.688 54.6875 1255
-273.438 -203.125 1169
85.9375 265.625 1632
-187.5 70.3125 1959
195.312 351.562 1632
-187.5 78.125 1970
210.938 -312.5 1421
-93.75 320.312 1452
-54.6875 382.812 1564
-93.75 328.125 1464
-101.562 125 1283
46.875 265.625 1529
234.375 281.25 1496
226.562 281.25 1572
-390.625 289.062 1696
-23.4375 164.062 1297
101.562 289.062 1739
-85.9375 367.188 1509
-156.25 -148.438 1138
-414.062 218.75 1813
101.562 195.312 1307
140.625 -328.125 1410
140.625 195.312 1312
-101.562 304.688 1445
78.125 46.875 1173
-179.688 101.562 1993
242.188 296.875 1433
312.5 281.25 1370
132.812 -328.125 1404
-234.375 -226.562 1223
156.25 -156.25 1516
296.875 148.438 1278
-93.75 343.75 1477
-179.688 117.188 2016
117.188 -156.25 1523
-101.562 -70.3125 1302
-367.188 -304.688 1317
-468.75 210.938 1483
-148.438 -31.25 1227
23.4375 -203.125 1516
265.625 429.688 1509
242.188 320.312 1470
234.375 257.812 1529
-125 -179.688 1141
312.5 78.125 1227
-312.5 140.625 2040
23.4375 -210.938 1516
148.438 -429.688 1354
-398.438 -429.688 1404
273.438 406.25 1483
-85.9375 375 1509
-109.375 -226.562 1268
-421.875 328.125 1550
-125 85.9375 1250
-156.25 101.562 1993
171.875 351.562 1624
-171.875 -156.25 1134
-101.562 85.9375 1255
226.562 54.6875 1223
-148.438 -46.875 1197
-132.812 132.812 1292
-101.562 117.188 1273
-125 -148.438 1134
-179.688 62.5 1959
210.938 -273.438 1439
265.625 421.875 1503
-382.812 132.812 1993
-101.562 132.812 1288
-101.562 101.562 1264
-54.6875 250 1516
-62.5 226.562 1543
62.5 226.562 1543
85.9375 343.75 1639
-179.688 78.125 1936
-312.5 273.438 1731
-265.625 -195.312 1173
414.062 -46.875 1292
234.375 289.062 1503
203.125 -195.312 1503
-484.375 -218.75 1268
7.8125 351.562 1624
203.125 -203.125 1489
-7.8125 328.125 1671
85.9375 226.562 1550
187.5 -164.062 1523
125 -312.5 1421
-375 140.625 2028
23.4375 -187.5 1523
-117.188 226.562 1387
54.6875 382.812 1564
210.938 -289.062 1439
234.375 203.125 1312
-156.25 320.312 1639
-234.375 171.875 1947
-109.375 -39.0625 1236
-46.875 164.062 1297
23.4375 -195.312 1523
93.75 -429.688 1354
-250 -265.625 1223
171.875 -242.188 1458
-93.75 -273.438 1433
-31.25 210.938 1543
-101.562 78.125 1250
-406.25 -226.562 1278
140.625 -203.125 1483
-164.062 -156.25 1134
-218.75 156.25 2053
-289.062 -203.125 1173
-234.375 156.25 2040
234.375 250 1529
46.875 101.562 1250
-429.688 359.375 1543
-398.438 203.125 1853
-179.688 93.75 1970
-398.438 140.625 1873
-312.5 -109.375 1161
-187.5 312.5 1639
-453.125 23.4375 1227
-179.688 70.3125 1936
-187.5 265.625 1624
-218.75 164.062 2053
-320.312 289.062 1688
70.3125 218.75 1572
-78.125 -171.875 1483
-476.562 281.25 1503
-250 242.188 1655
296.875 140.625 1268
-195.312 148.438 2028
-468.75 351.562 1550
46.875 335.938 1655
-421.875 335.938 1586
-390.625 296.875 1655
-242.188 226.562 1680
-125 -140.625 1145
-187.5 125 2016
140.625 -320.312 1415
-148.438 171.875 1993
-140.625 273.438 1696
-453.125 273.438 1496
-117.188 -218.75 1241
-398.438 304.688 1647
-179.688 109.375 2005
-23.4375 281.25 1496
-70.3125 -203.125 1550
-195.312 335.938 1624
-421.875 -328.125 1219
164.062 132.812 1236
-234.375 179.688 1776
-101.562 -62.5 1288
-289.062 140.625 2040
-453.125 398.438 1731
-187.5 140.625 2028
93.75 281.25 1572
-195.312 140.625 2028
-171.875 148.438 2040
218.75 -382.812 1365
-218.75 179.688 1757
-375 304.688 1663
-101.562 93.75 1259
-93.75 -101.562 1370
-85.9375 -164.062 1458
7.8125 382.812 1572
31.25 382.812 1572
54.6875 257.812 1536
-101.562 109.375 1268
-125 -156.25 1134
-93.75 335.938 1464
-296.875 140.625 2040
-351.562 -375 1359
-132.812 -171.875 1134
-406.25 210.938 1823
125 -242.188 1464
359.375 210.938 2241
-187.5 148.438 2028
-203.125 312.5 1639
101.562 289.062 1739
140.625 289.062 1739
-85.9375 328.125 1464
-125 -195.312 1181
23.4375 210.938 1523
-93.75 359.375 1489
-226.562 164.062 2381
164.062 195.312 1312
15.625 320.312 1671
335.938 359.375 1863
351.562 218.75 2212
-351.562 -367.188 1359
-460.938 304.688 1523
-242.188 -218.75 1210
46.875 -304.688 1445
-429.688 -62.5 1193
70.3125 234.375 1543
304.688 109.375 1245
-31.25 304.688 1536
54.6875 242.188 1523
-23.4375 304.688 1536
359.375 -242.188 3399
-234.375 351.562 1586
-93.75 296.875 1439
62.5 265.625 1572
0 359.375 1609
-117.188 -203.125 1197
78.125 281.25 1579
289.062 359.375 1433
234.375 218.75 1550
-195.312 148.438 2028
31.25 289.062 1536
203.125 -187.5 1503
-164.062 148.438 2040
-234.375 171.875 1947
-210.938 179.688 1748
-187.5 109.375 2005
-156.25 328.125 1647
-179.688 304.688 1616
218.75 -390.625 1359
85.9375 281.25 1572
23.4375 289.062 1529
-164.062 296.875 1639
156.25 117.188 1245
296.875 23.4375 1169
117.188 289.062 1731
93.75 289.062 1557
-15.625 296.875 1496
203.125 281.25 1564
-101.562 -257.812 1365
-187.5 296.875 1616
-312.5 140.625 2040
156.25 289.062 1739
-242.188 -46.875 1193
-187.5 335.938 1624
-109.375 289.062 1427
164.062 289.062 1739
62.5 281.25 1564
-398.438 -335.938 1245
101.562 281.25 1776
-39.0625 296.875 1536
-171.875 179.688 1970
-218.75 164.062 2053
-484.375 -312.5 1219
-85.9375 250 1427
-101.562 78.125 1250
-15.625 304.688 1536
-179.688 250 1663
93.75 281.25 1572
226.562 281.25 1572
265.625 281.25 1381
210.938 -281.25 1445
-492.188 -210.938 1278
195.312 281.25 1550
70.3125 281.25 1572
54.6875 281.25 1564
-179.688 335.938 1624
0 320.312 1671
-187.5 265.625 1624
148.438 289.062 1731
132.812 289.062 1739
-476.562 250 1529
-460.938 -343.75 1206
7.8125 296.875 1503
-117.188 250 1392
-101.562 85.9375 1255
187.5 281.25 1579
-101.562 101.562 1264
-414.062 203.125 1804
78.125 281.25 1579
296.875 156.25 1278
-101.562 62.5 1241
-70.3125 -210.938 1594
-421.875 226.562 1757
-187.5 -46.875 1197
109.375 281.25 1766
-195.312 -46.875 1197
-164.062 289.062 1639
70.3125 289.062 1564
62.5 289.062 1564
46.875 289.062 1557
15.625 289.062 1516
-242.188 -234.375 1214
-218.75 -46.875 1197
-226.562 -218.75 1219
-398.438 203.125 1853
289.062 23.4375 1169
-7.8125 304.688 1483
7.8125 320.312 1671
-39.0625 304.688 1550
46.875 187.5 1312
70.3125 187.5 1307
437.5 -148.438 3468
210.938 281.25 1564
-109.375 273.438 1410
218.75 281.25 1572
-23.4375 164.062 1297
-179.688 148.438 2040
-445.312 273.438 1503
-367.188 -343.75 1359
-257.812 -46.875 1193
242.188 289.062 1452
-226.562 164.062 2381
-226.562 179.688 1757
109.375 289.062 1731
-304.688 171.875 1947
-335.938 -351.562 1381
-468.75 328.125 1543
46.875 281.25 1550
-156.25 250 1647
218.75 -375 1376
203.125 -210.938 1489
-179.688 281.25 1624
-109.375 -234.375 1288
-218.75 179.688 1757
-453.125 328.125 1523
-31.25 296.875 1536
164.062 117.188 1245
-414.062 -421.875 1392
-414.062 -421.875 1392
-7.8125 320.312 1671
-437.5 -398.438 1370
-421.875 -367.188 1202
-23.4375 312.5 1536
179.688 289.062 1550
-218.75 -156.25 1138
7.8125 218.75 1523
187.5 289.062 1550
-453.125 320.312 1523
-54.6875 203.125 1572
-406.25 187.5 1804
-195.312 148.438 2028
140.625 320.312 1671
-125 -46.875 1193
-164.062 -46.875 1197
-164.062 179.688 1970
-242.188 -210.938 1214
-23.4375 367.188 1594
-187.5 148.438 2028
156.25 -156.25 1516
-179.688 101.562 1981
140.625 328.125 1663
-179.688 125 2016
0 289.062 1477
78.125 187.5 1307
-62.5 210.938 1564
148.438 328.125 1663
234.375 281.25 1503
15.625 187.5 1302
218.75 226.562 1557
-195.312 304.688 1616
-250 296.875 1601
-101.562 70.3125 1245
-320.312 164.062 1970
-132.812 -46.875 1193
125 328.125 1663
-23.4375 296.875 1529
-210.938 265.625 1616
-101.562 -54.6875 1268
210.938 289.062 1550
-296.875 -218.75 1173
-289.062 -46.875 1202
-140.625 281.25 1696
101.562 289.062 1739
-476.562 -164.062 1145
125 320.312 1671
78.125 234.375 1543
-46.875 304.688 1550
-468.75 -164.062 1149
-320.312 351.562 1586
-31.25 304.688 1536
304.688 312.5 1392
-367.188 -46.875 1202
-85.9375 382.812 1536
-382.812 -46.875 1202
85.9375 328.125 1663
242.188 320.312 1477
-296.875 -46.875 1206
171.875 320.312 1696
125 289.062 1739
179.688 320.312 1696
-234.375 -46.875 1193
-312.5 -46.875 1197
-101.562 46.875 1232
-85.9375 375 1509
-351.562 -46.875 1206
195.312 328.125 1477
-304.688 -46.875 1202
-476.562 -210.938 1268
-453.125 304.688 1516
-23.4375 304.688 1536
148.438 257.812 1586
-210.938 -46.875 1202
54.6875 187.5 1307
-500 -210.938 1255
226.562 250 1624
-414.062 -218.75 1273
-328.125 -46.875 1202
54.6875 289.062 1564
31.25 -203.125 1516
-375 -46.875 1202
296.875 320.312 1404
78.125 289.062 1557
343.75 226.562 1328
296.875 335.938 1421
-281.25 140.625 2040
109.375 -328.125 1410
140.625 289.062 1739
-445.312 304.688 1516
-148.438 -46.875 1197
85.9375 320.312 1688
-320.312 -46.875 1197
78.125 320.312 1671
132.812 320.312 1696
125 -320.312 1415
62.5 242.188 1516
140.625 421.875 1516
62.5 281.25 1564
-179.688 -46.875 1197
-15.625 320.312 1671
-257.812 23.4375 1177
-226.562 171.875 2349
-250 -46.875 1197
-125 -117.188 1157
-226.562 164.062 2381
-398.438 -46.875 1197
-328.125 218.75 1823
-492.188 -312.5 1214
70.3125 281.25 1572
109.375 187.5 1307
-328.125 156.25 1993
-390.625 -273.438 1273
156.25 328.125 1663
-445.312 -242.188 1259
-304.688 140.625 2040
-7.8125 281.25 1489
-7.8125 398.438 1543
31.25 289.062 1536
156.25 320.312 1663
195.312 320.312 1477
203.125 289.062 1550
-171.875 335.938 1632
132.812 265.625 1601
179.688 265.625 1586
-218.75 265.625 1609
203.125 273.438 1594
-148.438 -31.25 1227
148.438 320.312 1671
70.3125 320.312 1671
343.75 234.375 1338
203.125 242.188 1550
-39.0625 296.875 1536
-54.6875 312.5 1688
-476.562 203.125 1477
-242.188 179.688 1785
54.6875 281.25 1564
-390.625 -46.875 1202
85.9375 187.5 1307
-39.0625 312.5 1550
187.5 242.188 1564
-39.0625 398.438 1536
156.25 257.812 1586
-62.5 320.312 1458
171.875 328.125 1663
-335.938 -46.875 1197
93.75 328.125 1663
-242.188 -46.875 1193
-39.0625 304.688 1550
-468.75 296.875 1509
210.938 421.875 1523
0 187.5 1312
-281.25 -46.875 1202
187.5 421.875 1523
164.062 257.812 1601
-23.4375 398.438 1543
195.312 -117.188 1278
-179.688 265.625 1616
-218.75 132.812 2028
-179.688 218.75 1731
-156.25 -31.25 1227
-406.25 -39.0625 1214
171.875 289.062 1739
-492.188 -15.625 1177
125 -312.5 1421
164.062 320.312 1663
-468.75 234.375 1464
39.0625 296.875 1543
-195.312 218.75 1731
148.438 289.062 1731
-250 -210.938 1165
140.625 320.312 1671
70.3125 328.125 1663
-203.125 156.25 2040
-140.625 320.312 1655
-390.625 -39.0625 1219
421.875 -148.438 3503
-437.5 -320.312 1219
-257.812 -312.5 1359
31.25 296.875 1543
-328.125 421.875 1722
85.9375 281.25 1572
15.625 343.75 1639
-226.562 -156.25 1138
-406.25 304.688 1647
-187.5 304.688 1616
-328.125 304.688 1616
-226.562 265.625 1601
125 -156.25 1529
-164.062 -31.25 1227
-7.8125 -156.25 1516
-7.8125 296.875 1483
-117.188 -210.938 1219
62.5 187.5 1307
54.6875 320.312 1572
453.125 101.562 2541
351.562 429.688 1748
-164.062 273.438 1632
-484.375 -39.0625 1214
156.25 421.875 1523
-70.3125 398.438 1529
-265.625 -312.5 1359
-429.688 -328.125 1214
117.188 -156.25 1523
117.188 -320.312 1415
-31.25 312.5 1536
367.188 -156.25 1564
468.75 -289.062 3238
7.8125 187.5 1307
-437.5 335.938 1579
46.875 281.25 1550
-187.5 218.75 1731
132.812 328.125 1663
-273.438 -46.875 1197
-210.938 304.688 1609
101.562 -156.25 1529
-421.875 -218.75 1273
-242.188 257.812 1601
179.688 328.125 1671
39.0625 187.5 1312
62.5 218.75 1557
-171.875 304.688 1647
-187.5 140.625 2028
179.688 320.312 1696
-7.8125 320.312 1671
-31.25 398.438 1543
46.875 187.5 1312
-7.8125 218.75 1523
-46.875 429.688 1529
-335.938 -39.0625 1223
46.875 289.062 1557
187.5 320.312 1477
492.188 -265.625 2958
-210.938 148.438 2040
-93.75 351.562 1483
-234.375 218.75 1705
-296.875 140.625 2040
-468.75 226.562 1477
-234.375 226.562 1688
-242.188 304.688 1594
70.3125 289.062 1564
-265.625 -46.875 1193
171.875 421.875 1523
117.188 289.062 1731
148.438 328.125 1663
109.375 -257.812 1452
-257.812 -46.875 1193
78.125 328.125 1663
203.125 195.312 1312
-320.312 226.562 1833
39.0625 289.062 1536
93.75 289.062 1557
15.625 187.5 1302
-46.875 304.688 1550
-7.8125 187.5 1312
54.6875 328.125 1663
-15.625 187.5 1312
289.062 117.188 1255
-484.375 -210.938 1273
-15.625 -164.062 1543
54.6875 296.875 1572
125 265.625 1601
289.062 367.188 1445
-296.875 -39.0625 1223
-289.062 -46.875 1202
-343.75 -46.875 1202
-226.562 -46.875 1193
-460.938 -289.062 1232
109.375 -453.125 1387
-304.688 171.875 1947
164.062 304.688 1705
-31.25 289.062 1503
62.5 320.312 1671
62.5 289.062 1564
62.5 328.125 1663
-226.562 171.875 2349
-492.188 23.4375 1236
23.4375 210.938 1523
-46.875 312.5 1688
-375 203.125 1863
-414.062 -46.875 1202
226.562 390.625 1489
351.562 218.75 2212
-414.062 -226.562 1273
-23.4375 39.0625 1210
-234.375 179.688 1776
-78.125 -179.688 1496
-414.062 -398.438 1376
-320.312 218.75 1853
-382.812 -46.875 1202
-179.688 -148.438 1141
-359.375 -46.875 1202
101.562 250 1624
-460.938 320.312 1529
195.312 265.625 1594
23.4375 187.5 1307
-328.125 375 1543
78.125 320.312 1663
93.75 -156.25 1523
-367.188 -46.875 1202
-46.875 164.062 1297
-218.75 -46.875 1197
156.25 265.625 1601
117.188 304.688 1688
-31.25 320.312 1655
-93.75 320.312 1452
-320.312 -46.875 1197
234.375 304.688 1523
54.6875 289.062 1564
164.062 265.625 1594
46.875 320.312 1663
-312.5 375 1536
-421.875 296.875 1529
70.3125 320.312 1663
-226.562 304.688 1594
171.875 265.625 1594
-46.875 195.312 1312
148.438 265.625 1601
210.938 218.75 1579
46.875 101.562 1250
-406.25 -46.875 1202
-429.688 -46.875 1206
117.188 -312.5 1421
78.125 203.125 1302
31.25 187.5 1312
85.9375 289.062 1722
78.125 281.25 1579
54.6875 343.75 1639
-46.875 296.875 1543
39.0625 328.125 1663
195.312 421.875 1523
-476.562 -328.125 1206
-109.375 296.875 1439
-62.5 398.438 1529
-453.125 -46.875 1206
125 328.125 1663
414.062 -148.438 3503
78.125 218.75 1557
-125 -62.5 1185
-421.875 -296.875 1236
-250 -265.625 1223
117.188 -312.5 1421
-203.125 156.25 2065
7.8125 218.75 1523
-304.688 265.625 1624
234.375 289.062 1536
-195.312 281.25 1609
-484.375 -164.062 1149
234.375 328.125 1470
-312.5 -46.875 1197
-218.75 164.062 2053
-429.688 343.75 1557
-445.312 -312.5 1223
-421.875 -375 1202
-234.375 -312.5 1594
390.625 -148.438 3539
132.812 304.688 1688
453.125 -148.438 3468
109.375 -429.688 1349
-429.688 -39.0625 1219
93.75 320.312 1671
-414.062 -31.25 1206
187.5 265.625 1579
148.438 257.812 1586
117.188 -328.125 1415
164.062 273.438 1594
85.9375 46.875 1169
-250 -312.5 1616
62.5 234.375 1536
-31.25 257.812 1509
-343.75 -242.188 1349
-257.812 -31.25 1223
109.375 265.625 1609
-484.375 -46.875 1206
-351.562 -46.875 1206
-375 -304.688 1458
117.188 265.625 1601
-421.875 226.562 1757
-54.6875 281.25 1550
-218.75 226.562 1713
132.812 320.312 1671
78.125 250 1632
-15.625 296.875 1489
101.562 265.625 1594
85.9375 328.125 1663
54.6875 320.312 1671
-492.188 -328.125 1206
-85.9375 328.125 1464
-382.812 -273.438 1365
-335.938 -242.188 1343
-335.938 -242.188 1343
-109.375 281.25 1415
132.812 265.625 1601
-226.562 265.625 1601
-187.5 390.625 1536
-179.688 265.625 1616
-234.375 -210.938 1227
39.0625 320.312 1663
85.9375 320.312 1680
234.375 390.625 1496
171.875 296.875 1739
-453.125 -39.0625 1214
-460.938 -328.125 1210
179.688 265.625 1579
-273.438 406.25 1536
398.438 -148.438 3539
-468.75 -312.5 1219
93.75 250 1579
-265.625 -210.938 1161
101.562 304.688 1688
125 304.688 1696
-328.125 148.438 2005
-203.125 148.438 2028
-218.75 304.688 1594
109.375 304.688 1688
-351.562 406.25 1536
-453.125 -359.375 1202
23.4375 367.188 1594
-460.938 -31.25 1206
-375 -46.875 1202
-39.0625 320.312 1663
-164.062 179.688 1959
140.625 328.125 1663
-62.5 312.5 1696
-351.562 -39.0625 1223
-15.625 226.562 1516
-195.312 -31.25 1227
7.8125 187.5 1312
-210.938 335.938 1609
23.4375 296.875 1536
-156.25 265.625 1647
85.9375 296.875 1731
-437.5 -39.0625 1223
-218.75 -148.438 1141
148.438 320.312 1663
179.688 296.875 1739
125 343.75 1632
15.625 296.875 1529
0 218.75 1523
164.062 296.875 1731
140.625 296.875 1688
78.125 320.312 1663
195.312 -171.875 1509
156.25 304.688 1696
-7.8125 46.875 1227
62.5 281.25 1550
-242.188 179.688 1785
203.125 -195.312 1496
-203.125 156.25 2065
-242.188 257.812 1601
171.875 257.812 1594
-15.625 289.062 1489
203.125 281.25 1579
117.188 281.25 1731
-218.75 148.438 2040
93.75 304.688 1696
-148.438 281.25 1663
343.75 242.188 2129
70.3125 187.5 1307
179.688 281.25 1564
-421.875 -46.875 1202
203.125 -437.5 1381
-234.375 -226.562 1223
70.3125 250 1523
-203.125 -46.875 1197
-304.688 -46.875 1202
-492.188 -46.875 1210
-54.6875 398.438 1536
-54.6875 164.062 1302
-468.75 -257.812 1245
-210.938 312.5 1616
-46.875 398.438 1536
-414.062 312.5 1529
78.125 226.562 1557
-273.438 -39.0625 1227
101.562 242.188 1624
117.188 304.688 1688
109.375 -320.312 1415
242.188 296.875 1445
-453.125 -265.625 1245
210.938 359.375 1609
70.3125 320.312 1663
-250 -203.125 1197
351.562 234.375 2156
-460.938 -39.0625 1219
195.312 265.625 1594
93.75 320.312 1671
-195.312 -46.875 1197
148.438 304.688 1688
-382.812 -39.0625 1219
148.438 -125 1439
476.562 -265.625 3092
187.5 335.938 1647
-117.188 210.938 1370
70.3125 304.688 1696
296.875 148.438 1278
31.25 289.062 1529
148.438 273.438 1601
-429.688 -7.8125 1173
-414.062 359.375 1550
-140.625 312.5 1655
-398.438 -39.0625 1223
164.062 265.625 1594
-156.25 -46.875 1197
85.9375 250 1579
140.625 304.688 1688
-398.438 -46.875 1206
-140.625 -46.875 1193
78.125 304.688 1696
484.375 -125 2933
85.9375 304.688 1696
70.3125 46.875 1173
62.5 328.125 1663
101.562 289.062 1739
-250 179.688 1947
-476.562 46.875 1564
-257.812 179.688 1936
-179.688 -31.25 1227
125 -429.688 1349
-390.625 -46.875 1202
93.75 328.125 1655
-203.125 304.688 1609
-265.625 -31.25 1223
203.125 421.875 1523
46.875 320.312 1663
-460.938 -164.062 1145
-429.688 -164.062 1141
-343.75 -171.875 1138
-320.312 -171.875 1138
203.125 203.125 1312
-210.938 156.25 2065
-132.812 46.875 1255
70.3125 328.125 1663
484.375 -273.438 2958
-85.9375 -289.062 1458
-242.188 -218.75 1210
101.562 125 1232
-101.562 117.188 1273
109.375 -328.125 1415
54.6875 328.125 1663
-476.562 -351.562 1206
0 187.5 1312
-468.75 -351.562 1206
-54.6875 304.688 1696
304.688 109.375 1245
-335.938 -46.875 1202
-296.875 -46.875 1206
109.375 273.438 1601
-281.25 -226.562 1210
-289.062 -171.875 1138
117.188 273.438 1776
0 296.875 1477
187.5 46.875 1214
70.3125 -429.688 1359
125 273.438 1601
46.875 273.438 1529
156.25 273.438 1601
-492.188 -210.938 1278
93.75 -429.688 1354
351.562 187.5 1292
140.625 281.25 1731
-78.125 398.438 1529
164.062 257.812 1594
-226.562 148.438 2040
-312.5 -171.875 1138
31.25 328.125 1663
156.25 328.125 1655
15.625 187.5 1307
312.5 281.25 1370
78.125 265.625 1579
226.562 195.312 1307
-210.938 226.562 1731
-343.75 -39.0625 1223
343.75 226.562 1322
93.75 265.625 1579
31.25 320.312 1663
-226.562 335.938 1616
-468.75 242.188 1464
242.188 320.312 1483
-492.188 218.75 1410
-335.938 218.75 1853
-85.9375 398.438 1529
125 265.625 1601
179.688 273.438 1572
281.25 382.812 1458
101.562 281.25 1601
164.062 281.25 1731
-195.312 335.938 1624
148.438 328.125 1655
-390.625 -367.188 1381
78.125 328.125 1663
39.0625 289.062 1529
101.562 -429.688 1349
-445.312 -46.875 1206
78.125 46.875 1173
-85.9375 328.125 1464
-23.4375 46.875 1227
-460.938 -46.875 1206
171.875 273.438 1572
39.0625 320.312 1663
117.188 -312.5 1421
-414.062 -46.875 1202
-328.125 -46.875 1202
195.312 273.438 1572
-460.938 -210.938 1273
-320.312 164.062 1970
164.062 273.438 1594
-335.938 320.312 1632
-320.312 -31.25 1219
-46.875 320.312 1663
-203.125 335.938 1616
117.188 242.188 1601
125 281.25 1731
54.6875 320.312 1671
-54.6875 320.312 1663
-257.812 -148.438 1141
132.812 -328.125 1404
85.9375 265.625 1579
-7.8125 296.875 1483
-187.5 195.312 1739
-39.0625 296.875 1543
304.688 125 1259
7.8125 218.75 1523
-234.375 304.688 1601
429.688 -148.438 3503
109.375 304.688 1688
46.875 289.062 1550
-234.375 171.875 1947
-156.25 179.688 1970
125 210.938 1564
101.562 -453.125 1381
-210.938 -312.5 1616
7.8125 296.875 1509
390.625 -148.438 3539
164.062 -445.312 1359
-39.0625 320.312 1663
132.812 273.438 1601
140.625 265.625 1601
0 437.5 1739
39.0625 320.312 1663
0 328.125 1663
140.625 273.438 1601
-281.25 -195.312 1173
-476.562 -39.0625 1214
101.562 195.312 1307
-70.3125 164.062 1302
62.5 265.625 1557
187.5 429.688 1523
93.75 125 1232
156.25 265.625 1601
-187.5 218.75 1722
-39.0625 429.688 1529
15.625 218.75 1523
-296.875 -31.25 1219
101.562 265.625 1594
93.75 281.25 1601
23.4375 320.312 1671
-382.812 203.125 1843
-31.25 296.875 1536
-210.938 -234.375 1259
62.5 304.688 1705
0 265.625 1496
187.5 273.438 1564
468.75 -281.25 3269
-382.812 367.188 1550
85.9375 -429.688 1354
93.75 273.438 1601
-414.062 -164.062 1138
15.625 328.125 1671
-31.25 289.062 1503
70.3125 265.625 1557
132.812 257.812 1601
156.25 257.812 1586
-31.25 320.312 1655
54.6875 -156.25 1516
-140.625 171.875 1993
-140.625 164.062 2005
359.375 -148.438 1536
148.438 281.25 1757
-437.5 320.312 1536
-39.0625 257.812 1509
109.375 265.625 1609
148.438 273.438 1601
62.5 46.875 1173
-203.125 -312.5 1624
195.312 210.938 1579
-468.75 -210.938 1268
-187.5 -31.25 1227
15.625 320.312 1671
257.812 421.875 1503
156.25 281.25 1766
-421.875 -304.688 1236
-203.125 -31.25 1227
132.812 281.25 1757
39.0625 328.125 1663
-62.5 320.312 1663
-390.625 367.188 1543
-414.062 398.438 1523
78.125 273.438 1579
46.875 304.688 1705
-328.125 218.75 1853
-62.5 164.062 1302
234.375 304.688 1523
171.875 265.625 1594
117.188 -328.125 1415
335.938 234.375 1322
70.3125 304.688 1696
-250 -46.875 1197
-500 -39.0625 1202
23.4375 226.562 1516
109.375 125 1232
101.562 304.688 1688
125 273.438 1601
382.812 -117.188 1458
-460.938 289.062 1503
-218.75 304.688 1594
101.562 273.438 1601
-484.375 -210.938 1273
-203.125 281.25 1601
382.812 -148.438 3539
-70.3125 398.438 1529
85.9375 -156.25 1523
23.4375 148.438 1288
-218.75 -31.25 1227
-242.188 257.812 1601
171.875 281.25 1766
-289.062 -31.25 1219
-429.688 -421.875 1387
-398.438 171.875 1883
140.625 -132.812 1452
210.938 296.875 1731
46.875 343.75 1639
-359.375 -31.25 1210
-148.438 -312.5 1601
-343.75 414.062 1739
226.562 54.6875 1223
-429.688 -46.875 1206
-164.062 -312.5 1609
-70.3125 46.875 1227
-7.8125 328.125 1663
-179.688 218.75 1722
-46.875 46.875 1227
7.8125 328.125 1671
23.4375 328.125 1663
179.688 421.875 1523
-414.062 -39.0625 1214
-23.4375 187.5 1317
85.9375 273.438 1579
-367.188 -39.0625 1227
-421.875 -343.75 1210
-343.75 -46.875 1206
-484.375 -351.562 1202
-367.188 -46.875 1202
-23.4375 296.875 1523
-398.438 -46.875 1206
15.625 265.625 1496
85.9375 125 1232
46.875 210.938 1550
484.375 -257.812 3092
-171.875 218.75 1722
-31.25 218.75 1529
-476.562 -46.875 1206
-468.75 -46.875 1206
-70.3125 312.5 1696
-85.9375 46.875 1227
-445.312 -7.8125 1173
-78.125 7.8125 1173
93.75 304.688 1696
-93.75 -93.75 1354
62.5 195.312 1307
-7.8125 187.5 1312
109.375 -156.25 1523
-445.312 -164.062 1141
0 218.75 1523
-312.5 171.875 1947
39.0625 304.688 1696
195.312 281.25 1564
101.562 -156.25 1523
-265.625 179.688 1926
148.438 -429.688 1349
62.5 320.312 1663
-148.438 156.25 2053
7.8125 187.5 1312
-15.625 187.5 1317
-187.5 -46.875 1197
-203.125 156.25 2065
218.75 210.938 1312
-312.5 156.25 1981
406.25 -117.188 3576
46.875 296.875 1550
-210.938 281.25 1601
23.4375 210.938 1529
-453.125 343.75 1564
492.188 -273.438 2958
-226.562 265.625 1601
85.9375 218.75 1557
39.0625 164.062 1297
-195.312 218.75 1731
54.6875 187.5 1312
210.938 421.875 1523
148.438 429.688 1523
62.5 273.438 1550
-218.75 187.5 1748
-226.562 -31.25 1219
-437.5 -46.875 1206
195.312 242.188 1557
-117.188 -46.875 1197
-421.875 -39.0625 1214
476.562 -250 3178
0 164.062 1297
-406.25 31.25 1255
-406.25 -164.062 1138
31.25 257.812 1496
62.5 265.625 1557
-210.938 -31.25 1227
-406.25 -164.062 1138
-328.125 -242.188 1338
46.875 320.312 1663
-257.812 -203.125 1165
-23.4375 351.562 1616
46.875 250 1516
7.8125 320.312 1671
-125 -31.25 1227
109.375 281.25 1766
203.125 273.438 1579
187.5 -445.312 1370
-62.5 320.312 1663
-218.75 335.938 1616
-164.062 46.875 1250
-382.812 -46.875 1202
39.0625 46.875 1223
15.625 296.875 1529
-421.875 -7.8125 1173
-453.125 -164.062 1141
-414.062 31.25 1255
-85.9375 7.8125 1173
-257.812 296.875 1609
-476.562 -15.625 1177
78.125 304.688 1696
-406.25 -46.875 1202
171.875 257.812 1594
-171.875 -46.875 1197
164.062 -15.625 1210
-195.312 -31.25 1227
148.438 343.75 1632
-203.125 226.562 1722
226.562 -78.125 1302
0 187.5 1312
85.9375 273.438 1579
-210.938 328.125 1609
-171.875 46.875 1255
156.25 273.438 1601
23.4375 187.5 1307
-132.812 -46.875 1193
109.375 273.438 1601
101.562 359.375 1601
117.188 359.375 1601
0 328.125 1663
-453.125 -46.875 1206
23.4375 304.688 1523
-351.562 -328.125 1302
-500 -46.875 1202
-289.062 -195.312 1189
117.188 273.438 1776
203.125 242.188 1550
148.438 257.812 1586
328.125 39.0625 1165
93.75 273.438 1601
-70.3125 320.312 1496
-140.625 -312.5 1572
148.438 -164.062 1509
54.6875 -429.688 1370
-218.75 -312.5 1609
140.625 273.438 1601
-437.5 -312.5 1223
62.5 -429.688 1370
78.125 -156.25 1523
-367.188 -343.75 1354
-15.625 195.312 1317
0 296.875 1477
54.6875 -171.875 1536
70.3125 281.25 1550
31.25 304.688 1523
-156.25 289.062 1655
-7.8125 320.312 1671
-179.688 -312.5 1609
15.625 304.688 1529
-445.312 320.312 1529
-226.562 -312.5 1594
-257.812 -218.75 1161
171.875 -148.438 1516
-179.688 304.688 1609
242.188 320.312 1483
31.25 320.312 1663
-210.938 156.25 2065
-78.125 312.5 1458
-406.25 -421.875 1398
78.125 265.625 1579
-195.312 -312.5 1616
125 -312.5 1421
375 -148.438 3539
-265.625 -171.875 1134
-164.062 -148.438 1141
171.875 273.438 1572
-492.188 -46.875 1210
179.688 -445.312 1365
-320.312 -242.188 1338
-351.562 -382.812 1365
132.812 -312.5 1421
39.0625 -156.25 1523
-54.6875 320.312 1663
-265.625 -203.125 1165
-85.9375 320.312 1470
-492.188 -164.062 1149
132.812 273.438 1601
125 -164.062 1516
-187.5 -312.5 1616
54.6875 273.438 1550
-250 148.438 2028
-460.938 -226.562 1264
-335.938 -328.125 1307
-453.125 -312.5 1219
117.188 125 1232
78.125 -429.688 1354
-62.5 -156.25 1516
-187.5 218.75 1722
-304.688 -31.25 1219
187.5 265.625 1579
-406.25 -328.125 1223
-179.688 46.875 1255
187.5 281.25 1564
117.188 -429.688 1349
-195.312 304.688 1616
-257.812 -31.25 1223
-296.875 132.812 2028
-23.4375 328.125 1663
93.75 -453.125 1365
132.812 -429.688 1354
15.625 328.125 1671
-382.812 -164.062 1138
101.562 125 1232
-23.4375 304.688 1536
-132.812 304.688 1680
93.75 265.625 1579
-460.938 -367.188 1210
-468.75 289.062 1503
70.3125 273.438 1579
164.062 273.438 1594
-46.875 289.062 1536
218.75 -62.5 1302
-429.688 296.875 1529
31.25 437.5 1739
39.0625 437.5 1731
-492.188 -39.0625 1214
-421.875 -250 1259
-484.375 -46.875 1206
-468.75 -7.8125 1173
-265.625 -242.188 1214
0 320.312 1671
-187.5 -148.438 1141
-78.125 398.438 1529
460.938 -281.25 3269
-15.625 328.125 1671
-23.4375 242.188 1503
-281.25 -187.5 1177
-210.938 140.625 2040
156.25 -148.438 1509
-7.8125 328.125 1663
-234.375 148.438 2040
85.9375 265.625 1579
-398.438 -273.438 1278
-257.812 242.188 1647
148.438 -148.438 1503
132.812 257.812 1601
-343.75 -328.125 1302
-132.812 -312.5 1609
23.4375 320.312 1671
70.3125 265.625 1557
-492.188 398.438 1731
62.5 -156.25 1516
-234.375 -31.25 1214
54.6875 109.375 1250
7.8125 296.875 1509
-78.125 320.312 1496
101.562 281.25 1601
-359.375 -328.125 1302
-375 -39.0625 1223
78.125 273.438 1579
148.438 273.438 1601
257.812 281.25 1381
-250 273.438 1601
101.562 273.438 1601
-210.938 343.75 1616
-468.75 -39.0625 1214
-445.312 -39.0625 1219
31.25 171.875 1302
78.125 320.312 1663
31.25 -171.875 1557
70.3125 171.875 1297
101.562 226.562 1609
-140.625 171.875 1993
-460.938 -312.5 1219
-242.188 304.688 1601
46.875 304.688 1705
70.3125 -156.25 1516
140.625 281.25 1731
-15.625 398.438 1543
140.625 -320.312 1415
-390.625 -39.0625 1219
-406.25 406.25 1739
320.312 148.438 1273
-15.625 296.875 1489
-421.875 -46.875 1202
-210.938 148.438 2053
-210.938 226.562 1731
-7.8125 296.875 1483
-210.938 304.688 1601
-273.438 179.688 1936
-39.0625 289.062 1536
-242.188 -31.25 1214
78.125 281.25 1579
-281.25 -31.25 1219
-289.062 289.062 1663
-93.75 281.25 1415
-7.8125 218.75 1523
-164.062 296.875 1655
-31.25 187.5 1312
-390.625 -164.062 1141
195.312 171.875 1297
-500 -164.062 1141
-281.25 179.688 1936
-203.125 179.688 1757
171.875 171.875 1297
-210.938 312.5 1616
-210.938 -148.438 1141
242.188 335.938 1464
54.6875 281.25 1550
117.188 281.25 1731
164.062 265.625 1594
320.312 382.812 1823
7.8125 304.688 1536
54.6875 304.688 1705
132.812 -132.812 1452
101.562 203.125 1307
-390.625 -296.875 1433
-265.625 -195.312 1173
-156.25 179.688 1970
-460.938 -46.875 1206
-484.375 210.938 1477
-335.938 375 1536
-484.375 -39.0625 1214
39.0625 187.5 1312
179.688 265.625 1579
-46.875 187.5 1312
140.625 320.312 1663
375 -117.188 1452
-70.3125 320.312 1496
-39.0625 187.5 1312
421.875 -117.188 3576
125 273.438 1601
367.188 203.125 2256
-23.4375 210.938 1543
179.688 273.438 1572
179.688 281.25 1564
-250 -218.75 1206
-46.875 250 1516
-78.125 46.875 1227
195.312 -164.062 1516
-23.4375 289.062 1496
335.938 234.375 1322
203.125 281.25 1579
23.4375 304.688 1523
-218.75 304.688 1594
-46.875 296.875 1543
-210.938 164.062 2065
-382.812 -171.875 1145
85.9375 281.25 1579
-93.75 242.188 1392
15.625 218.75 1523
-351.562 0 1177
-54.6875 281.25 1550
-85.9375 398.438 1529
-234.375 265.625 1601
-179.688 164.062 2053
-257.812 -242.188 1214
-101.562 -218.75 1259
7.8125 46.875 1223
492.188 -312.5 3120
156.25 398.438 1543
-234.375 281.25 1624
-171.875 218.75 1722
195.312 -421.875 1354
390.625 -117.188 1458
250 171.875 1297
-218.75 -31.25 1227
0 328.125 1663
-296.875 -234.375 1232
-281.25 -171.875 1134
273.438 328.125 1415
-375 -46.875 1202
375 203.125 2256
-179.688 -31.25 1227
210.938 171.875 1302
-210.938 156.25 2065
-23.4375 320.312 1663
-250 -31.25 1219
70.3125 195.312 1307
-476.562 250 1516
-7.8125 320.312 1671
-500 -351.562 1189
-54.6875 187.5 1317
156.25 281.25 1766
-148.438 -31.25 1227
148.438 281.25 1757
15.625 296.875 1529
-265.625 -31.25 1223
-226.562 304.688 1594
351.562 414.062 1766
-320.312 -164.062 1138
39.0625 304.688 1696
132.812 281.25 1757
93.75 250 1579
492.188 -250 3092
-257.812 179.688 1936
0 46.875 1223
-476.562 -164.062 1145
-70.3125 31.25 1181
85.9375 273.438 1579
-468.75 -164.062 1145
-359.375 -164.062 1138
-273.438 171.875 1936
125 -148.438 1509
140.625 257.812 1594
-93.75 46.875 1232
-414.062 -164.062 1138
-101.562 7.8125 1173
-250 -171.875 1134
-54.6875 289.062 1550
-54.6875 242.188 1529
85.9375 250 1632
-500 320.312 1489
359.375 -148.438 1536
187.5 171.875 1297
203.125 250 1550
179.688 171.875 1297
210.938 250 1550
-54.6875 46.875 1223
-429.688 -281.25 1241
-398.438 -39.0625 1219
-156.25 46.875 1245
164.062 -445.312 1392
179.688 -148.438 1523
-109.375 -31.25 1219
140.625 367.188 1586
-15.625 320.312 1671
46.875 109.375 1250
-273.438 -187.5 1173
203.125 242.188 1550
-132.812 -187.5 1149
156.25 -445.312 1381
-78.125 -304.688 1557
117.188 -312.5 1421
203.125 195.312 1307
367.188 39.0625 1165
-31.25 320.312 1663
-78.125 250 1338
-445.312 -46.875 1206
-304.688 39.0625 1250
187.5 273.438 1579
296.875 328.125 1410
117.188 -453.125 1392
-304.688 -218.75 1177
-375 367.188 1543
-15.625 164.062 1297
195.312 195.312 1312
171.875 39.0625 1173
62.5 359.375 1609
-39.0625 328.125 1655
-257.812 -171.875 1134
-468.75 -328.125 1206
-265.625 179.688 1936
-429.688 -429.688 1387
46.875 46.875 1219
148.438 312.5 1536
-164.062 328.125 1624
109.375 -429.688 1354
-460.938 -7.8125 1173
-304.688 -171.875 1141
156.25 312.5 1529
-382.812 203.125 1823
-421.875 31.25 1250
-156.25 171.875 1959
-195.312 -179.688 1141
-257.812 367.188 1564
289.062 312.5 1398
-218.75 164.062 2053
210.938 195.312 1292
-31.25 328.125 1655
46.875 -156.25 1523
-203.125 226.562 1722
-382.812 203.125 1823
62.5 273.438 1543
-320.312 148.438 2028
125 312.5 1696
-226.562 -203.125 1214
-273.438 -242.188 1214
-343.75 -382.812 1354
85.9375 125 1232
132.812 265.625 1579
-70.3125 -164.062 1536
-62.5 265.625 1550
117.188 203.125 1307
-140.625 164.062 2005
-421.875 7.8125 1177
101.562 218.75 1609
-15.625 328.125 1663
-187.5 335.938 1624
-93.75 -312.5 1579
273.438 171.875 1292
234.375 54.6875 1223
-500 351.562 1523
171.875 312.5 1477
187.5 312.5 1470
-85.9375 320.312 1458
210.938 320.312 1489
-257.812 148.438 2040
312.5 31.25 1165
171.875 -421.875 1349
-23.4375 328.125 1663
117.188 265.625 1609
-23.4375 187.5 1312
351.562 187.5 1292
320.312 250 1338
-453.125 -39.0625 1214
171.875 265.625 1594
23.4375 265.625 1496
78.125 250 1509
-46.875 328.125 1655
140.625 265.625 1579
117.188 312.5 1696
109.375 312.5 1688
-250 304.688 1609
109.375 -164.062 1529
-7.8125 218.75 1523
31.25 234.375 1516
203.125 171.875 1297
218.75 171.875 1297
-125 -23.4375 1214
-203.125 -31.25 1223
-15.625 187.5 1312
0 304.688 1523
164.062 54.6875 1219
-109.375 31.25 1185
109.375 273.438 1543
148.438 304.688 1536
-171.875 -148.438 1138
-406.25 -382.812 1376
-15.625 304.688 1496
93.75 273.438 1543
117.188 -148.438 1503
-242.188 -234.375 1210
-203.125 343.75 1616
132.812 312.5 1536
-414.062 -218.75 1273
-414.062 -218.75 1273
-414.062 -359.375 1206
179.688 -421.875 1349
179.688 257.812 1594
-445.312 -382.812 1376
164.062 312.5 1516
-148.438 -312.5 1601
-406.25 -273.438 1259
-179.688 218.75 1722
70.3125 312.5 1696
-164.062 7.8125 1177
-125 -46.875 1193
-390.625 203.125 1823
-351.562 -164.062 1134
-367.188 320.312 1632
-70.3125 265.625 1594
132.812 54.6875 1219
156.25 304.688 1536
-187.5 -171.875 1134
-250 -203.125 1193
-39.0625 320.312 1663
289.062 171.875 1288
15.625 234.375 1509
-15.625 296.875 1496
-23.4375 304.688 1543
179.688 304.688 1477
-289.062 15.625 1181
109.375 320.312 1671
-187.5 296.875 1609
-281.25 296.875 1647
-390.625 -265.625 1278
-437.5 31.25 1250
-304.688 414.062 1536
-390.625 406.25 1739
195.312 -148.438 1278
-250 148.438 2040
-289.062 -226.562 1177
109.375 304.688 1688
226.562 171.875 1297
-476.562 -312.5 1219
-234.375 265.625 1601
187.5 257.812 1594
-226.562 226.562 1705
-375 -296.875 1349
-460.938 -39.0625 1214
23.4375 171.875 1302
-312.5 -31.25 1219
93.75 304.688 1564
-343.75 -31.25 1214
164.062 -421.875 1349
-195.312 195.312 1739
-265.625 296.875 1616
-140.625 -312.5 1564
-164.062 335.938 1632
125 265.625 1579
-85.9375 304.688 1445
226.562 398.438 1523
179.688 312.5 1477
-54.6875 187.5 1317
78.125 304.688 1564
-226.562 -218.75 1219
-398.438 -164.062 1141
171.875 343.75 1639
-351.562 -242.188 1349
46.875 406.25 1523
93.75 312.5 1696
-62.5 46.875 1227
39.0625 289.062 1523
-234.375 -203.125 1210
132.812 320.312 1696
281.25 171.875 1292
125 320.312 1663
-7.8125 46.875 1227
-265.625 382.812 1536
46.875 289.062 1550
85.9375 -429.688 1354
101.562 320.312 1680
140.625 171.875 1292
101.562 304.688 1705
-23.4375 320.312 1663
171.875 218.75 1572
46.875 437.5 1516
164.062 304.688 1523
-23.4375 226.562 1516
101.562 406.25 1523
-234.375 304.688 1601
257.812 171.875 1297
109.375 54.6875 1219
203.125 54.6875 1219
187.5 54.6875 1219
335.938 -140.625 1509
-179.688 421.875 1523
-46.875 187.5 1307
-289.062 281.25 1624
140.625 437.5 1523
125 54.6875 1219
-304.688 406.25 1536
226.562 273.438 1557
-140.625 -23.4375 1214
-476.562 -210.938 1268
-23.4375 218.75 1529
-210.938 -31.25 1227
156.25 320.312 1516
187.5 -140.625 1278
-210.938 164.062 2053
-375 273.438 1696
-460.938 -328.125 1210
70.3125 273.438 1601
85.9375 406.25 1523
-476.562 406.25 1713
-273.438 421.875 1739
-367.188 -375 1370
-382.812 273.438 1696
-156.25 281.25 1663
-164.062 257.812 1632
-101.562 156.25 1302
-226.562 -31.25 1214
-148.438 -156.25 1134
125 406.25 1523
210.938 54.6875 1223
-70.3125 281.25 1572
70.3125 250 1509
125 304.688 1705
-351.562 265.625 1739
-7.8125 304.688 1489
-78.125 281.25 1421
-328.125 -31.25 1214
-187.5 296.875 1609
-171.875 265.625 1624
93.75 281.25 1543
78.125 -156.25 1523
-179.688 429.688 1748
171.875 304.688 1483
-343.75 -335.938 1302
-445.312 -359.375 1189
-437.5 -39.0625 1223
-54.6875 328.125 1655
210.938 289.062 1550
-203.125 304.688 1601
109.375 -148.438 1503
242.188 343.75 1445
429.688 -117.188 3576
-7.8125 187.5 1312
70.3125 -156.25 1516
-335.938 218.75 1776
-70.3125 242.188 1338
-476.562 382.812 1529
164.062 218.75 1564
-382.812 -281.25 1509
101.562 289.062 1536
-484.375 226.562 1483
101.562 250 1616
-39.0625 187.5 1307
-453.125 226.562 1483
-359.375 -39.0625 1223
125 171.875 1292
132.812 -320.312 1415
-156.25 -31.25 1223
460.938 -46.875 3178
125 -320.312 1415
226.562 281.25 1557
-320.312 -39.0625 1223
125 257.812 1601
140.625 312.5 1536
-484.375 7.8125 1189
164.062 171.875 1297
164.062 320.312 1516
148.438 265.625 1594
101.562 312.5 1696
156.25 171.875 1292
62.5 250 1516
492.188 -46.875 2859
-265.625 148.438 2040
125 -328.125 1410
-148.438 328.125 1647
85.9375 250 1632
164.062 250 1586
7.8125 171.875 1307
171.875 359.375 1609
-7.8125 343.75 1639
203.125 359.375 1609
210.938 265.625 1586
218.75 289.062 1550
-234.375 -171.875 1130
-453.125 296.875 1503
7.8125 203.125 1523
-101.562 46.875 1232
85.9375 -156.25 1523
390.625 -156.25 3539
-359.375 15.625 1181
-125 171.875 1302
187.5 312.5 1470
171.875 312.5 1477
-23.4375 46.875 1227
85.9375 312.5 1696
23.4375 -179.688 1536
70.3125 -179.688 1516
132.812 304.688 1536
62.5 -156.25 1516
-304.688 -39.0625 1223
-85.9375 46.875 1227
484.375 -250 3120
78.125 289.062 1564
-296.875 179.688 1926
-492.188 7.8125 1185
109.375 265.625 1616
-54.6875 312.5 1550
359.375 -140.625 1516
125 -257.812 1445
78.125 312.5 1696
39.0625 320.312 1663
-85.9375 -304.688 1557
39.0625 -164.062 1543
39.0625 406.25 1523
-140.625 -31.25 1227
148.438 312.5 1536
85.9375 320.312 1671
-421.875 -226.562 1273
93.75 265.625 1624
218.75 -382.812 1370
7.8125 320.312 1671
156.25 218.75 1557
-476.562 -7.8125 1173
109.375 257.812 1616
-101.562 164.062 1307
132.812 -257.812 1445
-7.8125 328.125 1663
187.5 320.312 1470
-148.438 320.312 1639
-54.6875 187.5 1317
109.375 -312.5 1421
-195.312 -171.875 1134
-125 -78.125 1177
-468.75 296.875 1503
226.562 289.062 1550
218.75 226.562 1557
-148.438 179.688 1959
-273.438 -171.875 1134
-421.875 312.5 1543
-93.75 7.8125 1173
101.562 257.812 1624
-31.25 328.125 1655
320.312 23.4375 1165
-23.4375 328.125 1663
-62.5 31.25 1177
109.375 312.5 1688
132.812 257.812 1601
31.25 406.25 1523
117.188 312.5 1696
-179.688 101.562 1993
117.188 257.812 1609
132.812 39.0625 1173
132.812 39.0625 1173
-15.625 328.125 1663
85.9375 257.812 1632
-70.3125 187.5 1312
117.188 289.062 1550
-203.125 273.438 1601
-78.125 320.312 1483
62.5 320.312 1671
-46.875 320.312 1663
117.188 304.688 1688
109.375 304.688 1688
-31.25 304.688 1529
-171.875 -156.25 1134
-273.438 148.438 2040
148.438 304.688 1536
-226.562 148.438 2040
195.312 304.688 1529
78.125 304.688 1564
-54.6875 320.312 1663
-54.6875 320.312 1663
85.9375 304.688 1572
-257.812 -31.25 1223
70.3125 304.688 1550
-39.0625 328.125 1655
-250 421.875 1523
-257.812 -203.125 1165
203.125 210.938 1586
-125 398.438 1536
148.438 320.312 1516
93.75 -429.688 1354
-429.688 -414.062 1381
-468.75 -210.938 1259
179.688 54.6875 1219
179.688 304.688 1477
132.812 -312.5 1421
-179.688 187.5 1739
343.75 187.5 1292
78.125 257.812 1543
-242.188 421.875 1523
187.5 218.75 1579
31.25 390.625 1550
-320.312 -320.312 1283
-320.312 -328.125 1288
218.75 304.688 1529
156.25 304.688 1536
-54.6875 273.438 1550
117.188 171.875 1292
70.3125 -148.438 1503
-156.25 156.25 2040
85.9375 289.062 1550
46.875 304.688 1543
226.562 250 1632
335.938 242.188 1328
-164.062 -23.4375 1210
93.75 304.688 1564
-328.125 164.062 1970
23.4375 406.25 1523
78.125 406.25 1523
70.3125 406.25 1529
-78.125 429.688 1523
-460.938 -210.938 1259
0 367.188 1594
-445.312 -210.938 1264
187.5 398.438 1536
-429.688 -31.25 1197
-62.5 429.688 1523
117.188 320.312 1671
-132.812 312.5 1671
-312.5 -242.188 1343
-23.4375 234.375 1509
70.3125 289.062 1550
-39.0625 304.688 1529
-320.312 148.438 2028
-195.312 187.5 1739
-296.875 421.875 1739
62.5 304.688 1550
179.688 218.75 1572
-304.688 -242.188 1338
-296.875 -304.688 1317
218.75 265.625 1594
62.5 265.625 1543
132.812 312.5 1536
101.562 265.625 1624
234.375 289.062 1550
-429.688 -39.0625 1219
101.562 171.875 1292
468.75 -140.625 3468
93.75 -148.438 1489
93.75 171.875 1292
-78.125 187.5 1317
179.688 312.5 1477
210.938 15.625 1169
-367.188 -31.25 1210
164.062 304.688 1523
-460.938 304.688 1509
39.0625 304.688 1529
-429.688 226.562 1731
-429.688 234.375 1739
54.6875 406.25 1523
0 320.312 1671
171.875 304.688 1483
-62.5 -62.5 1283
-492.188 335.938 1503
179.688 226.562 1572
93.75 257.812 1624
-296.875 -31.25 1219
242.188 335.938 1445
179.688 265.625 1594
