ply
format ascii 1.0
comment Created by Open3D
element vertex 2358
property double x
property double y
property double z
end_header
109.375 -171.875 1863
164.062 31.25 1586
359.375 -7.8125 1731
-117.188 296.875 1705
101.562 -265.625 1833
218.75 -195.312 1705
78.125 406.25 1804
125 7.8125 1536
179.688 23.4375 1586
62.5 -148.438 1883
289.062 -171.875 2078
-39.0625 23.4375 1601
421.875 -31.25 1776
281.25 -85.9375 1616
476.562 15.625 1823
62.5 101.562 1509
445.312 257.812 2129
-117.188 265.625 1489
437.5 265.625 2129
140.625 250 1705
148.438 250 2129
484.375 62.5 1863
429.688 -398.438 3816
15.625 -23.4375 1564
453.125 117.188 1915
234.375 312.5 2053
187.5 -187.5 1663
382.812 296.875 2065
140.625 31.25 1586
-54.6875 31.25 1572
-156.25 320.312 1470
-148.438 140.625 1410
312.5 -125 1757
250 -210.938 1823
156.25 31.25 1586
-7.8125 -132.812 1970
-46.875 31.25 1572
171.875 375 1883
390.625 218.75 1970
218.75 -203.125 1696
429.688 242.188 2226
39.0625 -109.375 1647
148.438 -109.375 1696
-164.062 148.438 1398
226.562 -218.75 1696
-39.0625 15.625 1616
492.188 7.8125 1823
210.938 195.312 2450
281.25 -179.688 2078
0 171.875 1509
414.062 -15.625 1804
7.8125 -15.625 1572
23.4375 226.562 1572
367.188 -15.625 1731
210.938 15.625 1609
367.188 265.625 2005
242.188 242.188 2065
203.125 -117.188 1722
62.5 54.6875 1516
156.25 54.6875 1536
-476.562 15.625 3433
54.6875 7.8125 1496
-156.25 289.062 1464
140.625 85.9375 1523
-148.438 328.125 1489
39.0625 296.875 1981
-15.625 85.9375 1433
-7.8125 -109.375 1696
78.125 70.3125 1477
312.5 -93.75 1663
54.6875 54.6875 1516
-117.188 304.688 1696
476.562 -273.438 3614
414.062 -289.062 3859
-132.812 343.75 1601
-46.875 242.188 1523
210.938 -70.3125 1557
390.625 203.125 1970
-54.6875 23.4375 1594
46.875 0 1509
-226.562 390.625 1833
117.188 367.188 1804
195.312 23.4375 1601
210.938 -171.875 1696
31.25 78.125 1458
296.875 -171.875 2090
492.188 -15.625 1823
320.312 -93.75 1663
54.6875 234.375 1594
304.688 23.4375 1647
62.5 -7.8125 1516
125 -7.8125 1536
-23.4375 -78.125 1543
382.812 -15.625 1731
453.125 -7.8125 1776
-117.188 328.125 1624
125 0 1529
-117.188 320.312 1663
148.438 179.688 1639
312.5 -78.125 1632
-117.188 281.25 1757
148.438 -203.125 1671
-117.188 257.812 1489
414.062 -132.812 1813
39.0625 -7.8125 1529
-148.438 351.562 1503
-70.3125 -31.25 1624
-101.562 343.75 1616
257.812 46.875 1609
281.25 -218.75 4349
70.3125 -203.125 1823
179.688 -226.562 1663
-31.25 117.188 1464
429.688 -109.375 1739
-296.875 70.3125 1470
85.9375 23.4375 1516
-23.4375 15.625 1632
328.125 -85.9375 1647
85.9375 210.938 1609
-54.6875 179.688 1489
125 328.125 1785
375 -281.25 2090
171.875 -70.3125 1543
226.562 70.3125 1586
210.938 312.5 2065
39.0625 -85.9375 1516
62.5 -78.125 1529
39.0625 304.688 1993
-46.875 398.438 1813
31.25 62.5 1483
-437.5 335.938 2226
39.0625 281.25 1981
-39.0625 328.125 1993
140.625 335.938 1823
453.125 125 1915
-109.375 343.75 1594
109.375 -93.75 1655
390.625 -140.625 1843
257.812 242.188 2103
54.6875 218.75 1594
156.25 -109.375 1696
39.0625 46.875 1523
218.75 234.375 2078
296.875 -257.812 2226
-15.625 117.188 1477
-31.25 0 1601
-78.125 265.625 1509
250 7.8125 1639
148.438 31.25 1586
15.625 234.375 1564
-398.438 335.938 2241
171.875 265.625 2090
125 46.875 1543
-132.812 296.875 1722
476.562 -250 3614
-164.062 195.312 1421
203.125 -226.562 1671
101.562 -273.438 1843
-148.438 343.75 1496
203.125 187.5 2485
54.6875 -78.125 1516
-46.875 93.75 1415
-7.8125 85.9375 1433
-78.125 250 1509
164.062 -156.25 1680
-125 312.5 1671
492.188 179.688 2129
343.75 -117.188 1731
468.75 187.5 2226
-85.9375 7.8125 1639
70.3125 257.812 1843
203.125 203.125 2170
460.938 250 2198
289.062 7.8125 1680
140.625 250 1705
-7.8125 15.625 1632
-54.6875 93.75 1410
85.9375 -78.125 1543
-101.562 335.938 1624
429.688 265.625 2143
125 -15.625 1543
437.5 304.688 2116
304.688 -296.875 4295
203.125 304.688 2065
-117.188 265.625 1489
31.25 109.375 1458
-46.875 257.812 1529
445.312 171.875 2241
-85.9375 265.625 1503
101.562 -101.562 1671
85.9375 101.562 1529
78.125 289.062 1813
148.438 140.625 1616
39.0625 15.625 1509
-250 390.625 2116
250 242.188 2065
54.6875 226.562 1594
-109.375 273.438 1489
343.75 -156.25 1794
132.812 367.188 1853
140.625 -117.188 1688
62.5 0 1509
171.875 -54.6875 1543
328.125 -296.875 2184
46.875 101.562 1470
46.875 -46.875 1543
156.25 78.125 1550
-70.3125 -39.0625 1624
117.188 23.4375 1536
257.812 62.5 1655
148.438 -226.562 1663
-375 0 3614
281.25 -242.188 4405
-46.875 140.625 1470
242.188 210.938 2184
398.438 -109.375 1731
359.375 -101.562 1696
492.188 -7.8125 1813
-39.0625 -78.125 1543
-429.688 7.8125 3539
273.438 0 1647
109.375 15.625 1516
-31.25 -78.125 1543
117.188 -257.812 1843
-101.562 289.062 1739
390.625 -109.375 1731
-125 140.625 1421
296.875 -140.625 1863
429.688 -39.0625 1776
484.375 -7.8125 1804
23.4375 39.0625 1536
85.9375 -31.25 1509
156.25 -117.188 1696
421.875 -132.812 1813
39.0625 296.875 1981
-78.125 257.812 1509
-117.188 335.938 1609
-414.062 335.938 2226
484.375 39.0625 1883
429.688 7.8125 1757
429.688 -125 1766
23.4375 78.125 1452
85.9375 -62.5 1516
46.875 -109.375 1639
375 -23.4375 1731
414.062 -109.375 1739
-320.312 421.875 2016
-335.938 7.8125 1655
-85.9375 273.438 1785
54.6875 46.875 1516
-39.0625 117.188 1458
453.125 273.438 2116
117.188 -179.688 1853
70.3125 406.25 1804
78.125 -289.062 1873
109.375 54.6875 1523
226.562 -132.812 1731
54.6875 -70.3125 1516
93.75 -289.062 1843
-117.188 343.75 1601
343.75 -15.625 1705
492.188 62.5 1863
-156.25 289.062 1464
367.188 -23.4375 1722
320.312 289.062 2103
-148.438 328.125 1489
203.125 -117.188 1722
453.125 140.625 2226
-85.9375 257.812 1503
31.25 -179.688 1883
54.6875 414.062 1785
312.5 0 1696
23.4375 -7.8125 1550
46.875 414.062 1776
460.938 148.438 2226
78.125 -148.438 1853
382.812 343.75 2256
-7.8125 39.0625 1550
437.5 -257.812 2103
93.75 281.25 1766
304.688 -171.875 2078
62.5 46.875 1516
148.438 171.875 1639
203.125 -101.562 1663
85.9375 -132.812 1804
-492.188 15.625 2485
93.75 101.562 1543
117.188 7.8125 1523
187.5 -210.938 1655
460.938 7.8125 1776
492.188 234.375 2184
437.5 328.125 2286
-156.25 328.125 1489
-117.188 289.062 1731
203.125 265.625 2053
445.312 125 1894
296.875 0 1671
304.688 0 1680
382.812 -109.375 1731
367.188 -101.562 1696
242.188 7.8125 1632
250 46.875 1609
-7.8125 0 1586
15.625 7.8125 1509
117.188 203.125 1632
-156.25 320.312 1470
-23.4375 -164.062 2016
328.125 46.875 1671
414.062 -31.25 1766
-15.625 15.625 1632
62.5 -273.438 1853
39.0625 -78.125 1516
265.625 226.562 2156
46.875 -78.125 1516
46.875 -7.8125 1516
-109.375 101.562 1381
-148.438 343.75 1496
304.688 -7.8125 1680
414.062 273.438 2129
359.375 -273.438 2090
70.3125 273.438 1776
484.375 0 1804
132.812 289.062 1748
414.062 289.062 2078
31.25 242.188 1833
476.562 93.75 1926
-46.875 250 1529
70.3125 85.9375 1470
-62.5 93.75 1404
289.062 328.125 1981
289.062 -85.9375 1616
7.8125 -85.9375 1503
164.062 -117.188 1696
125 0 1529
70.3125 -117.188 1609
281.25 -218.75 4405
-101.562 273.438 1503
-23.4375 257.812 1785
-125 281.25 1739
62.5 234.375 1873
-328.125 62.5 1936
23.4375 0 1543
-7.8125 171.875 1503
-343.75 328.125 2286
0 109.375 1439
335.938 -15.625 1696
-85.9375 328.125 1639
132.812 273.438 1739
328.125 -140.625 1776
406.25 -117.188 1748
406.25 -132.812 1813
492.188 -109.375 2016
289.062 -250 4349
-46.875 -39.0625 1594
390.625 -281.25 2065
382.812 273.438 2016
85.9375 46.875 1529
398.438 -31.25 1748
78.125 -265.625 1833
-156.25 421.875 1550
-125 296.875 1731
-125 296.875 1731
195.312 242.188 2116
242.188 -117.188 1713
250 -203.125 1823
421.875 -390.625 3816
85.9375 39.0625 1550
359.375 289.062 2028
109.375 31.25 1529
429.688 132.812 1883
15.625 -179.688 2028
-328.125 328.125 2286
-31.25 -31.25 1586
-132.812 265.625 1477
-54.6875 281.25 1766
-156.25 335.938 1496
7.8125 -23.4375 1572
23.4375 -31.25 1557
437.5 156.25 2226
-148.438 351.562 1496
351.562 -7.8125 1722
476.562 171.875 2241
-328.125 421.875 2016
226.562 -78.125 1579
445.312 203.125 2365
164.062 156.25 1632
7.8125 273.438 1748
429.688 109.375 1883
289.062 -265.625 4405
328.125 -156.25 1804
335.938 -296.875 2170
367.188 273.438 2016
367.188 273.438 2016
445.312 273.438 2129
101.562 187.5 1609
203.125 -125 1722
468.75 156.25 2241
195.312 187.5 2503
-78.125 -117.188 1688
93.75 -31.25 1516
-7.8125 54.6875 1503
234.375 -78.125 1579
187.5 -70.3125 1550
-156.25 265.625 1458
-31.25 218.75 1523
0 289.062 1722
70.3125 15.625 1496
-31.25 242.188 1529
-62.5 0 1586
164.062 62.5 1536
132.812 164.062 1609
429.688 -203.125 2156
7.8125 171.875 1516
265.625 15.625 1663
351.562 -101.562 1688
453.125 0 1766
187.5 -109.375 1696
210.938 15.625 1609
156.25 164.062 1632
-46.875 242.188 1523
-70.3125 -31.25 1601
140.625 -171.875 1713
117.188 343.75 1785
-15.625 242.188 1550
203.125 312.5 2065
117.188 382.812 1804
125 390.625 1843
23.4375 7.8125 1529
-109.375 328.125 1624
-164.062 218.75 1427
-39.0625 7.8125 1609
414.062 23.4375 1739
250 -195.312 1813
7.8125 23.4375 1601
156.25 -203.125 1671
70.3125 70.3125 1470
289.062 -242.188 4349
-164.062 148.438 1398
406.25 -23.4375 1757
492.188 -93.75 1993
-93.75 -70.3125 1609
-15.625 234.375 1550
-15.625 -117.188 1696
375 242.188 1970
453.125 156.25 2241
320.312 46.875 1655
289.062 -257.812 4349
-156.25 367.188 1516
460.938 0 1766
242.188 -78.125 1586
148.438 171.875 1639
148.438 171.875 1639
54.6875 109.375 1516
218.75 218.75 2184
218.75 218.75 2184
273.438 234.375 2103
-164.062 156.25 1398
7.8125 429.688 1739
148.438 164.062 1632
7.8125 281.25 1748
-23.4375 -132.812 2040
187.5 218.75 2184
140.625 -179.688 1696
179.688 -117.188 1696
164.062 257.812 2090
-85.9375 -7.8125 1609
468.75 179.688 2271
125 -7.8125 1529
398.438 -304.688 3994
406.25 -304.688 3948
414.062 179.688 2065
-46.875 179.688 1489
-250 359.375 2129
132.812 281.25 1739
132.812 281.25 1739
-62.5 -7.8125 1586
-62.5 -7.8125 1586
195.312 -171.875 1671
-257.812 414.062 2040
-23.4375 -148.438 2028
437.5 -273.438 2103
210.938 23.4375 1616
-156.25 359.375 1503
484.375 70.3125 1915
7.8125 273.438 1785
-70.3125 0 1601
46.875 23.4375 1509
265.625 46.875 1609
210.938 234.375 2078
171.875 132.812 1616
-46.875 242.188 1523
210.938 -187.5 1696
54.6875 351.562 1947
39.0625 281.25 1748
218.75 234.375 2078
218.75 -132.812 1739
46.875 281.25 1757
-70.3125 328.125 1639
210.938 15.625 1609
156.25 257.812 2116
320.312 -132.812 1785
-85.9375 257.812 1496
39.0625 265.625 1804
-54.6875 265.625 1776
-156.25 265.625 1464
-54.6875 281.25 1766
-156.25 289.062 1464
-156.25 312.5 1470
70.3125 -117.188 1601
70.3125 273.438 1776
-148.438 328.125 1489
-54.6875 296.875 1696
-23.4375 320.312 2028
-156.25 320.312 1483
15.625 7.8125 1523
250 242.188 2103
-54.6875 304.688 1696
140.625 335.938 1813
46.875 -7.8125 1509
-101.562 -85.9375 1601
-23.4375 273.438 1776
-70.3125 335.938 1639
-85.9375 273.438 1776
437.5 -257.812 2090
328.125 23.4375 1663
-343.75 328.125 2286
437.5 -265.625 2090
132.812 273.438 1739
-39.0625 304.688 2090
-148.438 351.562 1503
-46.875 273.438 1757
-148.438 343.75 1516
-156.25 304.688 1458
-117.188 265.625 1483
-156.25 343.75 1496
-7.8125 0 1586
31.25 46.875 1523
39.0625 46.875 1523
-85.9375 -54.6875 1609
-85.9375 -54.6875 1609
31.25 -257.812 1873
156.25 -109.375 1639
-54.6875 281.25 1766
-15.625 62.5 1483
148.438 23.4375 1594
54.6875 218.75 1579
70.3125 15.625 1489
398.438 -31.25 1748
257.812 -187.5 1804
273.438 0 1647
250 -210.938 1813
7.8125 265.625 1794
-343.75 -23.4375 1722
-156.25 335.938 1496
-117.188 281.25 1731
-156.25 273.438 1464
125 7.8125 1543
-46.875 250 1536
-148.438 335.938 1496
7.8125 23.4375 1601
179.688 23.4375 1586
78.125 289.062 1776
-23.4375 257.812 1843
187.5 -226.562 1663
39.0625 257.812 1843
242.188 242.188 2053
93.75 281.25 1776
62.5 0 1496
281.25 -179.688 2090
70.3125 289.062 1776
39.0625 265.625 1804
31.25 -242.188 1873
-78.125 250 1509
-78.125 265.625 1496
304.688 0 1680
46.875 -109.375 1639
-140.625 351.562 1503
125 289.062 1739
117.188 -234.375 1813
421.875 -31.25 1766
39.0625 304.688 1713
-132.812 343.75 1926
242.188 7.8125 1632
195.312 -125 1713
171.875 265.625 2090
156.25 31.25 1579
-281.25 375 2143
359.375 -15.625 1722
140.625 -218.75 1671
-54.6875 265.625 1776
132.812 23.4375 1601
257.812 242.188 2078
117.188 203.125 1632
-70.3125 -31.25 1601
-148.438 328.125 1489
-148.438 328.125 1489
-70.3125 265.625 1523
31.25 -179.688 1883
-7.8125 -109.375 1688
85.9375 210.938 1609
-85.9375 0 1624
296.875 0 1663
390.625 -210.938 2103
406.25 -23.4375 1766
-54.6875 296.875 1696
-351.562 -39.0625 1804
140.625 -78.125 1579
343.75 -117.188 1731
-62.5 0 1594
39.0625 -7.8125 1523
375 -23.4375 1731
210.938 78.125 1639
-460.938 -226.562 3238
-15.625 257.812 1776
-15.625 320.312 2016
-15.625 265.625 1776
-109.375 273.438 1766
-117.188 257.812 1483
-156.25 289.062 1464
195.312 23.4375 1609
85.9375 23.4375 1516
250 242.188 2103
-15.625 234.375 1543
23.4375 265.625 1804
-15.625 0 1609
453.125 281.25 2129
234.375 -78.125 1579
-62.5 265.625 1529
39.0625 -78.125 1503
-31.25 257.812 1785
-54.6875 304.688 1696
46.875 -78.125 1509
70.3125 257.812 1853
335.938 -15.625 1696
148.438 -226.562 1671
54.6875 -109.375 1632
-375 0 3614
-156.25 328.125 1489
265.625 23.4375 1632
-78.125 257.812 1496
242.188 210.938 2184
210.938 15.625 1609
164.062 257.812 2116
148.438 250 2170
242.188 203.125 2184
-46.875 257.812 1536
93.75 -242.188 1813
148.438 171.875 1639
-54.6875 281.25 1766
242.188 242.188 2053
85.9375 -109.375 1601
-429.688 7.8125 3503
-78.125 281.25 1766
-140.625 343.75 1509
0 171.875 1503
-148.438 335.938 1496
70.3125 273.438 1833
-320.312 421.875 2016
320.312 -140.625 1785
-414.062 335.938 2226
429.688 -125 1776
39.0625 289.062 1731
-15.625 312.5 1688
-148.438 312.5 1464
101.562 -101.562 1671
-85.9375 273.438 1776
-148.438 140.625 1410
-148.438 320.312 1483
-101.562 320.312 1655
15.625 312.5 1705
-78.125 -85.9375 1586
312.5 0 1696
-140.625 351.562 1516
125 0 1529
39.0625 31.25 1516
-46.875 265.625 1794
-328.125 328.125 2286
46.875 265.625 1804
-15.625 296.875 1731
-156.25 320.312 1483
304.688 -7.8125 1671
140.625 250 1713
23.4375 -140.625 1873
148.438 31.25 1579
250 7.8125 1639
23.4375 7.8125 1523
-62.5 304.688 1696
-109.375 289.062 1731
78.125 23.4375 1503
257.812 242.188 2078
234.375 15.625 1647
164.062 31.25 1579
-70.3125 -39.0625 1632
203.125 -117.188 1722
359.375 -101.562 1680
31.25 46.875 1516
234.375 242.188 2078
-132.812 328.125 1616
-46.875 250 1523
281.25 0 1663
-109.375 328.125 1624
-39.0625 -78.125 1550
39.0625 -85.9375 1496
-132.812 242.188 1470
335.938 -7.8125 1705
109.375 15.625 1523
-15.625 281.25 1766
460.938 7.8125 1776
312.5 -125 1739
62.5 -78.125 1523
-117.188 281.25 1739
-195.312 117.188 1333
-109.375 335.938 1616
-93.75 -70.3125 1616
-31.25 -31.25 1594
7.8125 -23.4375 1572
109.375 -93.75 1647
242.188 -78.125 1579
351.562 -140.625 1766
-398.438 335.938 2241
93.75 -257.812 1813
-156.25 304.688 1464
117.188 343.75 1785
-31.25 281.25 1757
-54.6875 23.4375 1586
93.75 0 1503
-39.0625 304.688 2078
312.5 -7.8125 1680
367.188 -23.4375 1731
-335.938 117.188 3149
39.0625 281.25 1748
125 -85.9375 1616
-46.875 281.25 1766
-39.0625 -117.188 1705
62.5 -273.438 1853
93.75 23.4375 1516
-367.188 0 3653
54.6875 296.875 1722
-78.125 273.438 1776
-31.25 218.75 1523
226.562 -78.125 1572
39.0625 15.625 1516
343.75 -156.25 1785
15.625 7.8125 1557
218.75 218.75 2184
-46.875 242.188 1523
-46.875 296.875 1731
273.438 -179.688 2053
-15.625 304.688 1705
-7.8125 -23.4375 1579
-320.312 15.625 1586
117.188 203.125 1639
-15.625 289.062 1739
-46.875 -78.125 1557
-437.5 335.938 2226
203.125 23.4375 1624
-39.0625 328.125 1993
46.875 296.875 1731
70.3125 70.3125 1470
-39.0625 -31.25 1601
140.625 31.25 1579
-15.625 320.312 2016
-31.25 320.312 2028
406.25 -31.25 1757
-15.625 296.875 1731
7.8125 -78.125 1516
382.812 -140.625 1853
-109.375 265.625 1483
54.6875 414.062 1776
46.875 281.25 1757
171.875 -109.375 1671
-78.125 257.812 1516
-7.8125 15.625 1624
-70.3125 265.625 1523
0 -23.4375 1572
117.188 -179.688 1853
281.25 -85.9375 1609
-93.75 273.438 1794
-70.3125 -7.8125 1594
46.875 -125 1639
148.438 -109.375 1671
429.688 -39.0625 1776
343.75 -15.625 1705
351.562 -7.8125 1731
453.125 140.625 2212
0 312.5 1688
375 -23.4375 1731
-109.375 281.25 1739
-31.25 117.188 1427
351.562 -101.562 1680
-39.0625 15.625 1609
414.062 273.438 2129
54.6875 46.875 1523
-140.625 343.75 1509
125 343.75 1794
187.5 -226.562 1655
218.75 15.625 1616
375 242.188 1981
39.0625 31.25 1516
140.625 85.9375 1572
-15.625 312.5 1688
320.312 -125 1739
-23.4375 312.5 2053
54.6875 -70.3125 1523
-46.875 265.625 1794
39.0625 296.875 1722
-39.0625 242.188 1523
195.312 296.875 2065
375 -15.625 1739
460.938 250 2184
429.688 109.375 1894
46.875 -54.6875 1543
-7.8125 -109.375 1696
101.562 93.75 1543
70.3125 -117.188 1601
320.312 -93.75 1647
117.188 7.8125 1523
85.9375 93.75 1483
-46.875 93.75 1415
-85.9375 265.625 1509
54.6875 281.25 1739
-148.438 343.75 1509
-93.75 335.938 1616
476.562 93.75 1926
273.438 234.375 2103
117.188 -257.812 1833
250 218.75 2184
398.438 -109.375 1722
-359.375 -54.6875 1833
-492.188 15.625 2485
62.5 101.562 1516
-148.438 304.688 1464
46.875 304.688 1739
46.875 101.562 1464
-39.0625 7.8125 1601
117.188 382.812 1823
15.625 312.5 1705
-70.3125 250 1516
46.875 265.625 1804
-7.8125 -148.438 1947
93.75 281.25 1776
203.125 -125 1713
-125 343.75 1616
437.5 304.688 2116
-31.25 -78.125 1536
62.5 218.75 1594
187.5 23.4375 1601
414.062 -23.4375 1776
210.938 226.562 2078
335.938 -164.062 1794
250 7.8125 1639
164.062 156.25 1632
171.875 -70.3125 1543
328.125 -140.625 1776
54.6875 218.75 1572
242.188 218.75 2184
156.25 164.062 1632
46.875 296.875 1731
390.625 -109.375 1713
46.875 -7.8125 1516
-148.438 320.312 1483
242.188 242.188 2053
-46.875 171.875 1489
382.812 -15.625 1739
429.688 265.625 2129
31.25 -187.5 1894
234.375 242.188 2078
281.25 -179.688 2103
406.25 195.312 2053
210.938 -117.188 1722
281.25 7.8125 1671
62.5 421.875 1776
-39.0625 250 1523
296.875 -132.812 1823
296.875 -132.812 1823
125 328.125 1794
109.375 -171.875 1863
242.188 15.625 1647
85.9375 -78.125 1543
-46.875 281.25 1766
132.812 281.25 1757
234.375 203.125 2184
-70.3125 -31.25 1594
148.438 179.688 1647
-140.625 328.125 1483
210.938 23.4375 1616
312.5 0 1696
0 312.5 1688
46.875 281.25 1757
265.625 -85.9375 1601
39.0625 -7.8125 1516
273.438 7.8125 1663
39.0625 0 1509
62.5 -148.438 1863
-15.625 304.688 1705
132.812 289.062 1748
-78.125 273.438 1776
-109.375 328.125 1624
171.875 31.25 1579
46.875 0 1503
187.5 -70.3125 1543
492.188 234.375 2184
39.0625 -179.688 1894
-46.875 273.438 1776
-7.8125 320.312 1688
-46.875 23.4375 1586
187.5 -210.938 1655
390.625 -210.938 2116
-109.375 257.812 1483
343.75 -7.8125 1722
39.0625 289.062 1731
-109.375 -70.3125 1936
-46.875 296.875 1731
-101.562 273.438 1739
148.438 171.875 1639
273.438 -85.9375 1609
78.125 257.812 1804
109.375 0 1516
-117.188 335.938 1616
210.938 289.062 2040
-101.562 343.75 1609
54.6875 -125 1632
179.688 -70.3125 1543
78.125 -289.062 1863
226.562 -218.75 1696
351.562 -15.625 1713
-85.9375 -7.8125 1609
273.438 -179.688 2053
304.688 0 1680
132.812 -46.875 1616
-31.25 304.688 2078
39.0625 -70.3125 1529
312.5 -93.75 1655
85.9375 39.0625 1550
460.938 140.625 2212
226.562 70.3125 1586
164.062 125 1609
-15.625 289.062 1739
-62.5 62.5 1470
382.812 -23.4375 1739
453.125 101.562 1904
46.875 296.875 1731
289.062 0 1671
257.812 7.8125 1639
15.625 171.875 1516
-140.625 335.938 1496
-109.375 296.875 1696
140.625 -39.0625 1594
140.625 -171.875 1696
46.875 289.062 1731
93.75 210.938 1616
-15.625 382.812 1853
281.25 -218.75 4349
398.438 132.812 1915
7.8125 7.8125 1557
398.438 187.5 1947
-54.6875 93.75 1410
328.125 46.875 1671
125 0 1529
148.438 -203.125 1688
140.625 -179.688 1696
31.25 15.625 1516
453.125 140.625 2212
-15.625 117.188 1489
250 15.625 1655
218.75 -132.812 1731
218.75 -132.812 1731
70.3125 -273.438 1853
367.188 273.438 2016
-39.0625 273.438 1776
-46.875 -117.188 1722
484.375 39.0625 1883
296.875 -257.812 2271
203.125 -70.3125 1550
-70.3125 257.812 1523
328.125 -148.438 1794
414.062 -109.375 1722
-31.25 320.312 2028
-242.188 125 1312
78.125 -78.125 1529
-39.0625 304.688 2078
-7.8125 312.5 1688
-46.875 226.562 1516
320.312 -7.8125 1696
-62.5 312.5 1696
414.062 85.9375 1863
187.5 -187.5 1663
15.625 -23.4375 1572
-23.4375 -148.438 2005
156.25 171.875 1647
359.375 -7.8125 1739
7.8125 304.688 1688
-54.6875 125 1452
-15.625 273.438 1776
-7.8125 265.625 1804
437.5 -265.625 2078
-117.188 289.062 1722
-62.5 0 1586
164.062 -39.0625 1550
-140.625 296.875 1470
195.312 -171.875 1671
70.3125 281.25 1766
-31.25 179.688 1489
343.75 -117.188 1731
132.812 343.75 1833
15.625 289.062 1739
23.4375 7.8125 1516
164.062 31.25 1579
265.625 15.625 1655
0 234.375 1557
-78.125 289.062 1748
-148.438 328.125 1489
453.125 132.812 2226
148.438 164.062 1632
421.875 289.062 2078
-54.6875 289.062 1739
250 -78.125 1594
179.688 23.4375 1586
250 -195.312 1804
234.375 210.938 2184
398.438 281.25 2103
453.125 273.438 2129
203.125 23.4375 1609
429.688 171.875 2116
-125 289.062 1731
484.375 23.4375 1873
179.688 -242.188 1873
351.562 -132.812 1739
382.812 218.75 1970
101.562 -406.25 3859
437.5 -257.812 2078
-78.125 250 1509
-39.0625 367.188 1894
39.0625 -46.875 1543
312.5 -7.8125 1680
-15.625 -117.188 1696
281.25 0 1663
-39.0625 328.125 1993
-70.3125 0 1601
421.875 164.062 2129
15.625 281.25 1776
-109.375 265.625 1489
367.188 -101.562 1688
-109.375 281.25 1748
125 -7.8125 1529
-242.188 382.812 2129
-23.4375 -78.125 1536
-39.0625 367.188 1894
164.062 148.438 1624
-93.75 289.062 1739
289.062 -85.9375 1616
-15.625 257.812 1833
31.25 -39.0625 1543
-46.875 265.625 1794
171.875 -187.5 1655
46.875 31.25 1503
195.312 -125 1705
234.375 70.3125 1647
-164.062 156.25 1398
7.8125 -23.4375 1572
414.062 -31.25 1757
406.25 195.312 1981
335.938 -164.062 1785
117.188 62.5 1503
382.812 289.062 2078
62.5 -62.5 1516
-85.9375 -7.8125 1601
468.75 312.5 2333
-70.3125 -7.8125 1601
31.25 -46.875 1550
382.812 -140.625 1843
-93.75 -70.3125 1609
343.75 -296.875 2143
265.625 242.188 2078
23.4375 257.812 1823
421.875 -23.4375 1794
382.812 -15.625 1739
320.312 0 1696
7.8125 171.875 1516
46.875 -54.6875 1529
-164.062 164.062 1404
171.875 85.9375 1609
179.688 -109.375 1688
-54.6875 187.5 1496
-78.125 265.625 1516
437.5 -46.875 1766
70.3125 15.625 1496
468.75 187.5 2241
375 250 1959
156.25 -203.125 1663
218.75 -125 1757
-85.9375 0 1601
54.6875 -78.125 1516
210.938 226.562 2078
140.625 -132.812 1705
437.5 -250 2129
-187.5 421.875 1529
-187.5 117.188 1338
156.25 101.562 1586
406.25 -109.375 1731
-78.125 -23.4375 1601
54.6875 101.562 1509
195.312 281.25 2053
351.562 382.812 2143
-85.9375 -54.6875 1616
445.312 171.875 2256
-164.062 148.438 1398
195.312 -70.3125 1550
78.125 406.25 1804
476.562 171.875 2226
-85.9375 -15.625 1601
351.562 -15.625 1713
-164.062 140.625 1398
109.375 -46.875 1557
328.125 -93.75 1647
140.625 -218.75 1671
-140.625 351.562 1503
-257.812 398.438 2078
312.5 -296.875 2226
-85.9375 -46.875 1624
-23.4375 -125 1696
-351.562 -39.0625 1794
-70.3125 -23.4375 1594
70.3125 0 1503
281.25 -85.9375 1616
210.938 -140.625 1731
453.125 125 1926
203.125 -132.812 1713
-70.3125 0 1601
-70.3125 0 1601
320.312 -164.062 1804
289.062 7.8125 1680
273.438 -210.938 4349
-101.562 -85.9375 1601
148.438 -203.125 1680
203.125 -171.875 1696
140.625 -140.625 1705
-359.375 -54.6875 1843
46.875 -54.6875 1529
140.625 -164.062 1705
179.688 265.625 2078
117.188 273.438 1731
125 289.062 1739
62.5 46.875 1523
164.062 -23.4375 1550
148.438 101.562 1586
78.125 -265.625 1833
31.25 -54.6875 1550
148.438 171.875 1639
273.438 234.375 2116
-250 390.625 2116
437.5 281.25 2116
453.125 156.25 2241
156.25 109.375 1601
289.062 -242.188 4463
210.938 -203.125 1688
203.125 -203.125 1671
195.312 -226.562 1671
164.062 -31.25 1550
234.375 -78.125 1579
460.938 179.688 2241
70.3125 15.625 1496
-93.75 -70.3125 1609
140.625 -148.438 1705
140.625 -117.188 1671
171.875 -46.875 1543
460.938 148.438 2226
367.188 281.25 2028
390.625 -281.25 2078
54.6875 -93.75 1550
171.875 132.812 2450
265.625 226.562 2129
-320.312 15.625 1601
398.438 156.25 1926
164.062 148.438 1624
320.312 -7.8125 1696
351.562 -7.8125 1722
164.062 -15.625 1557
289.062 0 1663
101.562 7.8125 1503
31.25 0 1523
23.4375 7.8125 1516
23.4375 226.562 1572
54.6875 -226.562 1823
46.875 23.4375 1503
359.375 -15.625 1713
70.3125 39.0625 1496
54.6875 -234.375 1833
125 218.75 1688
328.125 -140.625 1776
226.562 -218.75 1696
0 -132.812 1936
289.062 -250 4405
-304.688 39.0625 1523
226.562 -203.125 1696
-343.75 -23.4375 1722
156.25 164.062 1632
-156.25 343.75 1496
132.812 281.25 1748
125 -85.9375 1616
-85.9375 -54.6875 1616
39.0625 31.25 1516
-335.938 -15.625 1688
-273.438 93.75 1376
-46.875 179.688 1489
101.562 -273.438 1843
390.625 -15.625 1757
429.688 179.688 2028
-46.875 -117.188 1722
328.125 -125 1757
-453.125 15.625 3503
101.562 398.438 1823
-289.062 78.125 1445
-296.875 54.6875 1477
-70.3125 0 1601
382.812 -140.625 1843
148.438 250 2156
109.375 -39.0625 1529
-7.8125 -132.812 1970
70.3125 15.625 1496
148.438 179.688 1639
156.25 171.875 1647
445.312 257.812 2143
101.562 382.812 1813
125 226.562 1696
109.375 343.75 1785
148.438 -203.125 1680
375 242.188 1970
171.875 140.625 2450
460.938 -273.438 3653
187.5 -140.625 1696
140.625 140.625 1609
257.812 273.438 2065
117.188 281.25 1731
-23.4375 -140.625 2016
437.5 -117.188 1757
-429.688 46.875 3539
351.562 -296.875 2156
-62.5 -7.8125 1579
140.625 -132.812 1705
46.875 31.25 1503
218.75 218.75 2184
203.125 -171.875 1696
367.188 39.0625 1705
171.875 93.75 1609
304.688 -289.062 2212
109.375 -234.375 1813
171.875 101.562 1586
-343.75 -15.625 1722
375 250 1970
187.5 -203.125 1655
359.375 -101.562 1688
54.6875 23.4375 1496
-210.938 179.688 1398
-320.312 23.4375 1594
140.625 -125 1748
148.438 23.4375 1594
-156.25 367.188 1509
218.75 -132.812 1731
-31.25 179.688 1489
-46.875 -85.9375 1550
54.6875 15.625 1496
125 -250 1833
-289.062 62.5 1452
437.5 -226.562 2129
109.375 -93.75 1647
78.125 -226.562 1804
-39.0625 -23.4375 1594
23.4375 -15.625 1550
-70.3125 -7.8125 1594
78.125 -31.25 1509
171.875 85.9375 1601
398.438 148.438 1926
109.375 -7.8125 1516
-23.4375 -148.438 2028
226.562 -210.938 1688
-23.4375 -117.188 1688
304.688 -273.438 2226
445.312 273.438 2129
468.75 132.812 2241
39.0625 156.25 1536
-46.875 15.625 1601
476.562 7.8125 1794
460.938 101.562 1915
359.375 -117.188 1731
62.5 -70.3125 1523
273.438 226.562 2156
23.4375 31.25 1529
23.4375 -203.125 1883
171.875 109.375 1586
156.25 257.812 2156
-156.25 343.75 1496
-281.25 -359.375 3365
132.812 234.375 1696
375 257.812 1970
-85.9375 0 1632
-31.25 -7.8125 1601
-281.25 421.875 2028
382.812 -140.625 1823
-117.188 296.875 1688
156.25 117.188 1601
226.562 -203.125 1696
125 -23.4375 1536
132.812 289.062 1739
132.812 -46.875 1616
492.188 -234.375 3269
23.4375 -140.625 1873
367.188 281.25 2016
-156.25 328.125 1483
-265.625 101.562 1359
453.125 195.312 2333
-93.75 101.562 1387
132.812 242.188 1705
31.25 -39.0625 1543
164.062 164.062 1632
-257.812 117.188 1322
-328.125 0 1647
-273.438 414.062 2065
335.938 -164.062 1794
-109.375 320.312 1655
-15.625 -140.625 1970
140.625 -78.125 1579
273.438 -234.375 4463
46.875 -125 1804
-320.312 7.8125 1624
382.812 218.75 1970
101.562 -210.938 1813
226.562 -195.312 1705
-78.125 15.625 1609
148.438 179.688 1639
-156.25 375 1516
414.062 164.062 1926
476.562 265.625 2170
31.25 -46.875 1543
218.75 15.625 1609
-281.25 93.75 1387
-54.6875 -31.25 1601
210.938 -70.3125 1557
70.3125 -117.188 1609
31.25 78.125 1458
140.625 257.812 1713
-320.312 343.75 2241
406.25 62.5 1883
-156.25 296.875 1470
46.875 7.8125 1503
437.5 -226.562 2129
109.375 -46.875 1557
226.562 -218.75 1696
85.9375 -109.375 1572
-234.375 382.812 1843
-226.562 382.812 1843
-85.9375 -31.25 1632
7.8125 429.688 1739
257.812 -203.125 1833
367.188 -281.25 2090
-85.9375 -7.8125 1624
-85.9375 -62.5 1609
140.625 148.438 1609
437.5 265.625 2143
70.3125 7.8125 1496
132.812 23.4375 1609
93.75 -7.8125 1503
398.438 203.125 1970
-140.625 265.625 1470
46.875 23.4375 1503
62.5 0 1503
132.812 343.75 1813
78.125 289.062 1804
125 304.688 1748
234.375 242.188 2078
429.688 -390.625 3692
453.125 187.5 2333
-281.25 78.125 1415
101.562 -39.0625 1529
437.5 -234.375 2129
-93.75 -78.125 1601
125 234.375 1705
31.25 304.688 2005
85.9375 -226.562 1804
164.062 257.812 2143
0 -46.875 1543
148.438 187.5 1632
195.312 -210.938 1663
250 218.75 2184
171.875 101.562 1586
148.438 23.4375 1594
-156.25 218.75 1439
140.625 -46.875 1586
-31.25 187.5 1489
-234.375 375 1853
-156.25 242.188 1445
367.188 296.875 2028
132.812 250 1705
78.125 -70.3125 1516
85.9375 -70.3125 1523
-312.5 23.4375 1564
210.938 -140.625 1722
437.5 109.375 1894
468.75 289.062 2129
273.438 -179.688 2103
31.25 46.875 1523
-328.125 7.8125 1639
460.938 132.812 2241
460.938 132.812 2241
203.125 109.375 2450
-351.562 -31.25 1785
406.25 -23.4375 1757
414.062 171.875 2103
140.625 -62.5 1579
218.75 265.625 2065
343.75 -156.25 1794
140.625 328.125 1823
468.75 265.625 2156
78.125 375 1873
0 -140.625 1936
218.75 -125 1748
117.188 289.062 1739
93.75 -171.875 1863
78.125 273.438 1813
171.875 93.75 1609
140.625 179.688 1639
-156.25 312.5 1464
148.438 101.562 1579
-125 312.5 1671
-210.938 414.062 1586
242.188 15.625 1639
85.9375 289.062 1794
-453.125 23.4375 3503
375 257.812 1970
-156.25 281.25 1464
382.812 226.562 1970
39.0625 31.25 1523
406.25 125 1894
257.812 -195.312 1813
78.125 70.3125 1470
132.812 289.062 1739
132.812 289.062 1739
437.5 -250 2116
-304.688 414.062 2040
-109.375 312.5 1671
250 -210.938 1863
-304.688 406.25 2065
46.875 -85.9375 1516
85.9375 265.625 1813
210.938 -203.125 1680
-335.938 -15.625 1696
70.3125 -273.438 1843
148.438 195.312 1624
171.875 148.438 2450
320.312 -132.812 1785
273.438 148.438 2241
-203.125 429.688 1572
445.312 156.25 2241
46.875 0 1509
-23.4375 -125 1696
140.625 257.812 1713
164.062 156.25 1624
125 62.5 1516
62.5 -54.6875 1516
117.188 15.625 1523
171.875 125 1609
156.25 125 1609
-265.625 101.562 1359
382.812 -23.4375 1731
70.3125 -70.3125 1516
-156.25 359.375 1496
445.312 -109.375 1739
-359.375 -54.6875 1843
-304.688 39.0625 1523
-343.75 -31.25 1757
-359.375 -46.875 1813
-31.25 -7.8125 1601
39.0625 23.4375 1516
-250 382.812 2143
39.0625 -132.812 1833
39.0625 -132.812 1833
140.625 -156.25 1705
-93.75 -78.125 1601
-296.875 62.5 1470
179.688 -226.562 1671
78.125 -101.562 1579
304.688 -273.438 2226
-7.8125 -101.562 1696
-156.25 210.938 1427
117.188 367.188 1804
117.188 296.875 1739
62.5 0 1503
-250 132.812 1312
-39.0625 93.75 1415
31.25 0 1536
125 -179.688 1853
140.625 273.438 1739
414.062 187.5 2040
492.188 179.688 2129
273.438 -226.562 4405
-7.8125 7.8125 1579
296.875 -171.875 2028
351.562 -117.188 1731
70.3125 218.75 1601
226.562 218.75 2184
156.25 -54.6875 1564
171.875 117.188 1601
437.5 -218.75 2129
257.812 7.8125 1639
-78.125 7.8125 1609
226.562 -195.312 1696
70.3125 7.8125 1496
-156.25 234.375 1445
-156.25 289.062 1470
187.5 -203.125 1655
140.625 -7.8125 1543
-226.562 398.438 2078
-289.062 62.5 1458
273.438 234.375 2116
242.188 218.75 2184
-46.875 -78.125 1550
164.062 265.625 2103
46.875 414.062 1785
453.125 257.812 2184
125 7.8125 1529
359.375 -125 1739
-203.125 265.625 1439
398.438 -273.438 2103
-70.3125 -39.0625 1632
351.562 -132.812 1757
210.938 -210.938 1671
406.25 132.812 1894
-156.25 296.875 1470
54.6875 242.188 1853
164.062 -31.25 1543
164.062 140.625 1616
39.0625 156.25 1529
93.75 -250 1813
-148.438 437.5 1550
23.4375 31.25 1523
101.562 187.5 1601
367.188 289.062 2016
-7.8125 -109.375 1688
164.062 164.062 1632
23.4375 312.5 2065
179.688 273.438 2078
-156.25 195.312 1421
85.9375 -460.938 3774
-125 296.875 1731
343.75 -156.25 1794
85.9375 -187.5 1823
156.25 -70.3125 1557
0 -125 1688
109.375 351.562 1785
-156.25 281.25 1464
70.3125 -23.4375 1509
125 -7.8125 1536
257.812 -203.125 1823
218.75 23.4375 1616
226.562 15.625 1616
148.438 -218.75 1671
-39.0625 -23.4375 1579
-78.125 -85.9375 1579
46.875 -210.938 1843
171.875 -218.75 1639
195.312 -210.938 1663
-85.9375 257.812 1496
226.562 -171.875 1713
101.562 273.438 1776
-156.25 226.562 1439
132.812 -226.562 1833
468.75 156.25 2241
-296.875 46.875 1489
101.562 289.062 1757
359.375 289.062 2016
-148.438 304.688 1477
-7.8125 -125 1696
218.75 -117.188 1739
125 242.188 1705
70.3125 0 1503
179.688 93.75 1609
117.188 -156.25 1873
78.125 23.4375 1496
15.625 -148.438 1904
210.938 -125 1731
195.312 281.25 2053
-31.25 0 1594
-195.312 359.375 1489
-156.25 203.125 1421
382.812 203.125 1959
78.125 250 1833
62.5 -70.3125 1523
-320.312 7.8125 1624
-156.25 187.5 1421
171.875 375 1883
148.438 -70.3125 1572
31.25 109.375 1496
-242.188 382.812 2129
-304.688 46.875 1523
203.125 -226.562 1680
-31.25 179.688 1477
-156.25 179.688 1415
132.812 -203.125 1843
398.438 -265.625 2090
179.688 85.9375 1616
179.688 85.9375 1616
375 257.812 1981
-85.9375 -62.5 1609
132.812 0 1529
23.4375 109.375 1445
85.9375 406.25 1804
7.8125 -78.125 1509
39.0625 23.4375 1509
85.9375 257.812 1813
171.875 148.438 1624
140.625 -109.375 1688
54.6875 -171.875 1883
-54.6875 -15.625 1579
335.938 -93.75 1663
-85.9375 -15.625 1632
437.5 -210.938 2156
101.562 -54.6875 1523
70.3125 -117.188 1609
437.5 -226.562 2116
-156.25 164.062 1415
382.812 -179.688 2090
-54.6875 0 1586
226.562 -164.062 1722
226.562 -164.062 1722
31.25 7.8125 1523
437.5 140.625 2226
460.938 140.625 2241
281.25 234.375 2129
-156.25 171.875 1415
148.438 15.625 1594
15.625 7.8125 1572
273.438 218.75 2184
414.062 195.312 2040
-7.8125 85.9375 1427
-429.688 39.0625 3539
-273.438 85.9375 1392
140.625 -78.125 1586
359.375 281.25 2016
-93.75 -78.125 1601
179.688 31.25 1579
85.9375 -109.375 1586
-15.625 0 1594
-210.938 164.062 1387
132.812 -54.6875 1616
-70.3125 15.625 1609
-312.5 39.0625 1550
375 218.75 1970
31.25 -31.25 1550
31.25 -31.25 1550
-203.125 242.188 1421
406.25 203.125 2065
296.875 -179.688 2078
70.3125 7.8125 1496
132.812 281.25 1748
210.938 -164.062 1696
54.6875 -179.688 1853
39.0625 -62.5 1543
-328.125 -7.8125 1671
-39.0625 -7.8125 1579
148.438 -210.938 1663
226.562 -187.5 1705
437.5 -218.75 2129
-7.8125 -23.4375 1579
148.438 132.812 1609
78.125 265.625 1804
484.375 242.188 2198
101.562 -156.25 1915
-312.5 273.438 2485
-148.438 421.875 1543
0 109.375 1427
421.875 -23.4375 1776
164.062 -203.125 1647
-15.625 -125 1696
-78.125 -46.875 1624
62.5 46.875 1503
210.938 23.4375 1609
390.625 -23.4375 1739
164.062 -179.688 1663
23.4375 23.4375 1523
-31.25 -15.625 1601
109.375 93.75 1543
-15.625 -132.812 2016
234.375 289.062 2028
0 -156.25 1959
148.438 -218.75 1671
-265.625 93.75 1370
445.312 -93.75 1739
140.625 0 1529
-39.0625 -117.188 1705
-39.0625 -117.188 1705
421.875 171.875 2103
421.875 -31.25 1766
-156.25 218.75 1433
-156.25 218.75 1433
62.5 218.75 1601
85.9375 -39.0625 1516
-203.125 289.062 1452
398.438 -210.938 2116
93.75 -39.0625 1523
-15.625 437.5 1739
-312.5 375 2156
70.3125 39.0625 1503
109.375 281.25 1757
23.4375 -210.938 1894
54.6875 -31.25 1523
125 226.562 1705
429.688 -156.25 2143
93.75 -257.812 1813
-15.625 -31.25 1572
414.062 156.25 1926
39.0625 23.4375 1516
117.188 -39.0625 1536
-351.562 -46.875 1813
257.812 -195.312 1804
46.875 54.6875 1509
132.812 85.9375 1516
-343.75 -23.4375 1731
70.3125 -250 1823
140.625 15.625 1609
203.125 -179.688 1680
382.812 234.375 1970
117.188 -93.75 1647
-93.75 -23.4375 1632
93.75 -85.9375 1550
242.188 -148.438 1739
101.562 -101.562 1579
328.125 0 1696
15.625 -78.125 1496
62.5 0 1503
-343.75 0 1688
85.9375 -85.9375 1543
195.312 234.375 2156
93.75 367.188 1833
-250 125 1312
31.25 39.0625 1523
148.438 328.125 1813
468.75 250 2184
132.812 359.375 1843
39.0625 -132.812 1843
312.5 0 1688
328.125 -7.8125 1688
156.25 132.812 1609
46.875 164.062 1536
453.125 -7.8125 1776
148.438 -195.312 1688
164.062 -187.5 1663
-429.688 7.8125 3539
-429.688 7.8125 3539
125 -85.9375 1632
-109.375 281.25 1757
31.25 312.5 2028
-85.9375 -54.6875 1616
31.25 -7.8125 1543
-109.375 296.875 1705
-414.062 335.938 2226
-414.062 335.938 2226
-304.688 101.562 1936
-492.188 15.625 2485
429.688 -171.875 2143
62.5 -148.438 1823
-109.375 312.5 1663
437.5 -335.938 3816
-62.5 -7.8125 1594
156.25 -203.125 1671
-210.938 187.5 1404
-367.188 0 3653
-148.438 289.062 1464
-320.312 328.125 2301
156.25 257.812 2184
-148.438 304.688 1470
140.625 257.812 1705
-109.375 265.625 1489
-109.375 265.625 1489
156.25 -109.375 1655
437.5 -242.188 2129
-46.875 -31.25 1601
-85.9375 -39.0625 1624
-375 0 3614
-375 0 3614
7.8125 7.8125 1579
-140.625 328.125 1489
-78.125 7.8125 1632
93.75 -234.375 1804
156.25 -70.3125 1564
62.5 31.25 1496
101.562 -164.062 1883
23.4375 312.5 2053
-140.625 335.938 1496
-429.688 335.938 2226
421.875 62.5 1853
-437.5 7.8125 3503
375 7.8125 1705
-148.438 273.438 1464
-148.438 273.438 1464
-203.125 273.438 1445
226.562 -203.125 1639
492.188 -250 3365
-70.3125 -39.0625 1632
-140.625 265.625 1464
46.875 -7.8125 1523
7.8125 -23.4375 1572
171.875 257.812 2116
-382.812 0 3576
-109.375 304.688 1688
-70.3125 -15.625 1594
-7.8125 0 1594
-85.9375 257.812 1496
-398.438 335.938 2226
-484.375 15.625 3399
398.438 -101.562 1696
-117.188 312.5 1680
453.125 125 1904
-46.875 265.625 1529
-140.625 296.875 1464
-70.3125 257.812 1509
-148.438 320.312 1470
-500 15.625 2485
-437.5 335.938 2226
-148.438 304.688 1477
-320.312 421.875 2016
-125 343.75 1616
140.625 335.938 1823
132.812 281.25 1739
15.625 296.875 2065
93.75 -101.562 1572
125 390.625 1833
-109.375 281.25 1748
171.875 148.438 1616
-234.375 375 1853
-117.188 296.875 1696
-46.875 -78.125 1550
296.875 0 1663
-156.25 218.75 1433
46.875 296.875 1947
-109.375 265.625 1489
31.25 304.688 2028
-70.3125 -85.9375 1579
367.188 289.062 2016
273.438 218.75 2143
-93.75 -85.9375 1609
429.688 304.688 2065
-281.25 101.562 1387
-273.438 414.062 2065
-109.375 257.812 1483
-328.125 328.125 2241
-406.25 335.938 2241
46.875 156.25 1536
-156.25 281.25 1464
312.5 -148.438 1804
-343.75 328.125 2286
117.188 304.688 1748
429.688 -23.4375 1766
-445.312 7.8125 3503
-429.688 7.8125 3503
164.062 7.8125 1572
187.5 328.125 2005
-445.312 335.938 2226
-148.438 312.5 1477
-140.625 343.75 1503
140.625 273.438 1739
375 257.812 1970
414.062 156.25 1915
414.062 187.5 1947
-359.375 31.25 3692
375 -101.562 1696
-156.25 296.875 1464
-109.375 320.312 1647
-148.438 273.438 1464
281.25 -62.5 1609
-109.375 -93.75 1609
-46.875 23.4375 1586
-148.438 335.938 1496
-140.625 328.125 1489
414.062 -109.375 1722
-492.188 15.625 2485
-343.75 -62.5 1833
320.312 0 1688
359.375 -7.8125 1722
-304.688 406.25 2065
445.312 109.375 1883
359.375 -15.625 1705
140.625 257.812 1705
-156.25 289.062 1464
-195.312 390.625 1523
-117.188 281.25 1748
-460.938 335.938 2198
54.6875 -101.562 1639
-390.625 0 3539
492.188 7.8125 1804
390.625 -15.625 1739
289.062 7.8125 1671
289.062 7.8125 1671
-484.375 23.4375 3433
-117.188 312.5 1680
-109.375 343.75 1601
132.812 281.25 1739
460.938 156.25 2212
-312.5 375 2156
-250 375 2129
-109.375 273.438 1489
-125 296.875 1705
-421.875 -109.375 3399
-109.375 335.938 1609
-101.562 343.75 1601
164.062 -203.125 1655
-148.438 328.125 1489
-78.125 257.812 1509
429.688 164.062 2090
-304.688 414.062 2028
484.375 171.875 2116
-335.938 328.125 2241
132.812 289.062 1739
171.875 125 1601
-187.5 117.188 1333
15.625 7.8125 1572
281.25 7.8125 1663
-140.625 351.562 1496
-140.625 351.562 1496
-359.375 328.125 2271
-132.812 328.125 1639
-101.562 328.125 1624
-70.3125 250 1509
429.688 -398.438 3816
234.375 242.188 2078
437.5 304.688 2103
195.312 218.75 2156
-156.25 312.5 1470
273.438 7.8125 1647
-421.875 335.938 2226
-250 390.625 2116
210.938 -210.938 1663
460.938 15.625 1785
-7.8125 -109.375 1688
7.8125 171.875 1509
-101.562 304.688 1696
343.75 -7.8125 1696
367.188 -7.8125 1722
-93.75 289.062 1696
-156.25 203.125 1421
171.875 -7.8125 1557
-78.125 273.438 1516
-109.375 289.062 1739
421.875 -109.375 1722
-85.9375 -62.5 1616
187.5 23.4375 1579
54.6875 265.625 1863
-312.5 101.562 1970
-156.25 304.688 1470
-453.125 7.8125 3503
-117.188 328.125 1624
156.25 257.812 1833
-78.125 265.625 1516
164.062 265.625 2116
164.062 156.25 1624
-117.188 273.438 1483
-117.188 296.875 1696
195.312 281.25 2053
468.75 312.5 2301
-320.312 343.75 2241
-398.438 0 3539
-398.438 0 3539
468.75 101.562 1915
-320.312 328.125 2286
46.875 281.25 1970
148.438 320.312 1833
140.625 265.625 1739
171.875 117.188 1609
-148.438 265.625 1464
-148.438 312.5 1477
375 257.812 1981
78.125 265.625 1813
54.6875 242.188 1894
-109.375 328.125 1632
-156.25 179.688 1415
-140.625 343.75 1496
-78.125 -85.9375 1586
-382.812 0 3614
54.6875 -125 1804
62.5 218.75 1594
39.0625 23.4375 1516
15.625 -23.4375 1564
367.188 -296.875 2116
-156.25 296.875 1464
-148.438 335.938 1496
-437.5 335.938 2184
125 54.6875 1516
-31.25 -117.188 1705
164.062 164.062 1632
-62.5 -31.25 1594
375 273.438 1970
-156.25 226.562 1439
-281.25 421.875 2016
-203.125 429.688 1564
-242.188 382.812 2129
-109.375 304.688 1696
335.938 289.062 2078
-156.25 289.062 1464
78.125 273.438 1813
-242.188 125 1307
437.5 289.062 2103
15.625 210.938 1550
-484.375 335.938 2184
-335.938 421.875 1993
125 242.188 1705
382.812 226.562 1959
-156.25 320.312 1483
460.938 125 1915
148.438 -210.938 1696
-437.5 7.8125 3503
132.812 226.562 1696
250 15.625 1639
140.625 273.438 1739
-500 15.625 2485
382.812 -140.625 1853
203.125 -140.625 1696
398.438 -109.375 1722
-148.438 281.25 1458
-476.562 335.938 2184
367.188 -101.562 1688
117.188 296.875 1739
414.062 179.688 1947
109.375 351.562 1785
414.062 -31.25 1748
117.188 289.062 1739
-117.188 335.938 1609
257.812 210.938 2170
179.688 -226.562 1655
-156.25 195.312 1421
140.625 257.812 1705
140.625 257.812 1705
320.312 -164.062 1804
429.688 -109.375 1731
335.938 -132.812 1766
406.25 281.25 2116
226.562 -156.25 1722
101.562 -210.938 1813
367.188 281.25 2016
-156.25 304.688 1470
492.188 46.875 1883
0 234.375 1550
476.562 156.25 2198
-117.188 281.25 1731
-156.25 164.062 1404
210.938 -171.875 1688
-351.562 328.125 2241
-257.812 398.438 2078
-117.188 304.688 1688
-109.375 320.312 1655
-46.875 179.688 1483
171.875 148.438 1616
-304.688 421.875 2016
398.438 -15.625 1739
-54.6875 23.4375 1579
406.25 -93.75 1696
-476.562 15.625 3399
-375 31.25 3653
15.625 -78.125 1496
85.9375 -23.4375 1503
203.125 304.688 2065
242.188 -78.125 1586
-156.25 343.75 1496
-156.25 343.75 1489
320.312 -93.75 1655
312.5 -140.625 1804
257.812 226.562 2129
0 -23.4375 1572
187.5 -109.375 1655
437.5 -359.375 3859
250 218.75 2184
445.312 -101.562 1731
132.812 250 1705
-328.125 421.875 1993
437.5 -210.938 2103
328.125 -7.8125 1688
-7.8125 -164.062 1981
398.438 -23.4375 1739
-296.875 421.875 2016
-296.875 421.875 2016
234.375 242.188 2078
-304.688 31.25 1543
429.688 304.688 2065
250 242.188 2053
-156.25 171.875 1415
-343.75 421.875 1993
-156.25 281.25 1464
-78.125 320.312 1655
-156.25 328.125 1489
453.125 125 1894
218.75 -171.875 1696
226.562 203.125 2184
-93.75 101.562 1381
-85.9375 -70.3125 1609
-468.75 335.938 2198
-453.125 335.938 2198
414.062 187.5 2065
-78.125 335.938 1639
390.625 -23.4375 1739
210.938 203.125 2170
296.875 0 1663
-445.312 7.8125 3503
-406.25 0 3539
273.438 62.5 1616
-289.062 62.5 1458
343.75 -132.812 1748
-156.25 273.438 1458
148.438 -171.875 1705
-39.0625 -31.25 1601
195.312 -210.938 1647
351.562 -7.8125 1705
148.438 -179.688 1680
-109.375 343.75 1616
117.188 -195.312 1823
343.75 -93.75 1663
-109.375 335.938 1616
-148.438 296.875 1464
382.812 273.438 1970
195.312 23.4375 1594
406.25 -203.125 2116
328.125 -93.75 1647
78.125 -62.5 1496
-343.75 -7.8125 3653
-460.938 7.8125 3468
-101.562 -85.9375 1609
-148.438 328.125 1483
-132.812 296.875 1696
-109.375 257.812 1483
-78.125 257.812 1509
226.562 -140.625 1722
-85.9375 273.438 1785
-101.562 320.312 1639
-281.25 85.9375 1415
-453.125 7.8125 3433
-265.625 406.25 2065
-492.188 46.875 2365
46.875 -179.688 1883
-500 335.938 2156
-117.188 312.5 1688
70.3125 7.8125 1496
-187.5 164.062 1387
-78.125 328.125 1639
-46.875 320.312 1655
-117.188 328.125 1616
257.812 -203.125 1833
-445.312 335.938 2212
-148.438 343.75 1496
31.25 -140.625 1863
7.8125 -23.4375 1572
-70.3125 -23.4375 1586
195.312 -148.438 1680
-101.562 -93.75 1601
289.062 0 1655
-7.8125 15.625 1616
148.438 -117.188 1680
70.3125 -62.5 1509
54.6875 -109.375 1632
7.8125 -156.25 1936
-15.625 281.25 1748
132.812 -242.188 1833
-78.125 -7.8125 1601
-296.875 46.875 1489
-335.938 -23.4375 1705
-46.875 250 1523
39.0625 46.875 1516
429.688 -148.438 2184
445.312 -265.625 2078
-398.438 0 3576
-335.938 -7.8125 1663
109.375 312.5 1766
-359.375 328.125 2256
-367.188 328.125 2256
-195.312 117.188 1328
39.0625 -70.3125 1523
117.188 -93.75 1647
78.125 23.4375 1496
398.438 -210.938 2103
195.312 -187.5 1655
-429.688 335.938 2170
-7.8125 0 1579
54.6875 -39.0625 1523
46.875 -7.8125 1516
148.438 -203.125 1688
-46.875 281.25 1766
78.125 -242.188 1804
-93.75 -85.9375 1601
-85.9375 -85.9375 1594
0 -109.375 1688
-140.625 351.562 1496
-78.125 250 1503
-62.5 -39.0625 1609
39.0625 23.4375 1509
70.3125 -70.3125 1516
-46.875 289.062 1731
-70.3125 15.625 1601
-39.0625 -78.125 1550
-39.0625 -78.125 1550
62.5 -125 1785
-492.188 335.938 2184
-492.188 335.938 2184
-289.062 421.875 2016
-367.188 70.3125 3399
-46.875 226.562 1509
132.812 -85.9375 1609
85.9375 281.25 1785
101.562 289.062 1766
320.312 -164.062 1813
-15.625 257.812 1785
445.312 -273.438 2116
46.875 31.25 1516
-7.8125 -23.4375 1579
-132.812 -23.4375 1696
-39.0625 242.188 1516
62.5 -218.75 1813
62.5 -218.75 1813
-78.125 -54.6875 1609
-54.6875 281.25 1766
132.812 343.75 1804
78.125 -117.188 1601
-31.25 -78.125 1543
-382.812 328.125 2256
-281.25 70.3125 1421
-468.75 7.8125 3433
-328.125 -7.8125 1663
359.375 -132.812 1739
-62.5 0 1594
257.812 -187.5 1813
78.125 257.812 1833
-70.3125 -85.9375 1586
-7.8125 234.375 1543
-39.0625 -117.188 1713
-156.25 281.25 1464
445.312 164.062 2226
62.5 -210.938 1823
23.4375 -78.125 1489
125 -250 1813
23.4375 7.8125 1557
-23.4375 273.438 1766
54.6875 -156.25 1853
-414.062 0 3539
-148.438 343.75 1496
-156.25 328.125 1489
-23.4375 -78.125 1543
0 -148.438 1959
-460.938 335.938 2184
70.3125 -273.438 1853
0 -125 1696
-304.688 -70.3125 1873
445.312 -78.125 1739
132.812 281.25 1731
-148.438 -85.9375 1981
148.438 -109.375 1639
-273.438 85.9375 1392
-312.5 23.4375 1572
-54.6875 -39.0625 1601
-156.25 265.625 1452
39.0625 -179.688 1873
109.375 -265.625 1823
39.0625 -78.125 1503
-117.188 257.812 1483
85.9375 -78.125 1536
-85.9375 257.812 1496
296.875 0 1663
296.875 -140.625 1883
203.125 -171.875 1671
-148.438 140.625 1398
148.438 -171.875 1705
406.25 -210.938 2116
54.6875 7.8125 1496
-7.8125 250 1550
140.625 -242.188 1833
-351.562 -54.6875 1813
-31.25 -7.8125 1579
125 15.625 1523
54.6875 -7.8125 1516
-85.9375 -70.3125 1609
31.25 46.875 1516
62.5 7.8125 1496
15.625 46.875 1529
-156.25 312.5 1477
15.625 171.875 1509
-31.25 -31.25 1601
-312.5 421.875 2016
-31.25 23.4375 1586
-335.938 23.4375 3732
85.9375 23.4375 1509
367.188 -125 1722
-7.8125 281.25 1766
-31.25 273.438 1757
93.75 -164.062 1883
296.875 -132.812 1804
-289.062 54.6875 1470
234.375 242.188 2090
148.438 -179.688 1696
39.0625 46.875 1516
-117.188 382.812 1833
-351.562 -39.0625 1794
31.25 226.562 1572
-78.125 0 1616
226.562 -164.062 1705
-15.625 -164.062 2005
-320.312 0 1624
0 281.25 1739
23.4375 226.562 1557
171.875 -218.75 1647
-46.875 257.812 1523
-31.25 257.812 1813
-46.875 273.438 1776
-351.562 -7.8125 3539
328.125 -7.8125 1688
367.188 -148.438 1915
-31.25 -117.188 1713
226.562 -132.812 1731
-476.562 7.8125 3399
-23.4375 -31.25 1586
70.3125 273.438 1843
140.625 15.625 1609
-343.75 421.875 2005
-54.6875 281.25 1766
46.875 -179.688 1873
-93.75 -85.9375 1601
101.562 -210.938 1804
-15.625 281.25 1748
-23.4375 289.062 1739
-23.4375 289.062 1739
46.875 -7.8125 1516
31.25 -140.625 1863
93.75 -226.562 1804
-156.25 296.875 1470
148.438 -78.125 1579
140.625 257.812 1696
70.3125 -218.75 1813
-46.875 296.875 1705
-23.4375 -148.438 2016
320.312 -164.062 1813
109.375 -234.375 1804
-156.25 273.438 1458
-15.625 242.188 1543
-15.625 273.438 1766
-62.5 0 1594
148.438 250 1696
226.562 250 2053
-375 328.125 2256
-62.5 -85.9375 1572
54.6875 -242.188 1843
93.75 210.938 1609
93.75 0 1496
445.312 -257.812 2065
445.312 -257.812 2065
132.812 -257.812 1853
62.5 -109.375 1624
-31.25 117.188 1458
156.25 31.25 1579
-273.438 101.562 1370
-15.625 265.625 1785
78.125 -414.062 3816
7.8125 429.688 1739
195.312 23.4375 1586
70.3125 -148.438 1853
-15.625 437.5 1731
