ply
format ascii 1.0
comment Created by Open3D
element vertex 2464
property double x
property double y
property double z
end_header
132.812 125 959
31.25 218.75 867
-54.6875 218.75 959
234.375 -125 1080
257.812 -125 1070
46.875 406.25 854
156.25 359.375 829
0 296.875 967
-46.875 296.875 946
78.125 335.938 841
351.562 -54.6875 913
398.438 0 920
492.188 -85.9375 1097
242.188 -101.562 1080
-31.25 70.3125 1047
-15.625 195.312 875
203.125 453.125 829
476.562 382.812 880
-375 0 3037
31.25 320.312 943
-484.375 -85.9375 2767
-23.4375 250 948
-23.4375 296.875 964
31.25 367.188 891
78.125 421.875 839
109.375 218.75 829
46.875 -23.4375 3300
343.75 -31.25 928
-70.3125 312.5 943
78.125 179.688 856
-312.5 -23.4375 3092
93.75 359.375 831
382.812 367.188 898
179.688 414.062 847
-484.375 -132.812 2767
109.375 23.4375 1312
429.688 -78.125 928
39.0625 78.125 1028
250 429.688 837
375 -78.125 925
117.188 -7.8125 1268
476.562 375 887
125 101.562 964
265.625 210.938 887
-109.375 375 875
234.375 375 889
484.375 -85.9375 1119
195.312 85.9375 1041
93.75 195.312 849
437.5 414.062 875
46.875 93.75 1019
109.375 234.375 839
242.188 359.375 906
265.625 -179.688 1080
351.562 250 823
31.25 335.938 858
203.125 234.375 891
-500 -179.688 2005
312.5 429.688 845
179.688 62.5 1084
414.062 7.8125 930
62.5 101.562 1013
468.75 -85.9375 928
15.625 210.938 867
-500 -210.938 1981
-7.8125 62.5 1054
281.25 -125 1067
429.688 -15.625 928
476.562 -39.0625 933
140.625 242.188 831
117.188 179.688 867
31.25 85.9375 1034
210.938 -140.625 1094
-390.625 351.562 871
164.062 359.375 829
-39.0625 39.0625 1044
226.562 -164.062 1090
109.375 375 833
164.062 460.938 825
117.188 375 837
101.562 328.125 837
257.812 429.688 837
93.75 289.062 847
289.062 437.5 843
234.375 351.562 913
390.625 250 833
406.25 -85.9375 933
-23.4375 320.312 938
351.562 -62.5 913
-70.3125 78.125 1022
85.9375 328.125 843
46.875 164.062 1016
0 265.625 933
125 125 962
492.188 -78.125 1080
93.75 257.812 862
101.562 226.562 845
132.812 390.625 871
382.812 -39.0625 896
273.438 -164.062 1077
-218.75 46.875 1328
398.438 -54.6875 898
281.25 234.375 858
-476.562 -31.25 2812
304.688 257.812 823
125 218.75 843
281.25 -70.3125 1084
101.562 359.375 831
70.3125 -23.4375 3269
-234.375 46.875 1333
140.625 125 948
218.75 -109.375 1090
109.375 -390.625 2883
0 70.3125 1054
54.6875 375 860
398.438 250 837
390.625 242.188 831
-15.625 242.188 908
398.438 125 962
70.3125 234.375 887
-93.75 242.188 954
468.75 335.938 913
218.75 125 992
257.812 -15.625 1185
-78.125 -15.625 3238
156.25 367.188 835
109.375 367.188 833
101.562 -7.8125 1312
328.125 265.625 823
-15.625 39.0625 1054
226.562 273.438 869
390.625 265.625 841
39.0625 281.25 901
132.812 460.938 819
453.125 382.812 880
398.438 -125 1087
414.062 406.25 869
39.0625 226.562 871
-476.562 -101.562 2789
257.812 195.312 903
210.938 -171.875 1105
-500 -265.625 2028
-23.4375 281.25 940
226.562 -140.625 1084
-351.562 0 3064
-109.375 93.75 987
421.875 -54.6875 908
-203.125 46.875 1338
-62.5 78.125 1025
156.25 210.938 854
-195.312 46.875 1333
476.562 7.8125 954
375 367.188 896
85.9375 187.5 854
-476.562 -7.8125 2812
250 179.688 925
-7.8125 39.0625 1054
62.5 164.062 1016
218.75 335.938 845
78.125 187.5 856
218.75 351.562 843
351.562 140.625 940
62.5 375 856
101.562 195.312 845
140.625 367.188 835
289.062 -132.812 1067
-500 -296.875 2053
445.312 398.438 871
0 62.5 1054
-93.75 296.875 962
289.062 250 841
7.8125 265.625 925
242.188 164.062 935
445.312 -78.125 928
39.0625 390.625 871
101.562 117.188 981
-500 -281.25 2040
343.75 250 821
140.625 234.375 833
218.75 257.812 869
359.375 -62.5 906
125 265.625 831
398.438 7.8125 923
390.625 -70.3125 908
367.188 257.812 829
187.5 -132.812 1119
-367.188 46.875 1297
273.438 0 1161
117.188 281.25 837
492.188 226.562 849
281.25 -54.6875 1097
351.562 375 885
257.812 257.812 906
210.938 -15.625 1189
273.438 -132.812 1070
-85.9375 304.688 948
265.625 203.125 887
257.812 -179.688 1084
-39.0625 -15.625 3238
-187.5 -7.8125 3208
-46.875 242.188 935
-93.75 156.25 943
351.562 -78.125 918
437.5 -85.9375 940
-195.312 -7.8125 3208
-70.3125 156.25 913
-15.625 148.438 1031
351.562 -109.375 1105
-23.4375 70.3125 1050
46.875 156.25 1025
265.625 375 887
453.125 46.875 970
-179.688 46.875 1338
296.875 -7.8125 1177
-15.625 281.25 935
210.938 109.375 1010
484.375 390.625 878
218.75 7.8125 1145
15.625 390.625 869
484.375 54.6875 1060
437.5 351.562 910
-328.125 0 3092
-23.4375 62.5 1050
31.25 78.125 1034
390.625 367.188 898
109.375 70.3125 1292
320.312 -140.625 1077
-31.25 39.0625 1050
398.438 414.062 862
367.188 132.812 951
187.5 382.812 880
125 398.438 867
460.938 7.8125 951
7.8125 320.312 943
148.438 382.812 837
93.75 414.062 849
39.0625 164.062 1016
7.8125 382.812 875
-23.4375 156.25 1019
328.125 429.688 849
140.625 421.875 841
-46.875 -15.625 3238
203.125 367.188 896
429.688 117.188 970
421.875 421.875 871
429.688 234.375 837
-23.4375 39.0625 1054
109.375 375 833
-7.8125 312.5 951
273.438 -187.5 1087
382.812 -78.125 925
70.3125 382.812 847
15.625 140.625 1044
148.438 132.812 933
-54.6875 234.375 938
-15.625 140.625 1044
320.312 382.812 878
421.875 117.188 970
218.75 398.438 864
-78.125 312.5 943
54.6875 382.812 860
359.375 -7.8125 910
39.0625 234.375 878
132.812 117.188 956
250 382.812 880
93.75 351.562 833
437.5 -15.625 928
195.312 453.125 829
468.75 226.562 845
406.25 7.8125 928
-414.062 109.375 1177
-132.812 210.938 1067
171.875 296.875 833
203.125 93.75 1028
390.625 -39.0625 898
54.6875 218.75 827
281.25 -109.375 1067
359.375 140.625 940
-85.9375 273.438 962
-109.375 382.812 864
343.75 140.625 943
429.688 -85.9375 935
62.5 273.438 869
242.188 382.812 880
-187.5 46.875 1333
-187.5 39.0625 1349
-125 140.625 946
-101.562 273.438 987
-460.938 15.625 2984
-101.562 179.688 998
85.9375 257.812 862
-382.812 109.375 1185
-54.6875 70.3125 1034
140.625 257.812 827
132.812 367.188 839
257.812 382.812 880
203.125 -109.375 1105
265.625 281.25 887
-492.188 -132.812 1970
468.75 0 951
117.188 109.375 967
-421.875 15.625 3037
-484.375 -93.75 2789
0 140.625 1044
46.875 273.438 901
445.312 -85.9375 938
367.188 -62.5 901
492.188 54.6875 1063
359.375 -62.5 906
265.625 -187.5 1090
85.9375 179.688 854
171.875 390.625 875
156.25 296.875 829
359.375 15.625 918
421.875 78.125 973
187.5 203.125 864
335.938 265.625 825
70.3125 414.062 847
320.312 -156.25 1080
-492.188 -117.188 1981
54.6875 406.25 854
273.438 218.75 875
-15.625 62.5 1054
-484.375 -101.562 2789
7.8125 39.0625 1050
265.625 390.625 873
-15.625 -351.562 2812
421.875 -31.25 915
117.188 351.562 835
-117.188 148.438 946
468.75 234.375 847
156.25 265.625 869
78.125 234.375 858
-500 -156.25 1993
62.5 390.625 858
-93.75 195.312 987
46.875 85.9375 1019
242.188 -195.312 1101
-468.75 15.625 2883
390.625 -78.125 925
125 242.188 833
203.125 242.188 880
359.375 250 825
-476.562 -39.0625 2835
164.062 210.938 854
-500 -257.812 2005
-70.3125 171.875 915
0 39.0625 1054
148.438 296.875 829
265.625 -39.0625 1112
296.875 23.4375 1119
242.188 359.375 906
70.3125 179.688 995
320.312 421.875 845
343.75 257.812 823
226.562 140.625 970
476.562 351.562 910
234.375 0 1161
171.875 218.75 849
351.562 7.8125 925
-445.312 23.4375 3010
421.875 7.8125 933
242.188 375 889
-468.75 203.125 2398
-31.25 62.5 1047
250 375 891
476.562 -85.9375 1119
148.438 140.625 938
-15.625 39.0625 1381
-31.25 -15.625 3238
54.6875 437.5 829
195.312 281.25 847
-484.375 46.875 2908
-492.188 -179.688 1981
218.75 -23.4375 1149
54.6875 289.062 896
398.438 70.3125 951
414.062 242.188 835
-54.6875 -15.625 3238
101.562 265.625 878
203.125 359.375 843
140.625 265.625 827
-210.938 -7.8125 3208
54.6875 164.062 1025
109.375 -23.4375 1302
46.875 289.062 901
62.5 414.062 854
125 179.688 873
62.5 171.875 1013
132.812 -23.4375 1223
-78.125 156.25 918
281.25 -203.125 1087
125 234.375 841
468.75 406.25 873
343.75 -7.8125 930
234.375 -148.438 1084
-39.0625 304.688 964
117.188 304.688 835
-171.875 46.875 1349
-445.312 70.3125 2883
85.9375 117.188 992
210.938 453.125 829
289.062 257.812 841
-23.4375 250 951
117.188 234.375 841
-179.688 -7.8125 3208
437.5 242.188 839
132.812 257.812 829
-39.0625 250 940
15.625 78.125 1047
320.312 257.812 819
-54.6875 78.125 1034
164.062 140.625 928
164.062 367.188 831
-78.125 289.062 956
-460.938 148.438 2598
359.375 23.4375 918
382.812 -70.3125 918
156.25 -46.875 1264
-500 -289.062 2053
257.812 195.312 906
210.938 -39.0625 1149
23.4375 218.75 864
-484.375 -109.375 2744
390.625 125 970
390.625 -70.3125 918
273.438 226.562 871
234.375 335.938 867
273.438 390.625 878
335.938 -39.0625 938
429.688 406.25 869
265.625 210.938 887
-101.562 171.875 962
382.812 234.375 837
-15.625 70.3125 1054
398.438 -78.125 935
85.9375 250 871
312.5 257.812 821
406.25 -7.8125 918
0 265.625 930
101.562 78.125 1307
289.062 -179.688 1087
15.625 70.3125 1047
164.062 195.312 860
-460.938 164.062 2541
-226.562 46.875 1338
289.062 -203.125 1084
351.562 -62.5 915
234.375 296.875 873
414.062 421.875 869
39.0625 390.625 875
187.5 257.812 875
78.125 281.25 860
-500 -273.438 2028
328.125 281.25 827
117.188 250 833
39.0625 328.125 856
203.125 101.562 1034
390.625 -54.6875 901
265.625 -156.25 1073
437.5 234.375 839
70.3125 421.875 845
-62.5 320.312 943
7.8125 304.688 967
101.562 226.562 829
-101.562 281.25 984
148.438 -46.875 1259
289.062 -187.5 1090
195.312 132.812 925
-500 -46.875 2005
398.438 242.188 831
-46.875 242.188 943
109.375 226.562 837
-7.8125 39.0625 1387
46.875 93.75 1022
70.3125 109.375 1004
-78.125 78.125 1019
-70.3125 242.188 935
164.062 54.6875 1084
414.062 -15.625 918
39.0625 140.625 1038
414.062 -93.75 1090
398.438 -70.3125 918
117.188 125 970
117.188 85.9375 1288
312.5 382.812 882
93.75 195.312 856
-195.312 46.875 1343
335.938 140.625 954
242.188 367.188 906
62.5 -23.4375 3300
367.188 406.25 860
210.938 242.188 885
31.25 85.9375 1034
460.938 -70.3125 925
-421.875 39.0625 3064
-93.75 85.9375 1007
54.6875 234.375 827
218.75 125 995
406.25 250 835
445.312 -78.125 940
328.125 132.812 959
-7.8125 62.5 1054
351.562 -23.4375 920
-62.5 -15.625 3238
226.562 -125 1084
351.562 250 821
46.875 406.25 860
109.375 93.75 1283
406.25 125 970
-62.5 -70.3125 3178
390.625 429.688 864
437.5 -62.5 915
-93.75 289.062 973
85.9375 335.938 843
85.9375 343.75 837
-54.6875 289.062 933
-46.875 156.25 901
-62.5 312.5 948
-78.125 85.9375 1016
-31.25 156.25 1028
242.188 179.688 940
-23.4375 -15.625 3238
367.188 257.812 827
62.5 179.688 1001
148.438 390.625 839
492.188 335.938 910
85.9375 195.312 856
101.562 351.562 835
273.438 -140.625 1073
-492.188 -148.438 1970
15.625 210.938 849
0 203.125 860
359.375 -62.5 910
62.5 367.188 854
54.6875 382.812 862
234.375 382.812 887
62.5 390.625 851
398.438 125 970
-179.688 46.875 1349
-85.9375 203.125 970
15.625 39.0625 1381
453.125 -54.6875 915
250 7.8125 1161
328.125 257.812 821
93.75 234.375 847
398.438 414.062 862
234.375 156.25 956
476.562 234.375 845
39.0625 226.562 829
54.6875 414.062 851
367.188 -62.5 908
46.875 234.375 827
382.812 250 827
179.688 367.188 835
289.062 250 839
-39.0625 164.062 894
156.25 242.188 837
296.875 -203.125 1090
187.5 289.062 841
-85.9375 164.062 930
437.5 -15.625 920
375 257.812 827
234.375 304.688 873
70.3125 335.938 845
-31.25 265.625 940
210.938 171.875 1016
-31.25 304.688 964
-156.25 46.875 1349
-15.625 -15.625 3269
109.375 335.938 837
398.438 -39.0625 898
257.812 390.625 878
-78.125 312.5 946
31.25 359.375 864
398.438 -62.5 910
70.3125 359.375 835
-23.4375 429.688 833
359.375 375 889
273.438 -109.375 1067
-117.188 -15.625 3238
-171.875 -7.8125 3208
406.25 242.188 835
226.562 140.625 970
-15.625 289.062 984
429.688 -54.6875 910
148.438 15.625 1181
273.438 -46.875 1097
468.75 226.562 845
437.5 117.188 978
-31.25 195.312 887
296.875 265.625 827
-70.3125 320.312 940
171.875 156.25 906
289.062 -109.375 1067
-140.625 46.875 1354
382.812 15.625 915
140.625 390.625 878
234.375 -171.875 1094
-335.938 0 3092
23.4375 156.25 1034
-85.9375 281.25 964
414.062 -54.6875 906
476.562 -46.875 925
-23.4375 335.938 925
-78.125 234.375 943
148.438 335.938 829
109.375 31.25 1317
437.5 -31.25 918
-93.75 148.438 930
39.0625 93.75 1028
226.562 281.25 867
-125 101.562 970
70.3125 328.125 851
-187.5 46.875 1343
31.25 382.812 882
250 351.562 915
148.438 132.812 940
304.688 -23.4375 1126
273.438 -78.125 1080
210.938 343.75 845
70.3125 242.188 827
-476.562 -15.625 2835
328.125 -109.375 1077
132.812 -70.3125 1307
492.188 375 887
343.75 -148.438 1097
210.938 -70.3125 1108
281.25 -62.5 1080
39.0625 406.25 858
140.625 -70.3125 1312
281.25 390.625 875
281.25 242.188 854
101.562 406.25 860
210.938 351.562 845
476.562 226.562 845
-23.4375 343.75 920
-156.25 -7.8125 3208
445.312 351.562 913
257.812 367.188 894
187.5 70.3125 1073
-164.062 -7.8125 3208
429.688 117.188 978
-492.188 -195.312 1981
468.75 -23.4375 935
0 39.0625 1381
468.75 343.75 910
429.688 -31.25 915
-85.9375 304.688 959
-62.5 70.3125 1028
54.6875 171.875 1013
203.125 -31.25 1227
-70.3125 164.062 913
54.6875 375 862
-484.375 -117.188 2701
-15.625 257.812 946
203.125 250 880
31.25 375 891
85.9375 257.812 869
-164.062 46.875 1349
257.812 195.312 906
382.812 132.812 956
31.25 281.25 910
31.25 164.062 1022
164.062 148.438 915
375 132.812 956
7.8125 39.0625 1381
39.0625 390.625 875
31.25 156.25 1031
23.4375 148.438 1041
-117.188 132.812 946
289.062 31.25 1119
78.125 31.25 1392
460.938 359.375 910
-70.3125 132.812 1013
171.875 359.375 829
23.4375 39.0625 1381
445.312 0 935
398.438 -70.3125 918
171.875 -70.3125 1149
406.25 -54.6875 903
367.188 132.812 959
406.25 359.375 903
398.438 46.875 938
265.625 210.938 887
445.312 -23.4375 923
-54.6875 70.3125 1034
289.062 39.0625 1101
7.8125 273.438 928
335.938 -132.812 1080
15.625 273.438 920
210.938 250 880
156.25 234.375 841
-93.75 93.75 1001
343.75 -54.6875 923
-101.562 179.688 959
484.375 -78.125 1119
429.688 78.125 970
-46.875 328.125 933
187.5 -46.875 1153
335.938 265.625 821
85.9375 414.062 854
-500 -281.25 2053
414.062 359.375 908
-468.75 0 2883
468.75 398.438 873
460.938 398.438 873
-93.75 242.188 954
93.75 343.75 837
23.4375 218.75 864
93.75 351.562 835
226.562 7.8125 1157
312.5 117.188 984
273.438 226.562 871
70.3125 351.562 837
-109.375 164.062 954
-54.6875 328.125 933
445.312 343.75 901
-398.438 54.6875 1297
-31.25 343.75 918
234.375 7.8125 1161
234.375 351.562 841
343.75 140.625 948
421.875 359.375 910
273.438 -164.062 1080
148.438 460.938 821
468.75 234.375 843
250 398.438 869
156.25 312.5 829
257.812 257.812 906
375 -62.5 906
234.375 -156.25 1087
101.562 296.875 845
148.438 257.812 827
-109.375 93.75 992
-54.6875 320.312 943
390.625 109.375 967
390.625 15.625 918
-46.875 234.375 943
382.812 414.062 860
0 70.3125 1054
171.875 234.375 845
421.875 -31.25 910
117.188 390.625 839
414.062 250 835
140.625 250 831
406.25 414.062 864
296.875 390.625 875
335.938 140.625 954
242.188 -210.938 1108
195.312 85.9375 1047
171.875 -125 1141
234.375 -132.812 1080
195.312 -39.0625 1153
132.812 390.625 878
265.625 -179.688 1087
-54.6875 312.5 948
265.625 -203.125 1094
257.812 -179.688 1090
445.312 414.062 873
0 62.5 1054
328.125 -54.6875 930
101.562 335.938 837
257.812 31.25 1119
70.3125 335.938 845
234.375 320.312 867
-54.6875 78.125 1034
-93.75 257.812 959
109.375 257.812 833
367.188 421.875 854
-46.875 164.062 901
109.375 -31.25 1297
210.938 359.375 843
320.312 -148.438 1077
140.625 375 835
187.5 78.125 1073
-492.188 -187.5 1981
39.0625 39.0625 1381
0 382.812 880
-171.875 46.875 1349
109.375 375 833
-500 -320.312 2467
-359.375 0 3037
242.188 171.875 940
93.75 195.312 856
-101.562 281.25 984
156.25 289.062 837
-132.812 140.625 954
54.6875 101.562 1016
375 15.625 915
320.312 257.812 819
-54.6875 187.5 923
140.625 -7.8125 1197
-148.438 46.875 1349
117.188 23.4375 1288
171.875 382.812 837
-70.3125 218.75 984
132.812 242.188 835
281.25 242.188 854
242.188 -187.5 1101
320.312 125 970
78.125 390.625 841
445.312 234.375 839
31.25 406.25 858
398.438 15.625 920
93.75 242.188 845
31.25 39.0625 1381
62.5 234.375 831
359.375 250 825
39.0625 328.125 856
15.625 39.0625 1381
-164.062 234.375 1041
468.75 -296.875 3064
453.125 7.8125 943
328.125 -148.438 1080
437.5 390.625 875
85.9375 335.938 843
15.625 312.5 956
437.5 234.375 839
328.125 382.812 885
468.75 -62.5 920
250 -179.688 1094
445.312 101.562 992
31.25 328.125 943
148.438 320.312 827
-484.375 -62.5 2767
328.125 132.812 959
226.562 140.625 970
429.688 -62.5 913
54.6875 234.375 827
7.8125 312.5 956
234.375 312.5 869
218.75 343.75 843
85.9375 195.312 856
-468.75 7.8125 2859
78.125 187.5 854
343.75 265.625 821
242.188 7.8125 1161
78.125 -23.4375 3238
46.875 406.25 860
-476.562 -46.875 2812
109.375 382.812 833
476.562 429.688 885
-7.8125 -15.625 3269
140.625 320.312 827
289.062 -23.4375 1123
375 257.812 827
250 187.5 925
304.688 257.812 821
93.75 429.688 835
328.125 421.875 847
234.375 -15.625 1189
265.625 -109.375 1070
15.625 78.125 1047
54.6875 93.75 1016
171.875 -39.0625 1241
171.875 367.188 833
101.562 367.188 829
273.438 -148.438 1073
125 218.75 835
335.938 257.812 821
78.125 429.688 837
468.75 -85.9375 1126
195.312 250 882
375 250 827
39.0625 85.9375 1028
367.188 250 825
85.9375 351.562 835
218.75 -164.062 1101
476.562 406.25 873
406.25 242.188 835
289.062 257.812 841
-78.125 257.812 938
437.5 242.188 839
78.125 335.938 845
-54.6875 242.188 938
140.625 0 1197
367.188 -62.5 908
406.25 -78.125 938
85.9375 234.375 821
335.938 -117.188 1080
164.062 304.688 831
398.438 109.375 970
-85.9375 273.438 962
148.438 -70.3125 1312
367.188 375 891
-500 -265.625 2005
265.625 367.188 887
234.375 156.25 956
109.375 304.688 839
31.25 382.812 882
156.25 39.0625 1097
-62.5 234.375 943
359.375 117.188 959
-484.375 -156.25 2744
0 -15.625 3269
85.9375 117.188 992
109.375 226.562 837
171.875 460.938 825
273.438 226.562 871
-468.75 39.0625 2908
93.75 117.188 987
421.875 -54.6875 908
453.125 31.25 954
46.875 382.812 867
125 367.188 835
-500 -328.125 2467
-39.0625 -15.625 3238
140.625 132.812 948
-132.812 46.875 1349
398.438 -62.5 910
414.062 242.188 835
406.25 125 970
476.562 -54.6875 925
46.875 171.875 1010
476.562 62.5 1060
70.3125 421.875 845
70.3125 234.375 827
-7.8125 70.3125 1057
453.125 414.062 873
-7.8125 265.625 938
101.562 359.375 835
156.25 210.938 858
187.5 453.125 825
343.75 -101.562 1084
70.3125 367.188 837
78.125 234.375 821
31.25 234.375 873
-23.4375 195.312 880
226.562 195.312 978
265.625 445.312 837
156.25 62.5 1169
445.312 242.188 839
156.25 -70.3125 1312
179.688 203.125 873
78.125 265.625 862
382.812 -62.5 908
164.062 343.75 829
148.438 375 835
265.625 7.8125 1157
414.062 -117.188 1084
-15.625 54.6875 1054
-484.375 -70.3125 2789
-156.25 46.875 1349
226.562 375 894
140.625 250 831
257.812 7.8125 1161
226.562 343.75 843
476.562 78.125 1038
-140.625 46.875 1354
101.562 125 981
117.188 -15.625 1250
-78.125 312.5 946
46.875 39.0625 1376
15.625 148.438 1041
-500 -351.562 2467
398.438 132.812 962
62.5 242.188 831
375 -62.5 906
398.438 -117.188 1084
453.125 242.188 841
54.6875 414.062 851
242.188 171.875 940
164.062 265.625 873
242.188 367.188 906
132.812 234.375 839
-304.688 0 3120
-31.25 265.625 940
421.875 -62.5 913
-117.188 148.438 943
289.062 -15.625 1123
210.938 281.25 854
164.062 398.438 869
31.25 195.312 837
304.688 273.438 823
23.4375 281.25 915
304.688 265.625 821
-46.875 70.3125 1038
-312.5 0 3120
414.062 -54.6875 906
-62.5 179.688 906
335.938 -54.6875 930
85.9375 289.062 854
390.625 250 831
101.562 195.312 858
125 -70.3125 1307
-15.625 257.812 946
-125 46.875 1349
117.188 187.5 869
453.125 0 938
-492.188 -140.625 1970
54.6875 156.25 1028
-492.188 -210.938 1959
453.125 54.6875 967
-492.188 -218.75 1959
-85.9375 156.25 923
429.688 0 928
117.188 289.062 837
351.562 140.625 948
390.625 148.438 935
-132.812 140.625 954
375 132.812 956
-390.625 54.6875 1292
414.062 132.812 959
234.375 -101.562 1080
93.75 226.562 825
367.188 429.688 854
484.375 234.375 845
179.688 226.562 851
109.375 382.812 833
203.125 359.375 843
484.375 226.562 845
-101.562 289.062 975
39.0625 148.438 1038
421.875 -85.9375 933
31.25 375 891
85.9375 429.688 837
117.188 226.562 839
-7.8125 320.312 946
414.062 -23.4375 910
117.188 359.375 835
0 320.312 946
429.688 7.8125 930
414.062 -62.5 910
453.125 15.625 948
171.875 343.75 829
210.938 117.188 1010
46.875 234.375 827
273.438 7.8125 1161
148.438 234.375 839
-101.562 156.25 954
226.562 289.062 862
218.75 335.938 849
140.625 312.5 829
-78.125 242.188 938
437.5 117.188 978
46.875 335.938 854
257.812 382.812 885
23.4375 218.75 864
281.25 -7.8125 1185
351.562 -7.8125 923
281.25 242.188 854
-492.188 -179.688 1981
70.3125 414.062 854
375 375 894
-117.188 46.875 1349
78.125 406.25 849
375 31.25 923
-62.5 78.125 1025
-70.3125 85.9375 1022
-109.375 156.25 954
382.812 265.625 831
195.312 242.188 843
39.0625 164.062 1025
257.812 203.125 903
453.125 -7.8125 933
406.25 -62.5 910
281.25 250 854
23.4375 39.0625 1381
-109.375 140.625 943
250 -171.875 1090
101.562 46.875 1333
85.9375 187.5 856
281.25 -171.875 1080
242.188 15.625 1138
289.062 257.812 841
187.5 265.625 864
-492.188 -171.875 1993
-70.3125 320.312 940
156.25 140.625 928
-39.0625 312.5 954
-78.125 281.25 956
164.062 250 835
195.312 -109.375 1112
140.625 398.438 873
179.688 375 843
312.5 -117.188 1070
109.375 414.062 851
-382.812 54.6875 1292
164.062 226.562 847
203.125 156.25 896
101.562 367.188 829
54.6875 375 862
343.75 7.8125 933
70.3125 187.5 998
187.5 398.438 869
421.875 421.875 871
226.562 281.25 867
132.812 125 956
-39.0625 195.312 913
226.562 -101.562 1087
179.688 343.75 833
-476.562 -62.5 2767
23.4375 78.125 1041
437.5 78.125 973
328.125 257.812 821
406.25 -15.625 913
382.812 375 891
117.188 398.438 871
226.562 -132.812 1084
250 382.812 885
62.5 265.625 871
85.9375 257.812 869
164.062 218.75 854
70.3125 15.625 1398
390.625 367.188 903
78.125 257.812 869
39.0625 156.25 1031
-31.25 -15.625 3238
31.25 226.562 869
195.312 156.25 896
70.3125 203.125 845
460.938 15.625 951
406.25 -46.875 901
234.375 351.562 841
7.8125 54.6875 1057
-273.438 265.625 984
117.188 406.25 862
117.188 -70.3125 1307
-62.5 226.562 954
54.6875 265.625 908
335.938 -93.75 1080
117.188 265.625 831
382.812 257.812 829
-335.938 23.4375 3120
382.812 367.188 901
484.375 429.688 880
117.188 218.75 835
273.438 234.375 864
226.562 453.125 829
156.25 218.75 851
31.25 39.0625 1381
78.125 117.188 1001
101.562 117.188 981
-62.5 234.375 943
-148.438 -7.8125 3208
250 187.5 925
78.125 351.562 835
148.438 -39.0625 1241
85.9375 367.188 829
343.75 15.625 935
23.4375 85.9375 1041
-39.0625 242.188 946
101.562 234.375 843
421.875 250 837
414.062 -70.3125 920
453.125 234.375 839
125 312.5 831
296.875 421.875 845
453.125 -70.3125 925
46.875 398.438 864
-468.75 0 2883
-203.125 46.875 1349
101.562 390.625 831
31.25 320.312 948
335.938 -132.812 1080
203.125 101.562 1034
250 -132.812 1073
-23.4375 -15.625 3238
125 -39.0625 1264
-7.8125 265.625 938
39.0625 93.75 1028
125 390.625 878
382.812 250 827
101.562 62.5 1333
125 320.312 831
171.875 148.438 915
-93.75 296.875 967
203.125 171.875 885
15.625 -15.625 3269
-46.875 78.125 1038
-484.375 -78.125 2789
78.125 390.625 841
-148.438 46.875 1349
468.75 -78.125 925
281.25 -125 1067
-15.625 -15.625 3269
109.375 234.375 843
375 -31.25 896
109.375 406.25 862
140.625 250 831
281.25 -78.125 1077
476.562 226.562 845
156.25 -39.0625 1236
-390.625 421.875 811
39.0625 39.0625 1381
140.625 -39.0625 1241
-109.375 164.062 954
85.9375 234.375 821
320.312 429.688 845
-500 -304.688 2522
78.125 187.5 854
109.375 367.188 835
390.625 31.25 928
359.375 31.25 923
-437.5 109.375 2744
375 242.188 829
320.312 382.812 882
273.438 367.188 873
109.375 125 975
343.75 265.625 821
351.562 265.625 825
-23.4375 242.188 918
218.75 -7.8125 1185
273.438 -85.9375 1077
289.062 265.625 837
343.75 257.812 821
187.5 296.875 837
414.062 -23.4375 910
257.812 351.562 898
109.375 226.562 837
257.812 -203.125 1094
343.75 -54.6875 923
85.9375 343.75 837
-85.9375 281.25 964
453.125 -78.125 938
414.062 242.188 835
-7.8125 203.125 864
46.875 101.562 1022
-54.6875 187.5 923
-78.125 171.875 940
-15.625 62.5 1054
140.625 460.938 819
234.375 171.875 959
460.938 218.75 851
-101.562 218.75 987
218.75 453.125 829
437.5 -406.25 2933
484.375 242.188 847
382.812 429.688 862
460.938 351.562 918
-31.25 257.812 943
460.938 242.188 843
-125 148.438 954
296.875 445.312 845
78.125 242.188 856
125 328.125 831
460.938 414.062 875
437.5 421.875 873
328.125 -148.438 1080
398.438 -46.875 898
359.375 -31.25 906
132.812 312.5 829
414.062 -46.875 906
359.375 375 889
328.125 -39.0625 938
-15.625 156.25 1028
-476.562 -54.6875 2789
78.125 375 833
335.938 429.688 849
-492.188 -148.438 1970
46.875 281.25 903
429.688 78.125 970
-101.562 250 956
421.875 -62.5 913
93.75 125 987
-500 -226.562 1970
-500 -335.938 2485
-367.188 54.6875 1302
-203.125 -7.8125 3178
320.312 -31.25 948
476.562 390.625 878
-468.75 -7.8125 2859
-500 -250 1959
54.6875 414.062 851
-359.375 54.6875 1297
429.688 -54.6875 910
265.625 218.75 887
265.625 -54.6875 1090
382.812 132.812 956
-101.562 289.062 975
78.125 343.75 837
62.5 179.688 1001
218.75 -132.812 1090
226.562 203.125 981
-437.5 54.6875 2958
-15.625 39.0625 1381
445.312 265.625 849
179.688 -54.6875 1153
93.75 359.375 831
-78.125 273.438 956
414.062 125 967
320.312 273.438 821
62.5 382.812 856
148.438 257.812 827
265.625 -46.875 1101
429.688 -70.3125 925
226.562 -15.625 1197
476.562 398.438 873
335.938 382.812 885
171.875 70.3125 1108
453.125 -85.9375 938
39.0625 398.438 864
250 359.375 913
453.125 242.188 841
-468.75 234.375 2271
320.312 132.812 959
23.4375 -15.625 3269
-500 -289.062 2053
-125 109.375 964
-132.812 46.875 1349
445.312 -85.9375 940
-500 -320.312 2467
7.8125 78.125 1054
31.25 390.625 875
414.062 -101.562 1087
390.625 421.875 860
-70.3125 78.125 1022
414.062 -62.5 910
171.875 398.438 869
242.188 320.312 871
218.75 132.812 989
23.4375 320.312 948
54.6875 39.0625 1376
46.875 406.25 860
203.125 -70.3125 1115
-492.188 -203.125 1970
140.625 -70.3125 1312
304.688 125 973
148.438 328.125 827
7.8125 390.625 873
226.562 0 1169
-437.5 46.875 2984
343.75 -23.4375 928
429.688 -62.5 913
429.688 -85.9375 940
492.188 343.75 920
-39.0625 257.812 938
203.125 54.6875 1073
140.625 226.562 845
46.875 234.375 827
-476.562 -125 2789
-125 46.875 1349
304.688 390.625 875
421.875 242.188 837
195.312 257.812 873
23.4375 335.938 928
343.75 -15.625 930
-484.375 39.0625 2908
-117.188 101.562 978
398.438 78.125 956
429.688 109.375 984
85.9375 335.938 843
-7.8125 -15.625 3269
226.562 304.688 864
-78.125 375 882
210.938 351.562 845
-101.562 46.875 1349
-398.438 54.6875 1297
367.188 15.625 915
-23.4375 156.25 1025
62.5 421.875 845
109.375 398.438 833
218.75 265.625 869
-468.75 46.875 2933
15.625 343.75 923
54.6875 390.625 862
492.188 390.625 878
171.875 421.875 847
468.75 -7.8125 940
-78.125 281.25 956
390.625 132.812 959
-453.125 109.375 2744
-140.625 46.875 1354
164.062 281.25 847
132.812 375 837
-132.812 132.812 956
382.812 -62.5 908
-500 -343.75 2503
320.312 281.25 823
257.812 203.125 903
437.5 -85.9375 935
-164.062 46.875 1349
31.25 359.375 864
414.062 78.125 962
179.688 31.25 1115
226.562 398.438 871
203.125 406.25 862
62.5 335.938 847
85.9375 351.562 835
265.625 -171.875 1080
62.5 109.375 1013
23.4375 156.25 1034
468.75 359.375 910
15.625 70.3125 1047
375 250 827
-62.5 171.875 906
398.438 367.188 903
125 125 962
-23.4375 289.062 981
31.25 164.062 1022
-93.75 257.812 959
335.938 257.812 821
-460.938 31.25 2908
-468.75 31.25 2908
429.688 359.375 910
234.375 359.375 910
39.0625 273.438 906
-351.562 54.6875 1297
-62.5 328.125 933
281.25 31.25 1119
179.688 7.8125 1153
242.188 -179.688 1097
359.375 -54.6875 906
-500 -328.125 2467
171.875 234.375 845
351.562 -15.625 920
390.625 257.812 831
46.875 414.062 851
101.562 23.4375 1333
-85.9375 78.125 1013
375 7.8125 908
148.438 320.312 827
226.562 296.875 862
125 179.688 873
296.875 273.438 829
226.562 289.062 862
429.688 250 839
-93.75 203.125 987
328.125 0 956
250 187.5 925
46.875 39.0625 1376
242.188 187.5 938
-85.9375 398.438 858
-39.0625 304.688 964
445.312 7.8125 940
460.938 -23.4375 930
93.75 296.875 847
-476.562 187.5 2450
156.25 148.438 913
-39.0625 296.875 943
492.188 226.562 847
62.5 398.438 854
23.4375 343.75 923
-484.375 -109.375 2744
15.625 218.75 867
39.0625 281.25 906
453.125 351.562 920
-7.8125 148.438 1041
226.562 148.438 970
-85.9375 273.438 962
210.938 117.188 1010
-62.5 226.562 954
171.875 187.5 864
429.688 421.875 871
226.562 343.75 843
445.312 234.375 839
242.188 390.625 878
421.875 31.25 943
-54.6875 312.5 948
-31.25 273.438 940
-484.375 -117.188 2701
62.5 -351.562 2883
195.312 -156.25 1119
-414.062 54.6875 1302
179.688 70.3125 1090
70.3125 281.25 862
117.188 -15.625 1250
351.562 -54.6875 915
304.688 -187.5 1094
312.5 -93.75 1067
109.375 101.562 975
257.812 -23.4375 1134
-31.25 250 946
-453.125 -15.625 2933
7.8125 70.3125 1054
484.375 406.25 875
39.0625 85.9375 1028
101.562 226.562 829
70.3125 421.875 849
132.812 226.562 849
445.312 406.25 869
85.9375 328.125 845
414.062 -7.8125 915
367.188 -31.25 898
273.438 234.375 862
437.5 -46.875 908
23.4375 78.125 1041
-476.562 -70.3125 2767
250 15.625 1153
-125 257.812 1019
62.5 375 851
296.875 265.625 827
-500 -359.375 2485
54.6875 179.688 1010
390.625 -46.875 898
70.3125 343.75 841
460.938 234.375 841
484.375 234.375 845
-70.3125 289.062 943
242.188 375 898
-23.4375 257.812 951
210.938 343.75 847
195.312 93.75 1044
31.25 328.125 896
164.062 62.5 1084
85.9375 195.312 860
273.438 -148.438 1077
70.3125 62.5 1343
406.25 -117.188 1080
140.625 312.5 829
398.438 -46.875 898
-500 -312.5 2541
398.438 257.812 831
492.188 234.375 847
421.875 -7.8125 915
-492.188 -210.938 1947
179.688 -125 1130
343.75 -54.6875 925
343.75 -312.5 3010
460.938 -125 3300
476.562 -78.125 1123
453.125 46.875 959
101.562 62.5 1343
93.75 234.375 823
390.625 242.188 835
54.6875 46.875 1376
382.812 -62.5 915
468.75 -62.5 923
257.812 375 891
-70.3125 234.375 946
-109.375 46.875 1359
93.75 351.562 839
132.812 117.188 959
-7.8125 296.875 938
242.188 453.125 835
234.375 164.062 956
164.062 382.812 837
429.688 -7.8125 918
-15.625 203.125 873
351.562 -70.3125 923
-492.188 -234.375 1959
46.875 164.062 1028
179.688 257.812 839
148.438 226.562 851
273.438 -171.875 1087
-39.0625 250 943
242.188 171.875 938
187.5 78.125 1077
359.375 140.625 954
437.5 242.188 839
31.25 390.625 882
257.812 234.375 901
78.125 117.188 1001
-375 54.6875 1307
-46.875 70.3125 1038
492.188 359.375 910
46.875 171.875 1019
117.188 312.5 835
-484.375 -125 2701
-382.812 54.6875 1302
257.812 265.625 906
-125 148.438 946
39.0625 390.625 880
-54.6875 242.188 943
54.6875 390.625 858
445.312 -15.625 920
406.25 429.688 864
132.812 132.812 956
-93.75 304.688 962
406.25 -15.625 910
117.188 125 970
312.5 390.625 882
-93.75 164.062 933
23.4375 281.25 913
382.812 0 908
382.812 148.438 946
359.375 -70.3125 928
148.438 234.375 843
93.75 359.375 835
125 242.188 835
250 390.625 885
328.125 -109.375 1077
218.75 351.562 843
109.375 281.25 849
265.625 218.75 885
421.875 414.062 862
414.062 -46.875 903
179.688 343.75 835
250 23.4375 1138
-23.4375 320.312 951
375 -62.5 915
-62.5 320.312 948
203.125 375 845
-476.562 -62.5 2767
390.625 250 831
-78.125 320.312 946
-117.188 46.875 1359
289.062 265.625 835
250 7.8125 1169
289.062 -148.438 1073
31.25 414.062 856
398.438 265.625 837
257.812 7.8125 1169
117.188 367.188 835
296.875 437.5 841
-46.875 335.938 930
148.438 375 831
-468.75 -15.625 2789
109.375 390.625 837
-500 -242.188 1947
-429.688 31.25 3037
-93.75 46.875 1359
-500 -367.188 2485
390.625 -46.875 898
148.438 359.375 827
-85.9375 312.5 954
117.188 117.188 970
-492.188 -171.875 1947
390.625 117.188 964
250 445.312 835
-62.5 179.688 906
-62.5 179.688 906
140.625 242.188 837
39.0625 398.438 871
210.938 62.5 1070
31.25 281.25 908
70.3125 179.688 1010
-492.188 -218.75 1947
414.062 46.875 940
242.188 382.812 891
226.562 382.812 891
281.25 250 851
101.562 406.25 835
85.9375 359.375 835
421.875 125 973
437.5 -70.3125 933
-85.9375 210.938 989
312.5 -23.4375 1108
117.188 304.688 835
62.5 39.0625 1387
468.75 -31.25 925
-156.25 195.312 1101
70.3125 382.812 847
179.688 109.375 1101
54.6875 281.25 906
101.562 343.75 837
257.812 203.125 901
-484.375 -148.438 2659
335.938 -23.4375 938
-101.562 289.062 981
0 273.438 930
437.5 -78.125 951
39.0625 234.375 825
-7.8125 304.688 970
429.688 367.188 908
406.25 -54.6875 908
273.438 250 862
226.562 148.438 970
-23.4375 304.688 970
218.75 132.812 989
351.562 140.625 956
164.062 148.438 923
203.125 109.375 1028
398.438 15.625 918
7.8125 273.438 925
328.125 109.375 973
23.4375 265.625 889
23.4375 85.9375 1041
203.125 257.812 878
85.9375 257.812 871
140.625 257.812 829
171.875 226.562 854
62.5 101.562 1013
-484.375 -164.062 2639
382.812 250 827
320.312 273.438 819
23.4375 226.562 837
39.0625 171.875 1016
171.875 70.3125 1112
-500 -187.5 1947
289.062 281.25 835
-23.4375 257.812 951
210.938 257.812 878
195.312 414.062 860
445.312 -70.3125 933
-78.125 164.062 915
421.875 242.188 837
179.688 296.875 841
78.125 195.312 851
7.8125 39.0625 1387
414.062 125 973
-54.6875 234.375 946
-101.562 242.188 951
328.125 140.625 956
15.625 281.25 920
414.062 62.5 951
-429.688 39.0625 3037
-109.375 273.438 1001
414.062 39.0625 938
0 304.688 970
-390.625 171.875 1105
85.9375 351.562 837
343.75 -54.6875 925
-70.3125 179.688 915
460.938 351.562 910
62.5 382.812 854
257.812 367.188 891
-500 -375 2467
351.562 -54.6875 915
-500 -62.5 1981
-39.0625 78.125 1044
320.312 367.188 871
257.812 -117.188 1070
-484.375 -140.625 2680
398.438 -101.562 1090
398.438 93.75 959
429.688 242.188 837
375 437.5 860
234.375 164.062 956
250 242.188 918
-492.188 -242.188 1947
406.25 78.125 956
421.875 93.75 970
-500 -273.438 2028
-484.375 -132.812 2701
242.188 -328.125 2933
343.75 257.812 821
203.125 -109.375 1105
-500 -320.312 2522
140.625 382.812 837
421.875 -46.875 906
429.688 -46.875 908
359.375 265.625 823
218.75 -101.562 1090
359.375 421.875 854
226.562 312.5 867
164.062 304.688 835
257.812 359.375 891
7.8125 70.3125 1054
273.438 234.375 862
-101.562 85.9375 1007
46.875 312.5 898
-85.9375 289.062 962
-46.875 195.312 901
70.3125 265.625 871
437.5 359.375 910
468.75 242.188 841
148.438 140.625 940
351.562 328.125 856
140.625 -156.25 3149
289.062 265.625 835
156.25 39.0625 1108
328.125 273.438 819
187.5 -101.562 1119
414.062 414.062 862
234.375 218.75 954
-23.4375 289.062 940
460.938 -62.5 925
-101.562 156.25 935
-101.562 187.5 967
62.5 70.3125 1333
273.438 -156.25 1077
101.562 375 831
156.25 460.938 821
429.688 -406.25 2883
101.562 304.688 841
460.938 242.188 841
-484.375 -85.9375 2744
-125 140.625 954
226.562 335.938 856
-70.3125 85.9375 1022
78.125 335.938 847
15.625 218.75 858
312.5 -156.25 1077
437.5 -23.4375 915
250 -78.125 1080
-476.562 -23.4375 2789
351.562 382.812 889
335.938 148.438 946
117.188 226.562 833
203.125 367.188 845
421.875 367.188 908
429.688 250 837
265.625 398.438 875
-109.375 171.875 959
242.188 437.5 837
140.625 375 831
-23.4375 281.25 951
148.438 398.438 875
-78.125 171.875 915
132.812 171.875 889
78.125 289.062 858
54.6875 39.0625 1387
70.3125 250 823
-484.375 -179.688 2639
-484.375 -179.688 2639
390.625 -54.6875 906
226.562 -15.625 1141
351.562 257.812 823
257.812 210.938 898
-39.0625 257.812 938
460.938 78.125 975
484.375 382.812 887
-476.562 -78.125 2767
296.875 390.625 882
203.125 -85.9375 1105
218.75 351.562 843
421.875 -23.4375 910
242.188 179.688 938
414.062 15.625 923
234.375 359.375 918
250 359.375 913
351.562 -70.3125 923
132.812 375 833
117.188 296.875 837
70.3125 39.0625 1392
203.125 421.875 854
460.938 7.8125 940
117.188 289.062 833
460.938 0 938
187.5 289.062 847
179.688 70.3125 1084
-101.562 148.438 935
328.125 7.8125 954
-468.75 148.438 2598
468.75 414.062 873
-500 -335.938 2503
-85.9375 46.875 1365
132.812 250 833
-500 -328.125 2503
406.25 15.625 920
-500 -453.125 2415
359.375 -70.3125 928
406.25 117.188 978
242.188 304.688 875
187.5 125 928
187.5 210.938 869
-7.8125 15.625 3333
210.938 -62.5 1112
234.375 328.125 867
-117.188 156.25 943
156.25 218.75 856
46.875 281.25 906
218.75 273.438 869
242.188 7.8125 1169
421.875 7.8125 923
62.5 343.75 843
46.875 101.562 1022
359.375 -54.6875 910
-31.25 273.438 943
156.25 367.188 827
101.562 281.25 849
7.8125 203.125 851
-468.75 -7.8125 2835
437.5 -7.8125 920
445.312 -7.8125 925
-492.188 -7.8125 2078
46.875 93.75 1022
484.375 -31.25 923
93.75 335.938 839
-500 -343.75 2522
109.375 375 835
390.625 -31.25 896
46.875 414.062 858
398.438 -46.875 898
101.562 85.9375 1297
-101.562 382.812 878
437.5 -23.4375 915
265.625 -23.4375 1119
117.188 242.188 837
367.188 140.625 954
195.312 218.75 864
226.562 296.875 867
367.188 265.625 827
359.375 343.75 864
-93.75 281.25 962
109.375 265.625 833
390.625 132.812 964
109.375 15.625 1322
-46.875 78.125 1038
31.25 328.125 896
109.375 78.125 1312
31.25 390.625 882
-70.3125 320.312 948
125 234.375 847
382.812 -62.5 915
54.6875 414.062 856
-101.562 46.875 1359
406.25 257.812 833
492.188 406.25 873
-492.188 -234.375 1959
484.375 -78.125 1119
343.75 148.438 946
343.75 382.812 889
54.6875 242.188 825
-468.75 0 2883
-492.188 -218.75 1947
-476.562 -70.3125 2767
93.75 70.3125 1328
-46.875 312.5 956
148.438 23.4375 1185
226.562 351.562 843
257.812 257.812 906
78.125 39.0625 1392
273.438 429.688 845
-484.375 31.25 2908
437.5 250 837
-484.375 39.0625 2933
281.25 257.812 851
195.312 250 845
304.688 265.625 821
132.812 265.625 829
-23.4375 203.125 880
-23.4375 257.812 951
-31.25 164.062 1028
-93.75 304.688 962
-500 -359.375 2485
-500 -414.062 2432
414.062 304.688 860
54.6875 289.062 871
359.375 429.688 851
-500 -382.812 2450
226.562 304.688 869
-500 -54.6875 2005
93.75 367.188 831
23.4375 250 880
210.938 -148.438 1101
-109.375 265.625 967
429.688 85.9375 970
179.688 -101.562 1130
7.8125 78.125 1054
-500 -398.438 2467
-101.562 93.75 1001
460.938 234.375 841
289.062 445.312 841
117.188 234.375 843
421.875 -46.875 906
-476.562 -54.6875 2789
23.4375 234.375 871
273.438 -382.812 2883
54.6875 359.375 845
398.438 375 901
273.438 -179.688 1090
453.125 62.5 970
164.062 242.188 841
445.312 -78.125 933
117.188 31.25 1292
109.375 31.25 1328
437.5 242.188 839
406.25 -343.75 2958
164.062 226.562 851
304.688 0 1185
234.375 -117.188 1084
109.375 125 975
359.375 414.062 858
398.438 250 831
7.8125 312.5 962
78.125 406.25 837
289.062 320.312 841
312.5 445.312 845
-468.75 15.625 2883
437.5 85.9375 973
117.188 304.688 835
359.375 140.625 954
406.25 109.375 973
-500 -367.188 2485
-46.875 250 938
390.625 -62.5 920
-500 -390.625 2450
39.0625 406.25 864
468.75 234.375 843
-476.562 -31.25 2812
-101.562 101.562 995
101.562 125 981
226.562 -156.25 1094
-500 -171.875 1947
179.688 -62.5 1153
-492.188 -171.875 1947
453.125 -171.875 3238
453.125 -70.3125 933
-109.375 273.438 1001
351.562 429.688 851
328.125 -46.875 930
85.9375 421.875 849
390.625 -46.875 898
31.25 85.9375 1034
250 -93.75 1077
265.625 226.562 885
-85.9375 289.062 962
445.312 421.875 871
460.938 -78.125 930
-484.375 -156.25 2680
-70.3125 296.875 946
257.812 398.438 875
85.9375 296.875 854
7.8125 210.938 851
140.625 101.562 1219
390.625 414.062 860
109.375 226.562 829
70.3125 242.188 823
421.875 15.625 928
320.312 -132.812 1073
242.188 -171.875 1094
218.75 382.812 889
312.5 125 978
304.688 -31.25 1105
234.375 164.062 956
445.312 -70.3125 933
468.75 351.562 915
367.188 23.4375 915
468.75 -54.6875 920
359.375 -54.6875 910
-39.0625 140.625 1034
70.3125 343.75 841
218.75 343.75 845
15.625 156.25 1041
218.75 140.625 987
-500 -437.5 2398
62.5 367.188 841
398.438 140.625 954
-78.125 289.062 956
375 23.4375 915
218.75 7.8125 1165
70.3125 421.875 849
273.438 242.188 862
117.188 132.812 970
484.375 62.5 1070
46.875 320.312 906
-242.188 351.562 896
164.062 62.5 1084
101.562 375 831
234.375 390.625 885
109.375 390.625 837
-39.0625 70.3125 1044
23.4375 406.25 864
-460.938 -39.0625 2908
117.188 312.5 835
0 273.438 930
398.438 -7.8125 908
31.25 343.75 854
109.375 195.312 864
117.188 93.75 1288
-31.25 281.25 940
210.938 -23.4375 1149
296.875 281.25 827
328.125 140.625 956
-468.75 -15.625 2789
312.5 265.625 819
398.438 -31.25 898
429.688 125 973
273.438 398.438 875
335.938 273.438 821
250 195.312 915
-23.4375 429.688 839
281.25 312.5 851
-468.75 -23.4375 2789
46.875 312.5 898
429.688 -23.4375 910
343.75 -7.8125 928
-78.125 218.75 987
46.875 335.938 851
39.0625 367.188 862
39.0625 335.938 851
453.125 85.9375 978
148.438 218.75 854
179.688 460.938 825
226.562 335.938 856
281.25 250 851
-70.3125 234.375 946
421.875 -23.4375 910
54.6875 109.375 1016
46.875 367.188 858
242.188 179.688 938
437.5 406.25 869
-500 -429.688 2398
390.625 250 831
-445.312 109.375 2744
117.188 7.8125 1288
320.312 132.812 967
226.562 15.625 1149
-484.375 -140.625 2680
296.875 -140.625 1073
117.188 117.188 970
312.5 -23.4375 1108
492.188 -78.125 1101
-476.562 -78.125 2767
93.75 437.5 835
351.562 -54.6875 915
367.188 -23.4375 898
148.438 148.438 925
-445.312 117.188 2744
-476.562 -132.812 2789
-406.25 46.875 2984
148.438 312.5 829
398.438 257.812 831
-468.75 -31.25 2812
109.375 312.5 839
31.25 164.062 1028
-85.9375 93.75 1013
-492.188 -242.188 1947
70.3125 187.5 1001
62.5 187.5 1001
62.5 257.812 896
281.25 351.562 858
-62.5 187.5 925
-7.8125 179.688 873
-500 -421.875 2415
281.25 -46.875 1090
-500 -406.25 2432
132.812 250 833
70.3125 359.375 837
-70.3125 171.875 913
-468.75 23.4375 2908
23.4375 257.812 887
195.312 93.75 1044
328.125 273.438 819
460.938 -62.5 925
-492.188 -257.812 1959
-109.375 265.625 967
304.688 390.625 882
421.875 125 973
468.75 242.188 841
234.375 367.188 908
93.75 367.188 831
406.25 -437.5 2859
-117.188 156.25 943
398.438 0 910
46.875 382.812 862
359.375 257.812 823
109.375 382.812 835
62.5 421.875 849
23.4375 226.562 837
-179.688 179.688 1119
460.938 406.25 873
210.938 -164.062 1108
343.75 -46.875 925
23.4375 281.25 913
31.25 93.75 1034
-54.6875 242.188 943
70.3125 109.375 1004
382.812 109.375 959
250 351.562 915
273.438 242.188 862
429.688 242.188 837
-484.375 -148.438 2659
328.125 445.312 851
398.438 351.562 889
492.188 -70.3125 1097
414.062 351.562 891
257.812 382.812 891
453.125 257.812 845
179.688 351.562 833
-39.0625 343.75 925
31.25 226.562 835
-492.188 -265.625 2028
343.75 265.625 821
343.75 265.625 821
195.312 367.188 843
414.062 367.188 908
-39.0625 156.25 1028
476.562 234.375 845
62.5 390.625 851
367.188 132.812 967
-476.562 -93.75 2744
70.3125 460.938 815
-500 -375 2467
320.312 437.5 845
15.625 257.812 889
429.688 -46.875 908
257.812 210.938 898
-109.375 257.812 959
-500 -445.312 2415
148.438 140.625 943
242.188 328.125 871
-500 -179.688 1947
250 203.125 910
70.3125 117.188 1001
398.438 132.812 978
23.4375 375 901
85.9375 265.625 873
164.062 156.25 918
351.562 148.438 951
-31.25 156.25 1041
-23.4375 156.25 1041
101.562 382.812 833
226.562 320.312 864
375 140.625 959
265.625 226.562 880
476.562 414.062 871
-93.75 140.625 938
54.6875 273.438 901
398.438 -62.5 933
-492.188 -179.688 1947
109.375 101.562 1288
-476.562 -85.9375 2744
171.875 382.812 837
171.875 406.25 871
78.125 257.812 871
101.562 -414.062 2812
7.8125 218.75 849
382.812 156.25 938
-476.562 -39.0625 2812
226.562 156.25 967
93.75 195.312 860
-500 -390.625 2415
117.188 320.312 831
132.812 429.688 849
-484.375 -171.875 2560
-460.938 39.0625 2908
335.938 7.8125 943
281.25 257.812 847
-484.375 -101.562 2744
375 39.0625 918
476.562 70.3125 1063
257.812 -171.875 1094
93.75 234.375 827
125 218.75 839
156.25 398.438 878
-15.625 265.625 943
0 312.5 964
-437.5 93.75 2812
265.625 -179.688 1094
335.938 148.438 956
-54.6875 328.125 943
328.125 390.625 889
179.688 375 837
15.625 335.938 943
-78.125 289.062 954
125 109.375 964
54.6875 421.875 854
-312.5 0 3120
46.875 171.875 1025
78.125 0 3269
234.375 46.875 1108
54.6875 171.875 1025
476.562 -78.125 1123
-335.938 0 3092
304.688 273.438 817
242.188 382.812 896
-484.375 -109.375 2723
265.625 242.188 875
132.812 320.312 827
179.688 210.938 873
226.562 -117.188 1087
46.875 242.188 825
-460.938 7.8125 2859
265.625 7.8125 1181
367.188 -54.6875 918
328.125 -7.8125 951
218.75 140.625 984
-23.4375 257.812 948
-453.125 78.125 2883
187.5 78.125 1070
-500 -304.688 1993
-500 -304.688 1993
-476.562 -140.625 2701
-484.375 -15.625 2812
31.25 156.25 1044
382.812 -31.25 894
-492.188 -234.375 1947
429.688 -23.4375 908
-492.188 -31.25 1981
-39.0625 -203.125 3010
164.062 226.562 860
-109.375 273.438 1004
132.812 273.438 829
429.688 -54.6875 925
15.625 148.438 1054
140.625 257.812 833
-500 -296.875 1993
476.562 -54.6875 928
54.6875 406.25 860
-460.938 46.875 2958
-429.688 46.875 3064
390.625 0 906
492.188 351.562 910
-70.3125 -195.312 2984
-109.375 171.875 956
-7.8125 62.5 1050
273.438 242.188 860
187.5 250 851
78.125 250 854
-492.188 -304.688 2078
406.25 -46.875 908
-78.125 320.312 948
343.75 -23.4375 925
-31.25 320.312 959
-500 -437.5 2415
46.875 382.812 864
132.812 375 831
429.688 -289.062 3037
414.062 85.9375 959
-500 -203.125 1947
406.25 375 903
-468.75 -23.4375 2812
250 -203.125 1094
367.188 -23.4375 896
-46.875 242.188 954
-500 -453.125 2415
195.312 359.375 843
367.188 265.625 825
-500 -382.812 2415
406.25 0 910
39.0625 406.25 869
304.688 437.5 845
171.875 304.688 841
187.5 85.9375 1067
140.625 328.125 827
304.688 281.25 817
453.125 -343.75 2984
7.8125 328.125 951
468.75 -132.812 3269
-140.625 132.812 964
-140.625 132.812 964
234.375 335.938 860
-85.9375 312.5 959
390.625 -62.5 928
109.375 132.812 973
257.812 257.812 887
78.125 343.75 843
-492.188 -281.25 2598
257.812 265.625 889
93.75 343.75 839
70.3125 343.75 843
23.4375 367.188 867
320.312 453.125 847
375 -54.6875 918
234.375 453.125 833
85.9375 351.562 839
257.812 453.125 837
101.562 382.812 833
-484.375 -179.688 2541
-500 -406.25 2432
-484.375 -187.5 2560
367.188 140.625 959
414.062 -46.875 908
132.812 218.75 843
-500 -421.875 2432
-359.375 0 3064
-468.75 7.8125 2859
429.688 0 920
-117.188 148.438 946
195.312 375 849
-125 148.438 954
-484.375 23.4375 2908
406.25 250 833
93.75 367.188 835
-492.188 -195.312 1959
281.25 -195.312 1087
23.4375 156.25 1047
335.938 0 940
46.875 414.062 862
273.438 359.375 860
257.812 390.625 887
359.375 148.438 948
445.312 23.4375 940
320.312 390.625 889
437.5 93.75 973
-492.188 -257.812 1959
320.312 265.625 819
445.312 359.375 903
281.25 257.812 847
414.062 429.688 864
398.438 429.688 862
-476.562 -101.562 2744
328.125 -101.562 1077
117.188 242.188 839
78.125 351.562 839
218.75 375 906
375 375 889
85.9375 359.375 835
-351.562 0 3064
-93.75 164.062 930
-476.562 -54.6875 2812
375 265.625 827
-85.9375 343.75 925
226.562 328.125 862
265.625 382.812 878
242.188 351.562 923
-500 -210.938 1947
234.375 367.188 915
367.188 46.875 918
351.562 -7.8125 915
-476.562 -93.75 2744
-304.688 0 3120
234.375 375 906
78.125 328.125 851
-468.75 0 2859
234.375 15.625 1161
406.25 15.625 920
-476.562 -109.375 2767
414.062 117.188 975
-468.75 -46.875 2812
414.062 -15.625 910
109.375 156.25 978
437.5 7.8125 928
343.75 23.4375 930
-468.75 -15.625 2835
195.312 250 851
-304.688 7.8125 3120
375 0 898
23.4375 375 901
-492.188 -312.5 2078
296.875 -171.875 1090
429.688 414.062 867
7.8125 281.25 925
226.562 359.375 845
85.9375 195.312 856
101.562 -359.375 2859
250 390.625 889
-367.188 0 3064
-7.8125 -15.625 3269
-476.562 -70.3125 2812
273.438 -125 1070
70.3125 429.688 847
125 375 833
328.125 265.625 821
-492.188 -187.5 1959
-164.062 -7.8125 3208
101.562 171.875 987
359.375 15.625 910
-500 -445.312 2415
-468.75 -39.0625 2812
453.125 15.625 938
-476.562 -85.9375 2744
398.438 117.188 970
-500 -359.375 2467
-492.188 -289.062 1981
187.5 140.625 908
31.25 250 878
257.812 242.188 898
445.312 250 837
460.938 226.562 854
265.625 226.562 880
-500 -195.312 1959
359.375 23.4375 913
85.9375 101.562 992
-468.75 -31.25 2812
406.25 257.812 833
140.625 398.438 837
351.562 -31.25 913
-484.375 -171.875 2560
218.75 -70.3125 1094
289.062 -195.312 1090
-15.625 296.875 938
281.25 -85.9375 1067
250 -210.938 1094
460.938 -15.625 925
234.375 171.875 951
101.562 234.375 829
281.25 343.75 849
-39.0625 179.688 894
-500 -281.25 1981
296.875 289.062 823
382.812 375 891
-484.375 -156.25 2680
-492.188 -265.625 2040
398.438 -54.6875 915
-343.75 0 3064
-484.375 -164.062 2618
414.062 257.812 833
-140.625 210.938 1084
273.438 328.125 856
0 328.125 951
-78.125 171.875 915
-31.25 70.3125 1054
414.062 39.0625 933
476.562 234.375 845
296.875 265.625 821
-375 0 3037
476.562 242.188 843
367.188 -54.6875 918
460.938 343.75 898
