ply
format ascii 1.0
comment Created by Open3D
element vertex 2365
property double x
property double y
property double z
end_header
-382.812 101.562 943
-359.375 70.3125 913
-226.562 -70.3125 987
-304.688 -23.4375 854
-492.188 -296.875 2226
-500 -453.125 2432
125 359.375 823
-187.5 -289.062 3120
-140.625 -31.25 1013
-351.562 -54.6875 867
-54.6875 109.375 989
-328.125 78.125 920
-23.4375 320.312 837
414.062 -140.625 951
-343.75 -78.125 1145
156.25 -117.188 1227
125 320.312 841
-179.688 296.875 843
-421.875 -39.0625 854
-62.5 250 854
-429.688 -78.125 1349
-109.375 -46.875 1022
-312.5 -281.25 1028
-218.75 -250 1047
109.375 390.625 856
-78.125 -273.438 3120
-421.875 78.125 989
-453.125 -15.625 1268
250 46.875 1292
-445.312 -39.0625 1297
-125 -281.25 3120
-203.125 -203.125 1041
-85.9375 -273.438 3120
-476.562 15.625 1232
-375 -46.875 862
-117.188 -281.25 3120
-101.562 375 889
445.312 0 1028
-390.625 -70.3125 873
-140.625 -15.625 930
-492.188 359.375 933
-226.562 -62.5 989
-210.938 289.062 847
234.375 46.875 1283
-390.625 -250 3208
242.188 117.188 1210
-273.438 -265.625 1001
70.3125 -257.812 3120
492.188 78.125 1084
-101.562 15.625 975
-406.25 62.5 913
-421.875 -78.125 1354
445.312 -132.812 946
421.875 343.75 1016
46.875 343.75 829
-70.3125 250 860
7.8125 335.938 829
-195.312 -140.625 984
-210.938 -70.3125 989
-367.188 -70.3125 873
-312.5 46.875 898
-390.625 273.438 854
156.25 -85.9375 1189
125 312.5 845
281.25 -39.0625 2723
273.438 0 1343
-218.75 -171.875 1025
-250 429.688 923
-390.625 -23.4375 849
-179.688 -109.375 989
-367.188 -78.125 1145
-93.75 312.5 837
-85.9375 242.188 858
-320.312 109.375 948
-156.25 -31.25 989
-304.688 93.75 935
-500 226.562 864
85.9375 445.312 930
-492.188 -148.438 1410
132.812 203.125 925
-93.75 242.188 860
-265.625 -242.188 1004
437.5 -7.8125 1022
-382.812 -23.4375 849
320.312 -218.75 3037
-406.25 -132.812 1415
140.625 125 981
-406.25 101.562 970
140.625 85.9375 1016
-187.5 304.688 841
-304.688 117.188 956
-296.875 109.375 948
132.812 -250 3120
-93.75 -70.3125 1028
-476.562 414.062 1073
-320.312 -31.25 851
-210.938 -78.125 989
-257.812 429.688 923
-93.75 187.5 925
-93.75 429.688 928
-304.688 -31.25 858
-500 -148.438 1410
-398.438 7.8125 867
117.188 -250 3120
-335.938 -171.875 995
54.6875 351.562 829
-179.688 -93.75 992
-367.188 -171.875 1010
-187.5 -54.6875 1010
-179.688 -39.0625 935
234.375 -234.375 3064
351.562 70.3125 1119
140.625 140.625 970
-179.688 -101.562 989
179.688 414.062 956
296.875 7.8125 1333
-437.5 242.188 864
492.188 -93.75 938
-289.062 7.8125 869
78.125 437.5 935
289.062 -226.562 3064
476.562 140.625 1153
359.375 -62.5 1019
390.625 109.375 1134
-62.5 257.812 854
-125 304.688 841
156.25 -46.875 1145
-15.625 320.312 837
-101.562 -54.6875 1047
-414.062 -62.5 873
-140.625 -39.0625 1019
-414.062 390.625 925
-70.3125 320.312 833
-78.125 148.438 908
-367.188 -7.8125 854
-484.375 359.375 933
140.625 78.125 1022
-445.312 -203.125 2984
-289.062 0 860
-296.875 62.5 910
101.562 335.938 831
-304.688 132.812 954
-406.25 -23.4375 849
-210.938 -78.125 989
-281.25 -164.062 998
-406.25 -304.688 3120
492.188 273.438 1080
-304.688 -187.5 989
117.188 367.188 829
-250 398.438 935
93.75 453.125 925
-85.9375 164.062 910
-132.812 70.3125 1013
-468.75 0 1250
-117.188 62.5 1010
-15.625 125 903
-289.062 -93.75 1034
-437.5 -39.0625 851
-382.812 421.875 925
-328.125 406.25 923
109.375 398.438 869
-7.8125 406.25 910
351.562 -62.5 1028
-15.625 156.25 894
-195.312 -31.25 946
-390.625 257.812 856
-398.438 62.5 910
-414.062 0 860
-62.5 218.75 882
-31.25 179.688 891
132.812 265.625 878
-468.75 234.375 867
445.312 132.812 1145
117.188 382.812 849
-23.4375 23.4375 1067
-351.562 23.4375 875
-382.812 85.9375 928
-78.125 210.938 885
421.875 -39.0625 1004
-359.375 -109.375 1038
242.188 -31.25 1359
-78.125 226.562 864
-281.25 85.9375 935
-210.938 -164.062 978
-445.312 -234.375 3092
460.938 -171.875 973
-164.062 93.75 989
-85.9375 -218.75 3178
-109.375 31.25 1001
-15.625 140.625 894
-335.938 375 935
-445.312 375 930
-429.688 -23.4375 854
-414.062 -15.625 851
-39.0625 187.5 887
-398.438 -23.4375 849
265.625 46.875 1292
-281.25 -187.5 998
-304.688 -257.812 987
-187.5 54.6875 1022
-414.062 -7.8125 860
-31.25 101.562 992
-328.125 -281.25 1019
-460.938 -281.25 3092
-328.125 109.375 956
-125 226.562 894
39.0625 328.125 831
-367.188 -203.125 1007
-179.688 -85.9375 989
-492.188 31.25 981
-265.625 -195.312 1001
-328.125 265.625 849
375 132.812 1173
-46.875 -273.438 3120
171.875 117.188 984
476.562 101.562 1115
-46.875 312.5 835
289.062 31.25 1138
-78.125 140.625 908
187.5 -242.188 3064
156.25 -125 1232
-359.375 -54.6875 860
54.6875 335.938 829
-39.0625 -273.438 3120
93.75 414.062 903
-70.3125 -164.062 1255
-289.062 -7.8125 862
-39.0625 429.688 930
257.812 78.125 1255
-203.125 -195.312 1050
437.5 148.438 1169
-437.5 39.0625 903
-234.375 187.5 915
-265.625 -70.3125 1138
23.4375 328.125 831
117.188 359.375 829
-359.375 -218.75 1007
-343.75 -242.188 1004
453.125 0 1028
-54.6875 109.375 984
-203.125 23.4375 970
-54.6875 335.938 835
-203.125 -210.938 1050
-367.188 109.375 956
-265.625 -203.125 1001
328.125 281.25 1063
-468.75 -343.75 2933
328.125 132.812 1197
-328.125 15.625 878
-304.688 7.8125 875
-93.75 234.375 860
460.938 125 1141
-500 54.6875 967
101.562 414.062 903
31.25 -148.438 1250
-265.625 429.688 928
-132.812 125 967
-351.562 -226.562 1004
93.75 437.5 935
-7.8125 210.938 901
-195.312 296.875 841
-351.562 265.625 849
445.312 -226.562 995
468.75 101.562 1119
-296.875 -46.875 860
273.438 -7.8125 1349
-195.312 398.438 938
-398.438 101.562 954
-195.312 -179.688 1063
-289.062 -156.25 998
-343.75 -7.8125 858
-179.688 -46.875 998
-320.312 7.8125 871
460.938 296.875 981
-78.125 109.375 981
-250 281.25 845
-156.25 -39.0625 987
-304.688 -39.0625 856
78.125 -257.812 3120
-273.438 -273.438 1001
-312.5 -210.938 987
-320.312 273.438 847
-265.625 289.062 845
7.8125 328.125 831
93.75 -140.625 1236
-375 257.812 851
-203.125 31.25 970
31.25 328.125 831
-39.0625 328.125 835
-179.688 -78.125 992
203.125 359.375 998
-15.625 187.5 901
-296.875 273.438 849
-85.9375 148.438 908
-453.125 -70.3125 1328
-492.188 351.562 933
-406.25 250 856
-375 23.4375 882
250 70.3125 1259
-210.938 31.25 978
-15.625 109.375 901
468.75 109.375 1126
-70.3125 265.625 869
-468.75 -359.375 2908
-93.75 7.8125 995
70.3125 343.75 827
-85.9375 312.5 835
-445.312 -78.125 1338
-375 398.438 925
-210.938 -187.5 1041
-132.812 -31.25 935
390.625 296.875 1054
-398.438 -39.0625 849
-203.125 296.875 843
0 187.5 896
-281.25 -296.875 1041
-210.938 -140.625 981
0 179.688 901
-312.5 7.8125 873
-171.875 421.875 923
-132.812 304.688 837
140.625 31.25 1060
257.812 -31.25 1381
390.625 140.625 1173
-351.562 -101.562 1047
257.812 101.562 1232
-304.688 23.4375 885
-117.188 148.438 954
-375 265.625 851
-148.438 414.062 930
-421.875 -250 3120
-375 -70.3125 873
-445.312 -46.875 856
140.625 62.5 1031
117.188 375 845
7.8125 148.438 906
125 304.688 847
164.062 -46.875 1138
-429.688 304.688 913
-101.562 312.5 835
226.562 218.75 1112
-312.5 15.625 878
-335.938 -257.812 1001
125 351.562 825
-54.6875 187.5 885
-421.875 85.9375 975
484.375 85.9375 1097
15.625 -265.625 3149
-218.75 289.062 843
-203.125 -164.062 981
-351.562 -140.625 1004
140.625 -250 3092
-125 54.6875 1016
23.4375 -265.625 3149
-164.062 62.5 1016
453.125 -7.8125 1016
203.125 351.562 1004
-437.5 -78.125 1333
-492.188 -148.438 1398
-367.188 -257.812 1022
140.625 23.4375 1067
-421.875 -93.75 1365
445.312 312.5 1004
-203.125 -289.062 3120
-296.875 54.6875 910
93.75 359.375 833
273.438 7.8125 1328
-382.812 343.75 954
-289.062 109.375 956
273.438 62.5 1268
-398.438 -54.6875 862
-70.3125 140.625 915
85.9375 328.125 833
-289.062 109.375 956
-375 359.375 943
15.625 320.312 835
-85.9375 320.312 833
-54.6875 117.188 901
-7.8125 421.875 940
-140.625 -39.0625 1010
148.438 -31.25 1119
93.75 343.75 827
-492.188 226.562 867
-265.625 -289.062 1025
-218.75 296.875 843
-406.25 -39.0625 849
-78.125 312.5 835
265.625 -31.25 1376
-257.812 421.875 923
93.75 421.875 903
-187.5 -31.25 940
-203.125 -187.5 1050
-492.188 39.0625 981
-54.6875 359.375 862
476.562 101.562 1115
-148.438 -31.25 935
437.5 -226.562 1031
-445.312 -273.438 3120
-375 -23.4375 849
-382.812 7.8125 871
-429.688 70.3125 989
-164.062 296.875 841
85.9375 -257.812 3120
-343.75 414.062 928
-406.25 257.812 856
125 289.062 858
-476.562 -257.812 3178
-93.75 218.75 860
-500 -273.438 2271
-187.5 23.4375 956
-343.75 -257.812 1013
-382.812 101.562 951
-257.812 -148.438 1013
-453.125 242.188 858
265.625 39.0625 1297
-46.875 320.312 833
-421.875 93.75 970
-140.625 -46.875 1013
54.6875 -148.438 1250
140.625 70.3125 1025
-93.75 203.125 889
-445.312 -85.9375 1349
140.625 7.8125 1080
421.875 148.438 1181
328.125 125 1185
-210.938 289.062 843
-312.5 -23.4375 854
-281.25 -78.125 882
-164.062 -62.5 992
-250 -78.125 1145
-132.812 -23.4375 935
437.5 0 1034
-109.375 -281.25 3120
351.562 140.625 1189
-187.5 -156.25 981
-226.562 -78.125 987
-148.438 -7.8125 933
46.875 328.125 833
-234.375 -156.25 1025
-289.062 0 869
-375 -39.0625 851
109.375 406.25 887
-187.5 -148.438 981
-445.312 -54.6875 856
-414.062 -39.0625 849
-359.375 -54.6875 860
-70.3125 -164.062 1255
-171.875 -62.5 992
-445.312 15.625 1031
-335.938 -273.438 1001
78.125 351.562 827
109.375 382.812 858
-257.812 281.25 845
125 281.25 862
140.625 0 1090
-343.75 406.25 923
-289.062 273.438 849
132.812 187.5 930
-445.312 -273.438 3120
-476.562 250 862
398.438 187.5 1145
-320.312 406.25 923
-179.688 304.688 839
-101.562 -281.25 3120
-210.938 -46.875 951
70.3125 335.938 829
-460.938 -257.812 3149
-390.625 -39.0625 851
-70.3125 312.5 837
-265.625 421.875 923
-296.875 109.375 956
-484.375 250 864
-414.062 -78.125 882
15.625 328.125 831
-242.188 -93.75 1073
289.062 -226.562 3064
-218.75 320.312 858
-367.188 257.812 851
132.812 195.312 925
-335.938 85.9375 933
421.875 -7.8125 1034
-125 -39.0625 943
-406.25 54.6875 908
148.438 -39.0625 1130
117.188 359.375 829
421.875 -15.625 1022
-117.188 -15.625 943
-23.4375 125 898
0 320.312 835
109.375 335.938 829
-117.188 140.625 956
-109.375 359.375 875
-398.438 289.062 880
-234.375 -101.562 1070
-54.6875 140.625 901
273.438 -7.8125 1349
-210.938 -164.062 978
-210.938 -39.0625 946
-312.5 109.375 959
-296.875 -148.438 1001
-171.875 312.5 839
140.625 -7.8125 1097
78.125 328.125 835
-117.188 304.688 841
-453.125 -46.875 856
-171.875 320.312 845
-304.688 -101.562 1031
195.312 -242.188 3064
-460.938 -46.875 1297
-195.312 -93.75 989
-234.375 -257.812 1041
273.438 -15.625 1359
-289.062 -296.875 1038
-226.562 -257.812 1050
-453.125 -70.3125 1328
93.75 328.125 833
-437.5 250 858
-359.375 -265.625 1025
-492.188 414.062 1097
-273.438 -101.562 1041
-453.125 375 930
218.75 210.938 1119
117.188 367.188 835
460.938 125 1141
-15.625 -234.375 3208
-312.5 -171.875 989
-398.438 250 856
-335.938 265.625 849
-171.875 -289.062 3120
390.625 179.688 1157
-289.062 -62.5 875
-39.0625 -273.438 3120
-304.688 85.9375 935
-320.312 -93.75 1038
-226.562 -101.562 1001
-453.125 367.188 930
-226.562 -125 1054
-187.5 -289.062 3120
-210.938 -7.8125 946
-414.062 -62.5 867
-218.75 -250 1050
-476.562 359.375 930
-359.375 -7.8125 858
-93.75 -85.9375 1013
-296.875 390.625 933
179.688 -242.188 3064
421.875 -140.625 948
-210.938 -234.375 1047
-125 210.938 903
-62.5 179.688 887
-234.375 -85.9375 989
15.625 164.062 928
-250 296.875 843
-226.562 -93.75 989
-179.688 -78.125 992
-93.75 -78.125 1016
-117.188 328.125 837
140.625 15.625 1073
-187.5 -70.3125 995
460.938 132.812 1145
-203.125 -156.25 981
281.25 78.125 1169
382.812 140.625 1173
132.812 171.875 943
-351.562 -257.812 1022
-265.625 -242.188 1010
-210.938 -156.25 978
-312.5 125 951
492.188 125 1219
-78.125 148.438 910
-234.375 -62.5 987
-93.75 312.5 835
-320.312 148.438 933
-15.625 406.25 908
93.75 429.688 938
-179.688 -93.75 992
-234.375 -132.812 1041
-460.938 -39.0625 1288
140.625 -15.625 1105
265.625 -226.562 3064
-429.688 -39.0625 851
296.875 0 1138
148.438 -54.6875 1145
-304.688 -281.25 1034
382.812 132.812 1169
-406.25 -54.6875 860
265.625 7.8125 1328
125 343.75 825
-101.562 -7.8125 948
-406.25 390.625 928
-320.312 265.625 849
-62.5 203.125 885
-46.875 218.75 887
-406.25 -70.3125 875
-296.875 -171.875 995
-195.312 -164.062 1067
-359.375 414.062 938
-460.938 234.375 864
-101.562 171.875 933
-140.625 -31.25 935
-250 -171.875 1010
-476.562 320.312 959
281.25 39.0625 1292
-484.375 367.188 930
-70.3125 250 851
-281.25 93.75 938
-343.75 367.188 940
-484.375 226.562 867
78.125 343.75 827
-187.5 -281.25 3149
-273.438 -62.5 878
-117.188 210.938 903
-429.688 15.625 885
-242.188 93.75 987
-500 -429.688 2381
-7.8125 320.312 835
-484.375 -148.438 1398
-46.875 210.938 885
46.875 -148.438 1250
-117.188 -281.25 3120
-140.625 85.9375 998
-62.5 140.625 915
-242.188 -250 1028
0 195.312 894
-273.438 85.9375 935
-7.8125 226.562 901
-140.625 -23.4375 935
-304.688 -39.0625 856
265.625 15.625 1317
-15.625 320.312 835
-117.188 46.875 1016
132.812 164.062 948
-210.938 -132.812 984
-78.125 156.25 913
-304.688 289.062 849
-406.25 -23.4375 849
-281.25 46.875 903
109.375 390.625 862
-453.125 -140.625 1404
-62.5 312.5 835
15.625 203.125 889
-156.25 78.125 1007
484.375 85.9375 1097
-281.25 78.125 933
-429.688 0 867
-109.375 23.4375 992
-312.5 273.438 847
-101.562 210.938 860
-320.312 23.4375 882
-390.625 351.562 948
-242.188 -140.625 1025
-375 -85.9375 1145
-445.312 -312.5 3037
-179.688 -85.9375 989
-390.625 101.562 951
-367.188 351.562 951
-382.812 -85.9375 1141
-445.312 -85.9375 1349
125 273.438 869
-320.312 -281.25 1025
-453.125 421.875 1115
-187.5 -156.25 981
-351.562 -195.312 995
390.625 -156.25 959
148.438 -250 3092
203.125 289.062 1050
-31.25 -273.438 3120
453.125 -125 940
-312.5 -257.812 987
70.3125 445.312 925
93.75 414.062 903
-359.375 -304.688 3064
-117.188 46.875 1016
117.188 343.75 825
-429.688 242.188 860
-203.125 289.062 843
54.6875 328.125 833
62.5 -148.438 1245
-312.5 101.562 946
-312.5 -15.625 858
-429.688 -85.9375 1354
-312.5 -210.938 987
484.375 -125 938
-187.5 -148.438 981
-164.062 -39.0625 989
437.5 132.812 1153
-132.812 -117.188 1025
-281.25 85.9375 935
117.188 367.188 835
-250 281.25 845
-148.438 -31.25 935
-367.188 23.4375 882
-218.75 -93.75 995
296.875 125 1206
-117.188 85.9375 1001
-250 -210.938 1010
-390.625 39.0625 896
117.188 351.562 825
-398.438 351.562 946
-429.688 -140.625 1415
78.125 453.125 923
93.75 351.562 827
-414.062 -15.625 851
7.8125 46.875 1041
250 382.812 984
-312.5 -15.625 858
453.125 140.625 1165
-296.875 -39.0625 856
117.188 375 845
31.25 -265.625 3149
109.375 398.438 875
109.375 398.438 875
-125 367.188 891
281.25 382.812 981
-304.688 78.125 928
-351.562 406.25 925
-62.5 148.438 915
250 54.6875 1278
-312.5 429.688 928
-375 101.562 951
-31.25 234.375 896
-85.9375 -46.875 959
-335.938 15.625 878
-304.688 -156.25 995
0 -195.312 3149
429.688 -15.625 1019
-210.938 -156.25 978
-179.688 -70.3125 995
453.125 296.875 1016
-93.75 226.562 860
296.875 -226.562 3064
265.625 23.4375 1312
304.688 125 1202
-453.125 234.375 864
-304.688 -54.6875 867
-382.812 257.812 851
273.438 39.0625 1292
367.188 -93.75 995
-359.375 140.625 938
359.375 140.625 1189
23.4375 226.562 898
-367.188 257.812 851
-320.312 125 954
-453.125 -7.8125 1047
-164.062 -31.25 935
273.438 70.3125 1255
39.0625 328.125 831
-437.5 -85.9375 1349
-460.938 -351.562 2908
-46.875 335.938 835
-78.125 132.812 967
-289.062 -195.312 995
-500 -148.438 1398
-156.25 -31.25 935
460.938 117.188 1130
-484.375 -109.375 1376
453.125 132.812 1153
-335.938 367.188 943
-242.188 -132.812 1031
406.25 -148.438 954
-312.5 -281.25 1034
-390.625 -85.9375 1141
-343.75 -250 1004
-304.688 273.438 849
-281.25 273.438 849
-39.0625 312.5 837
-414.062 -85.9375 882
-437.5 -312.5 3092
-187.5 -31.25 940
-54.6875 312.5 835
-78.125 -210.938 3149
-164.062 -289.062 3120
140.625 -250 3092
-101.562 -62.5 1038
-453.125 -312.5 3037
-31.25 164.062 903
-117.188 -46.875 1019
-117.188 203.125 908
93.75 -257.812 3120
-218.75 -85.9375 992
468.75 109.375 1126
-195.312 -187.5 1060
-500 234.375 862
476.562 93.75 1105
-398.438 250 856
-203.125 -187.5 1050
414.062 132.812 1157
-328.125 -70.3125 875
-210.938 -148.438 978
-242.188 281.25 847
437.5 140.625 1165
-187.5 -140.625 984
23.4375 328.125 831
-179.688 -289.062 3120
-234.375 -78.125 987
390.625 132.812 1161
117.188 335.938 829
492.188 -234.375 1084
-492.188 226.562 867
492.188 93.75 1108
-382.812 -39.0625 851
-46.875 328.125 833
445.312 132.812 1157
273.438 -15.625 1359
-390.625 -171.875 1038
-109.375 195.312 918
-289.062 7.8125 875
-304.688 -93.75 1044
-62.5 164.062 896
132.812 148.438 959
-476.562 -171.875 2908
-359.375 101.562 948
109.375 375 845
-210.938 -171.875 1041
-398.438 -54.6875 862
-140.625 304.688 837
164.062 -46.875 1138
421.875 132.812 1153
-54.6875 109.375 984
-367.188 265.625 849
-93.75 -281.25 3120
289.062 7.8125 1141
-328.125 273.438 849
-406.25 -54.6875 860
-351.562 7.8125 871
-406.25 -70.3125 875
46.875 328.125 833
265.625 31.25 1307
-367.188 101.562 951
-171.875 -31.25 935
-289.062 -164.062 998
-210.938 289.062 843
-460.938 -54.6875 1302
109.375 390.625 862
140.625 -23.4375 1108
-414.062 -23.4375 849
39.0625 343.75 829
-101.562 -281.25 3120
70.3125 351.562 829
-156.25 296.875 841
-210.938 -39.0625 946
-304.688 39.0625 901
367.188 281.25 1063
-281.25 39.0625 901
-421.875 -85.9375 880
-203.125 -62.5 1013
-351.562 257.812 851
-382.812 -54.6875 862
-351.562 78.125 928
-453.125 -78.125 1338
-117.188 304.688 841
468.75 281.25 962
-125 -31.25 943
-375 257.812 851
109.375 382.812 858
140.625 -31.25 1119
140.625 101.562 998
-273.438 -179.688 998
-468.75 242.188 858
148.438 -62.5 1153
-93.75 453.125 915
125 343.75 825
-187.5 -132.812 987
-468.75 312.5 940
-367.188 -54.6875 862
-78.125 218.75 878
-164.062 -31.25 935
-265.625 -296.875 1028
-382.812 -85.9375 1141
492.188 70.3125 1084
-218.75 -156.25 978
-320.312 78.125 928
117.188 359.375 829
460.938 265.625 1080
-257.812 -187.5 1007
-460.938 -187.5 2908
-289.062 367.188 951
-359.375 -39.0625 851
-156.25 -289.062 3120
-429.688 250 856
-85.9375 312.5 835
-273.438 -226.562 1001
-164.062 296.875 841
-328.125 -289.062 1019
-335.938 406.25 923
-296.875 -31.25 854
-101.562 242.188 860
0 171.875 908
250 -234.375 3064
250 62.5 1273
273.438 -23.4375 1349
-328.125 -234.375 995
-289.062 -15.625 858
-226.562 -195.312 1025
-484.375 23.4375 1219
468.75 117.188 1138
-187.5 -148.438 981
-234.375 -195.312 1016
-234.375 -265.625 1050
-335.938 78.125 928
-460.938 -31.25 1278
296.875 242.188 1097
-304.688 -70.3125 882
265.625 78.125 1255
-500 46.875 967
-85.9375 -281.25 3092
-421.875 242.188 860
-289.062 273.438 849
-101.562 328.125 837
164.062 375 981
132.812 179.688 935
-375 -85.9375 1145
-429.688 -85.9375 1354
-132.812 -39.0625 1010
140.625 -39.0625 1130
39.0625 335.938 829
-351.562 -39.0625 851
-39.0625 132.812 896
-476.562 -398.438 2835
-23.4375 148.438 894
-31.25 101.562 992
-179.688 -78.125 992
39.0625 -265.625 3120
-15.625 335.938 833
-70.3125 257.812 860
-289.062 281.25 847
-234.375 -39.0625 967
-39.0625 179.688 889
257.812 62.5 1273
-421.875 93.75 970
273.438 54.6875 1278
-281.25 382.812 940
0 335.938 831
-406.25 -85.9375 885
-382.812 351.562 948
-210.938 -54.6875 989
234.375 -93.75 2835
-320.312 265.625 849
23.4375 382.812 880
-343.75 -210.938 995
132.812 156.25 954
-445.312 265.625 864
265.625 93.75 1241
-31.25 328.125 833
-70.3125 320.312 833
-226.562 -117.188 1070
-125 320.312 837
-210.938 -140.625 981
-382.812 -46.875 856
148.438 -132.812 1236
-414.062 250 856
-312.5 320.312 887
117.188 343.75 825
-187.5 -156.25 981
-62.5 -273.438 3120
85.9375 -257.812 3120
-476.562 -148.438 2835
-328.125 -273.438 995
-367.188 -39.0625 851
-218.75 -164.062 978
-484.375 -148.438 1398
-375 -273.438 1031
-414.062 -85.9375 882
-218.75 437.5 923
140.625 54.6875 1038
-125 -39.0625 943
359.375 -273.438 2835
125 257.812 878
289.062 15.625 1130
-109.375 15.625 987
218.75 359.375 998
-195.312 -281.25 3149
-226.562 289.062 843
-406.25 250 856
-304.688 -62.5 873
-85.9375 453.125 913
-109.375 304.688 839
-312.5 -117.188 1010
-93.75 210.938 878
-367.188 398.438 923
304.688 257.812 1084
-312.5 421.875 928
-23.4375 117.188 901
-93.75 203.125 889
-101.562 304.688 839
132.812 132.812 975
-390.625 -54.6875 860
-54.6875 328.125 833
210.938 210.938 1119
-484.375 382.812 935
-304.688 414.062 923
-187.5 -140.625 984
-382.812 -187.5 1025
-132.812 304.688 837
-140.625 -39.0625 1010
-359.375 -85.9375 1145
-210.938 -148.438 978
148.438 -54.6875 1145
335.938 125 1181
-476.562 367.188 930
-171.875 -289.062 3120
-273.438 -109.375 1028
-351.562 -187.5 995
-281.25 414.062 923
-429.688 -312.5 3092
289.062 257.812 1084
-343.75 -187.5 995
-390.625 -195.312 1034
23.4375 -265.625 3149
-117.188 148.438 954
-367.188 -195.312 1007
-460.938 -7.8125 1250
-406.25 -117.188 1392
-367.188 -117.188 1034
148.438 101.562 1001
-484.375 226.562 867
-23.4375 -273.438 3120
-320.312 23.4375 882
-23.4375 328.125 833
-445.312 367.188 933
195.312 -85.9375 2835
54.6875 328.125 833
-429.688 382.812 930
-375 -54.6875 862
-351.562 -234.375 1007
-359.375 93.75 940
-234.375 437.5 923
-101.562 179.688 925
265.625 -7.8125 1349
-195.312 -85.9375 992
31.25 328.125 831
-242.188 -93.75 1073
125 -250 3120
-203.125 -93.75 995
-375 -7.8125 858
-62.5 367.188 873
-93.75 218.75 860
-234.375 -132.812 1041
-187.5 -132.812 987
-179.688 -54.6875 998
-164.062 -39.0625 989
-210.938 -70.3125 995
-390.625 -31.25 849
-398.438 -62.5 867
-46.875 132.812 898
117.188 359.375 829
140.625 -46.875 1138
-367.188 -23.4375 849
-296.875 -164.062 995
-359.375 257.812 849
-429.688 -140.625 1415
-398.438 -85.9375 1141
-265.625 -226.562 1004
-453.125 -78.125 1338
-437.5 46.875 1007
406.25 -140.625 954
-62.5 312.5 835
265.625 0 1338
-78.125 156.25 913
-257.812 -234.375 1010
-398.438 390.625 928
-93.75 156.25 910
-460.938 421.875 1108
257.812 -234.375 3037
-210.938 -164.062 978
-117.188 70.3125 1013
-312.5 -140.625 998
-187.5 -78.125 992
281.25 -15.625 1359
-242.188 -164.062 1013
171.875 -226.562 3120
-367.188 -85.9375 1145
437.5 -140.625 946
-210.938 -62.5 995
-164.062 70.3125 1010
132.812 -140.625 1236
-281.25 54.6875 913
203.125 -242.188 3064
0 203.125 894
-492.188 -156.25 2485
-468.75 -335.938 2958
-218.75 -156.25 978
-484.375 414.062 1094
-437.5 -85.9375 1349
-453.125 234.375 864
-7.8125 320.312 835
-421.875 -140.625 1410
-296.875 -23.4375 854
-335.938 281.25 849
-296.875 -46.875 860
-242.188 429.688 923
132.812 140.625 967
-359.375 -156.25 1001
93.75 445.312 928
164.062 -242.188 3120
281.25 31.25 1307
-156.25 -31.25 935
-7.8125 203.125 898
414.062 -23.4375 1019
-101.562 195.312 918
484.375 78.125 1090
-85.9375 195.312 894
-187.5 375 923
-273.438 429.688 930
-390.625 -7.8125 858
156.25 -78.125 1177
429.688 -23.4375 1016
-195.312 289.062 843
-109.375 -54.6875 1038
109.375 382.812 858
148.438 -78.125 1169
156.25 -54.6875 1145
343.75 125 1173
140.625 39.0625 1054
-203.125 -78.125 1001
-351.562 -171.875 998
203.125 273.438 1063
-281.25 421.875 925
-351.562 101.562 948
-296.875 273.438 849
-218.75 -15.625 956
468.75 109.375 1126
382.812 156.25 1181
445.312 273.438 1077
-23.4375 125 898
-78.125 195.312 887
-54.6875 210.938 885
273.438 -23.4375 1349
-437.5 -171.875 2859
-23.4375 210.938 898
-109.375 148.438 910
-54.6875 234.375 851
-289.062 -203.125 992
-117.188 312.5 837
367.188 -140.625 973
-85.9375 93.75 998
-296.875 382.812 935
257.812 382.812 984
-359.375 31.25 887
-367.188 -70.3125 873
-39.0625 234.375 851
156.25 -46.875 1138
109.375 343.75 825
-210.938 -171.875 1041
-421.875 -125 1398
-328.125 -15.625 854
101.562 421.875 903
-437.5 -250 3178
-289.062 15.625 882
-429.688 375 930
101.562 -257.812 3092
-375 23.4375 882
-304.688 -15.625 856
-132.812 -39.0625 1010
-312.5 -23.4375 854
-343.75 406.25 923
-156.25 414.062 933
492.188 70.3125 1084
-226.562 125 962
-351.562 62.5 913
-31.25 226.562 898
54.6875 335.938 829
-101.562 210.938 860
-328.125 101.562 948
-304.688 109.375 959
-250 101.562 978
-62.5 218.75 875
476.562 -125 938
257.812 46.875 1292
-281.25 273.438 849
445.312 -7.8125 1019
-164.062 -46.875 989
-171.875 -31.25 935
-62.5 234.375 854
382.812 -132.812 962
429.688 -7.8125 1031
414.062 -7.8125 1034
296.875 382.812 981
-335.938 -187.5 992
-187.5 -125 989
-164.062 -31.25 935
-164.062 -125 1010
109.375 367.188 839
-359.375 -125 1019
429.688 132.812 1153
406.25 132.812 1157
-85.9375 242.188 860
148.438 -250 3092
-265.625 -148.438 1010
-414.062 93.75 967
398.438 132.812 1157
-46.875 203.125 882
-148.438 296.875 841
-210.938 -140.625 981
-460.938 -62.5 1317
-289.062 101.562 951
-257.812 -62.5 1130
117.188 -218.75 3178
85.9375 437.5 935
-406.25 -85.9375 885
-492.188 -148.438 1398
-312.5 -195.312 987
-476.562 226.562 867
39.0625 31.25 1057
-335.938 148.438 930
-382.812 -78.125 873
460.938 -132.812 938
-468.75 234.375 864
-382.812 -54.6875 862
-15.625 328.125 833
-101.562 187.5 923
-304.688 -78.125 882
437.5 -7.8125 1028
-382.812 -125 1044
-257.812 -171.875 1007
476.562 93.75 1105
-390.625 -273.438 3178
-101.562 156.25 910
-429.688 -210.938 3037
304.688 117.188 1189
46.875 -265.625 3120
117.188 328.125 831
484.375 93.75 1105
289.062 31.25 1138
367.188 132.812 1173
-148.438 93.75 992
-265.625 -78.125 1067
-367.188 -304.688 3092
-343.75 -109.375 1025
-78.125 226.562 864
-296.875 93.75 943
125 234.375 896
-281.25 62.5 918
-367.188 7.8125 869
-15.625 148.438 894
-414.062 0 867
-257.812 281.25 845
-421.875 -85.9375 880
70.3125 429.688 935
15.625 445.312 925
7.8125 164.062 928
-382.812 234.375 867
289.062 -78.125 2789
460.938 125 1141
-304.688 -265.625 984
-257.812 -218.75 1007
101.562 335.938 827
-367.188 15.625 875
-273.438 273.438 849
304.688 406.25 964
-320.312 -289.062 1025
0 320.312 835
-367.188 210.938 885
-343.75 148.438 933
460.938 273.438 1028
-296.875 156.25 933
-375 -117.188 1044
-390.625 62.5 915
-273.438 -39.0625 871
-218.75 406.25 930
-164.062 -39.0625 989
101.562 406.25 887
125 -218.75 3149
-39.0625 179.688 889
-242.188 -101.562 1063
148.438 -85.9375 1185
-109.375 203.125 908
-421.875 242.188 860
-78.125 210.938 882
-78.125 -62.5 967
15.625 210.938 894
-148.438 156.25 943
-179.688 109.375 978
-242.188 281.25 847
-203.125 296.875 843
-492.188 312.5 954
-343.75 7.8125 871
-328.125 125 951
-7.8125 31.25 1054
-289.062 23.4375 887
-148.438 -289.062 3092
101.562 390.625 862
453.125 242.188 1101
-78.125 304.688 839
492.188 203.125 1145
-109.375 390.625 915
101.562 -132.812 1232
-140.625 70.3125 1013
-39.0625 148.438 901
-195.312 7.8125 984
-437.5 242.188 862
-125 93.75 995
70.3125 328.125 833
-492.188 -460.938 2503
-179.688 296.875 839
-281.25 -70.3125 882
-85.9375 210.938 878
-296.875 -195.312 989
93.75 351.562 827
-46.875 195.312 882
-109.375 156.25 943
-476.562 -281.25 3120
-382.812 -7.8125 858
-93.75 179.688 928
-453.125 -281.25 3120
-335.938 101.562 948
476.562 101.562 1115
-484.375 15.625 1223
-117.188 31.25 992
-367.188 62.5 915
156.25 -250 3092
-351.562 257.812 851
148.438 -70.3125 1165
-15.625 -273.438 3120
265.625 15.625 1317
-445.312 234.375 864
148.438 414.062 956
70.3125 414.062 908
-39.0625 -203.125 3120
-468.75 -234.375 3092
-265.625 -187.5 1001
-468.75 -226.562 3092
-351.562 -257.812 1022
-15.625 187.5 901
406.25 -179.688 978
-132.812 -31.25 935
-187.5 289.062 845
109.375 375 845
-296.875 -31.25 854
-210.938 -132.812 984
109.375 -257.812 3092
-390.625 23.4375 882
421.875 -15.625 1022
406.25 140.625 1169
-351.562 140.625 938
-445.312 23.4375 1028
-39.0625 101.562 992
-421.875 -312.5 3092
-468.75 367.188 930
39.0625 328.125 831
-156.25 296.875 841
-101.562 148.438 910
-343.75 257.812 851
-312.5 265.625 849
-414.062 -312.5 3092
-179.688 -125 992
-460.938 -46.875 1297
7.8125 320.312 835
-226.562 -296.875 3120
-15.625 414.062 946
-335.938 -226.562 998
-398.438 -70.3125 875
-78.125 -281.25 3092
-62.5 335.938 835
-132.812 226.562 894
-460.938 -31.25 1278
-156.25 70.3125 1013
-406.25 -234.375 3092
-156.25 -289.062 3120
-500 359.375 930
-164.062 -46.875 989
-242.188 320.312 869
117.188 351.562 825
-203.125 -164.062 981
148.438 -62.5 1153
398.438 -164.062 962
-453.125 -46.875 856
-500 -164.062 2432
-429.688 78.125 984
-367.188 257.812 851
-54.6875 312.5 835
-320.312 273.438 847
-375 398.438 925
-273.438 -93.75 1050
-164.062 -289.062 3120
93.75 -257.812 3120
132.812 125 981
-85.9375 -281.25 3092
414.062 -23.4375 1019
-23.4375 320.312 835
-445.312 -62.5 864
265.625 7.8125 1328
437.5 132.812 1153
93.75 343.75 827
-218.75 445.312 920
304.688 -226.562 3064
-226.562 -218.75 1025
-335.938 -257.812 1001
-328.125 101.562 948
250 85.9375 1245
-492.188 31.25 981
109.375 382.812 858
-171.875 -125 1004
-367.188 -15.625 854
-351.562 -15.625 854
-359.375 -304.688 3064
-78.125 101.562 989
-140.625 296.875 841
-234.375 281.25 847
-70.3125 148.438 915
-54.6875 328.125 833
-109.375 164.062 938
132.812 117.188 987
-335.938 -195.312 992
-226.562 -109.375 1073
-320.312 -234.375 995
-296.875 0 869
-109.375 195.312 918
-406.25 -15.625 851
-414.062 -85.9375 882
140.625 -70.3125 1165
-359.375 257.812 849
-140.625 -46.875 1013
257.812 54.6875 1283
-132.812 210.938 903
-218.75 304.688 843
-210.938 -164.062 978
140.625 -85.9375 1185
132.812 101.562 998
-453.125 -7.8125 1047
-335.938 -85.9375 1044
257.812 31.25 1307
-414.062 -23.4375 849
-101.562 304.688 839
257.812 62.5 1273
421.875 -23.4375 1016
-148.438 39.0625 992
-476.562 -148.438 2835
-320.312 -195.312 987
-101.562 218.75 860
-312.5 -78.125 885
-289.062 382.812 938
-492.188 390.625 1041
437.5 -15.625 1019
148.438 -78.125 1169
-398.438 -312.5 3092
-375 -148.438 1019
-7.8125 328.125 831
117.188 320.312 837
195.312 -242.188 3064
-421.875 -140.625 1410
-312.5 39.0625 898
484.375 78.125 1090
125 265.625 875
-453.125 0 1047
-460.938 414.062 1090
-226.562 0 1019
-320.312 -148.438 998
-195.312 -23.4375 940
-304.688 406.25 923
-453.125 242.188 858
-187.5 -117.188 989
-359.375 7.8125 871
-367.188 -187.5 1007
132.812 -140.625 1236
-304.688 -203.125 987
93.75 406.25 887
-375 -289.062 3092
-320.312 101.562 946
-484.375 -171.875 2883
250 93.75 1236
-289.062 85.9375 935
234.375 39.0625 1288
-289.062 93.75 943
-390.625 382.812 928
-218.75 -296.875 3120
109.375 335.938 829
-187.5 -140.625 984
-281.25 -296.875 1041
-359.375 -62.5 867
-453.125 -85.9375 1349
-460.938 -39.0625 1288
-226.562 296.875 843
296.875 312.5 1038
-492.188 242.188 862
-406.25 -156.25 1057
-54.6875 164.062 894
-101.562 140.625 906
-23.4375 -273.438 3120
-414.062 -140.625 1404
-390.625 250 856
-429.688 70.3125 989
-39.0625 273.438 864
-93.75 203.125 889
-375 -62.5 867
-125 210.938 903
78.125 328.125 835
-93.75 234.375 860
156.25 101.562 998
-414.062 382.812 928
468.75 328.125 970
234.375 437.5 940
-343.75 101.562 951
406.25 320.312 1034
-500 351.562 930
-335.938 23.4375 882
31.25 437.5 930
-203.125 23.4375 970
-351.562 265.625 849
-148.438 -39.0625 1001
-140.625 23.4375 933
62.5 335.938 829
-335.938 70.3125 920
39.0625 -265.625 3120
257.812 85.9375 1245
-273.438 421.875 923
148.438 -101.562 1197
257.812 15.625 1322
453.125 125 1141
0 335.938 831
-187.5 -132.812 987
-304.688 -218.75 992
-242.188 -164.062 1013
-46.875 312.5 835
140.625 -101.562 1197
-304.688 93.75 943
-93.75 132.812 906
-500 226.562 862
-273.438 -54.6875 873
-93.75 -281.25 3120
-226.562 281.25 849
132.812 109.375 992
-351.562 -109.375 1028
-320.312 31.25 889
-109.375 -281.25 3120
-382.812 -281.25 3092
7.8125 171.875 928
-414.062 -70.3125 875
-218.75 -164.062 978
117.188 312.5 843
312.5 -226.562 3037
-187.5 -140.625 984
-7.8125 -273.438 3120
-382.812 -78.125 873
-296.875 -23.4375 854
-382.812 -62.5 867
-312.5 -218.75 992
-289.062 273.438 849
-281.25 -218.75 998
-39.0625 132.812 896
117.188 304.688 849
-210.938 -140.625 981
476.562 93.75 1105
-390.625 -31.25 849
-15.625 -273.438 3120
-62.5 187.5 885
-125 -46.875 1013
-125 304.688 839
-429.688 -140.625 1415
-78.125 203.125 887
101.562 406.25 887
492.188 62.5 1073
132.812 93.75 1004
-164.062 -265.625 3178
-54.6875 195.312 882
390.625 -148.438 959
-476.562 226.562 867
-187.5 -109.375 989
-437.5 -312.5 3092
-140.625 -289.062 3092
117.188 351.562 825
-203.125 -164.062 981
148.438 -109.375 1210
-343.75 -257.812 1013
-85.9375 140.625 908
265.625 -234.375 3064
476.562 85.9375 1097
-500 218.75 862
-203.125 -39.0625 946
-445.312 -46.875 856
-164.062 -46.875 989
289.062 0 1138
-398.438 -78.125 875
406.25 328.125 1028
-210.938 -78.125 992
62.5 -148.438 1245
-148.438 296.875 841
-390.625 -78.125 875
-93.75 304.688 841
195.312 -226.562 3120
15.625 320.312 835
-78.125 312.5 835
-109.375 218.75 860
-203.125 -109.375 989
-382.812 218.75 875
-359.375 -226.562 1010
101.562 -257.812 3092
85.9375 453.125 925
-460.938 367.188 930
429.688 -23.4375 1016
-226.562 -117.188 1070
-312.5 101.562 946
-382.812 -31.25 849
-304.688 -195.312 987
125 210.938 913
-328.125 7.8125 871
109.375 359.375 829
-351.562 85.9375 935
78.125 -257.812 3120
-273.438 414.062 923
-367.188 398.438 923
-312.5 273.438 847
-187.5 -179.688 1073
-164.062 -54.6875 989
-406.25 -312.5 3092
-445.312 -78.125 1338
460.938 117.188 1130
-218.75 -171.875 1031
-398.438 31.25 889
-421.875 93.75 970
-320.312 93.75 940
-367.188 -54.6875 862
-203.125 -54.6875 1016
382.812 132.812 1169
-85.9375 -257.812 3149
-460.938 -148.438 2835
-250 -78.125 1145
-328.125 281.25 849
101.562 382.812 858
-101.562 179.688 925
70.3125 335.938 829
296.875 -109.375 2933
-382.812 101.562 951
148.438 -117.188 1219
-296.875 -85.9375 1050
265.625 39.0625 1297
-296.875 -15.625 858
46.875 437.5 928
-210.938 -132.812 984
210.938 -242.188 3064
375 140.625 1177
-85.9375 156.25 913
-171.875 62.5 1016
398.438 -148.438 956
-109.375 304.688 839
39.0625 414.062 913
320.312 117.188 1185
289.062 -85.9375 2789
-31.25 320.312 835
-132.812 296.875 843
-70.3125 304.688 841
-429.688 -85.9375 1354
-304.688 -85.9375 1050
-265.625 93.75 943
414.062 312.5 1041
359.375 -273.438 2835
-367.188 -203.125 1007
-203.125 -148.438 978
148.438 -93.75 1189
273.438 62.5 1268
351.562 132.812 1173
-398.438 257.812 854
421.875 132.812 1153
-195.312 289.062 843
-328.125 -289.062 1019
281.25 23.4375 1312
15.625 156.25 933
-210.938 -54.6875 989
-109.375 453.125 915
-390.625 -312.5 3092
-265.625 273.438 849
-343.75 257.812 851
-312.5 -31.25 854
156.25 109.375 989
375 132.812 1173
132.812 85.9375 1010
-289.062 -101.562 1034
484.375 78.125 1090
101.562 398.438 875
-78.125 242.188 858
257.812 39.0625 1297
265.625 23.4375 1312
265.625 -15.625 1359
-414.062 70.3125 925
-304.688 -226.562 992
-242.188 398.438 933
-453.125 -85.9375 1349
468.75 101.562 1119
453.125 -132.812 940
398.438 148.438 1185
-375 -78.125 873
70.3125 -226.562 3178
62.5 343.75 829
-85.9375 226.562 860
31.25 -265.625 3149
125 242.188 889
-312.5 -7.8125 860
-406.25 101.562 962
-78.125 -281.25 3092
15.625 179.688 935
484.375 179.688 1161
-210.938 -179.688 1041
-484.375 156.25 918
-476.562 414.062 1084
-312.5 93.75 940
-406.25 93.75 946
-109.375 -62.5 1047
-125 -250 3208
23.4375 320.312 835
15.625 437.5 928
-132.812 -250 3208
-289.062 414.062 923
-351.562 281.25 849
70.3125 351.562 829
-429.688 -46.875 856
-125 46.875 1010
-312.5 31.25 891
-460.938 -70.3125 1328
-335.938 0 864
-367.188 -226.562 1019
-109.375 0 948
492.188 -218.75 1067
414.062 320.312 1034
-421.875 382.812 928
429.688 -140.625 948
132.812 406.25 959
109.375 375 845
468.75 -132.812 940
-320.312 -85.9375 1054
-500 39.0625 981
164.062 -250 3092
406.25 -23.4375 1022
257.812 70.3125 1259
-296.875 109.375 956
421.875 328.125 1019
484.375 109.375 1123
117.188 296.875 854
-242.188 -117.188 1044
-273.438 70.3125 925
-367.188 -140.625 1013
164.062 414.062 956
-414.062 -140.625 1404
296.875 117.188 1193
-117.188 304.688 841
-382.812 390.625 925
-414.062 242.188 860
85.9375 429.688 938
-62.5 210.938 885
-390.625 -265.625 3178
-273.438 273.438 849
-328.125 117.188 959
468.75 -54.6875 981
-101.562 164.062 913
-359.375 -85.9375 1145
-312.5 429.688 928
-78.125 257.812 871
-414.062 328.125 943
-85.9375 203.125 887
-492.188 226.562 867
-93.75 140.625 906
-382.812 250 856
-140.625 -39.0625 1010
-31.25 117.188 898
46.875 328.125 833
-492.188 -132.812 1398
250 78.125 1255
-210.938 -226.562 1044
398.438 140.625 1169
-468.75 -406.25 2812
-359.375 -164.062 1001
273.438 85.9375 1185
85.9375 328.125 833
-343.75 -15.625 854
54.6875 343.75 829
-320.312 -15.625 854
-312.5 -210.938 987
117.188 343.75 825
484.375 70.3125 1084
-62.5 304.688 841
132.812 78.125 1016
93.75 335.938 827
-62.5 328.125 833
-312.5 -195.312 987
-117.188 296.875 845
-289.062 23.4375 887
-390.625 -62.5 867
109.375 367.188 839
-414.062 93.75 967
-304.688 367.188 946
-195.312 -78.125 998
125 203.125 920
-398.438 -31.25 849
-406.25 -242.188 3092
-375 54.6875 908
-164.062 296.875 841
-62.5 101.562 989
-335.938 -15.625 854
-476.562 -179.688 2933
-234.375 -265.625 1050
-39.0625 -273.438 3120
-500 -304.688 2226
492.188 54.6875 1067
-125 -46.875 1013
210.938 109.375 1210
-375 -179.688 1010
-312.5 0 867
-179.688 289.062 845
-234.375 -132.812 1041
-70.3125 312.5 837
421.875 289.062 1060
125 195.312 925
-101.562 -78.125 1028
-320.312 101.562 946
-148.438 -39.0625 1001
-445.312 234.375 864
-453.125 -226.562 3064
-187.5 289.062 845
351.562 -273.438 2908
-250 -85.9375 1070
468.75 -39.0625 989
-320.312 -257.812 989
101.562 390.625 862
-421.875 -242.188 3120
140.625 -109.375 1210
-39.0625 312.5 837
-328.125 -85.9375 1044
-101.562 234.375 860
-312.5 -39.0625 856
-70.3125 148.438 915
-335.938 -85.9375 1044
54.6875 -265.625 3120
-359.375 101.562 948
390.625 132.812 1161
-203.125 -39.0625 946
265.625 0 1338
-500 -156.25 1398
140.625 -125 1227
-421.875 -70.3125 873
-15.625 203.125 906
-406.25 -78.125 885
125 187.5 933
-156.25 437.5 915
-70.3125 -281.25 3120
31.25 343.75 829
-296.875 93.75 943
203.125 281.25 1054
-414.062 -31.25 849
-273.438 -109.375 1028
-164.062 -39.0625 989
-375 7.8125 869
-85.9375 304.688 841
-218.75 -78.125 987
-382.812 -312.5 3064
-109.375 148.438 910
-367.188 -296.875 3092
-218.75 281.25 847
257.812 23.4375 1312
-468.75 226.562 869
-398.438 -281.25 3149
-242.188 -156.25 1019
-15.625 343.75 839
-109.375 226.562 860
-234.375 281.25 847
-390.625 23.4375 882
-62.5 179.688 887
-31.25 312.5 837
-320.312 -203.125 987
-93.75 242.188 860
-109.375 203.125 908
-375 -15.625 854
-234.375 -85.9375 989
-367.188 -62.5 867
398.438 -54.6875 1007
85.9375 414.062 906
-195.312 -62.5 1007
414.062 132.812 1157
257.812 78.125 1255
-367.188 -15.625 854
-406.25 -31.25 849
-367.188 15.625 882
148.438 -125 1219
-421.875 -23.4375 856
-320.312 -218.75 989
-382.812 -210.938 1013
140.625 421.875 946
-390.625 -156.25 1028
132.812 -218.75 3178
-39.0625 -171.875 1255
-414.062 -46.875 854
-242.188 -132.812 1044
-343.75 -289.062 1013
-414.062 85.9375 948
-296.875 -195.312 995
-23.4375 132.812 894
62.5 335.938 829
-445.312 -85.9375 1343
-359.375 -148.438 1007
-210.938 -296.875 3120
-148.438 -125 1028
-398.438 -46.875 851
0 140.625 898
-382.812 257.812 851
-312.5 101.562 956
-187.5 -109.375 1004
-187.5 -101.562 989
-140.625 296.875 841
-218.75 296.875 843
-367.188 31.25 896
-250 -179.688 1016
-226.562 -109.375 1001
-304.688 54.6875 915
-382.812 -78.125 871
-210.938 -62.5 1022
-31.25 328.125 833
-148.438 -46.875 1013
54.6875 328.125 831
406.25 -23.4375 1028
7.8125 320.312 831
-367.188 54.6875 915
-23.4375 312.5 835
-85.9375 132.812 913
-265.625 -210.938 1001
-335.938 -281.25 987
-234.375 429.688 923
31.25 -179.688 3037
-320.312 39.0625 903
-62.5 328.125 835
265.625 7.8125 1322
-304.688 -62.5 867
125 218.75 906
-109.375 445.312 915
-195.312 429.688 918
468.75 101.562 1123
-406.25 54.6875 915
281.25 257.812 1084
195.312 312.5 1031
226.562 78.125 1241
-39.0625 93.75 995
-390.625 250 854
-289.062 -187.5 998
-164.062 -46.875 992
-203.125 -171.875 987
484.375 46.875 1063
492.188 62.5 1080
132.812 31.25 1054
-453.125 -148.438 1404
-125 39.0625 1016
-335.938 -250 998
132.812 -250 3120
125 179.688 933
117.188 -257.812 3120
-421.875 -312.5 3092
-320.312 -210.938 987
-335.938 -218.75 992
-312.5 -46.875 858
117.188 289.062 854
-273.438 281.25 845
-31.25 117.188 896
125 226.562 898
93.75 398.438 887
-398.438 -187.5 1044
-210.938 -187.5 1050
-132.812 -289.062 3120
-242.188 -109.375 1070
-500 -460.938 2432
-242.188 -148.438 1031
-289.062 85.9375 943
-85.9375 101.562 987
-304.688 -54.6875 860
-54.6875 187.5 885
-210.938 -31.25 943
-203.125 429.688 920
109.375 351.562 829
-250 -93.75 1161
-195.312 296.875 841
-187.5 296.875 841
78.125 328.125 829
-109.375 -62.5 1041
-421.875 -46.875 851
312.5 117.188 1189
-304.688 265.625 849
218.75 445.312 935
-429.688 -312.5 3092
-210.938 -210.938 1047
187.5 445.312 933
117.188 335.938 829
-234.375 421.875 923
257.812 46.875 1283
171.875 -250 3092
-7.8125 -273.438 3120
-226.562 281.25 843
-375 -312.5 3064
-265.625 -234.375 1007
-250 421.875 923
-281.25 -304.688 1031
140.625 257.812 878
250 70.3125 1255
148.438 -101.562 1189
218.75 109.375 1210
-242.188 289.062 843
-257.812 -140.625 1025
85.9375 406.25 906
46.875 335.938 829
-437.5 234.375 860
-406.25 242.188 856
-85.9375 -171.875 1255
-437.5 54.6875 920
-109.375 304.688 837
-203.125 304.688 845
-453.125 0 882
476.562 85.9375 1105
-289.062 31.25 903
0 148.438 930
-265.625 273.438 847
257.812 31.25 1302
218.75 -242.188 3037
257.812 -234.375 3037
242.188 359.375 998
140.625 -132.812 1232
140.625 -132.812 1232
-46.875 -242.188 3208
-343.75 78.125 935
-406.25 -85.9375 875
-375 -85.9375 871
-156.25 -125 1028
-398.438 -54.6875 856
-429.688 78.125 978
-195.312 -101.562 989
-7.8125 171.875 896
-15.625 320.312 833
-500 406.25 1094
265.625 -7.8125 1343
31.25 320.312 833
476.562 320.312 967
-203.125 -156.25 984
-101.562 312.5 837
-351.562 -46.875 854
-289.062 -46.875 854
-296.875 320.312 891
-328.125 7.8125 878
70.3125 453.125 923
414.062 -148.438 951
-414.062 257.812 856
62.5 -265.625 3120
281.25 15.625 1126
-257.812 273.438 845
-367.188 -312.5 3064
-437.5 31.25 898
-132.812 218.75 894
-218.75 -296.875 3120
-445.312 -46.875 849
-54.6875 -273.438 3120
148.438 -109.375 1202
312.5 -226.562 2958
148.438 -132.812 1232
-367.188 -62.5 864
-421.875 -70.3125 867
437.5 -7.8125 1028
-296.875 101.562 959
0 -273.438 3120
-296.875 414.062 925
281.25 -7.8125 1343
-468.75 406.25 1090
0 328.125 831
117.188 281.25 858
-101.562 210.938 862
-343.75 257.812 849
-296.875 -15.625 864
-171.875 289.062 841
156.25 -250 3092
-289.062 429.688 898
257.812 54.6875 1278
-375 0 871
117.188 343.75 827
-226.562 -23.4375 959
-195.312 437.5 923
-265.625 421.875 925
-429.688 -46.875 851
109.375 359.375 835
-117.188 187.5 918
375 -156.25 959
101.562 375 854
-125 -39.0625 940
-320.312 359.375 951
164.062 -250 3092
-351.562 -250 1004
-398.438 -296.875 3120
-406.25 -78.125 875
7.8125 156.25 930
85.9375 -148.438 1241
492.188 117.188 1227
-468.75 359.375 930
429.688 -250 1105
-7.8125 320.312 833
468.75 164.062 1173
-312.5 -54.6875 860
-312.5 78.125 935
-460.938 -23.4375 858
-85.9375 148.438 913
-468.75 -328.125 2984
101.562 390.625 873
-312.5 -15.625 862
289.062 117.188 1210
-78.125 242.188 854
-390.625 0 869
-484.375 7.8125 1223
109.375 367.188 843
125 164.062 946
-281.25 -54.6875 864
187.5 -242.188 3064
257.812 -15.625 1354
-398.438 -78.125 873
-500 218.75 862
-210.938 -125 987
-398.438 -312.5 3092
257.812 7.8125 1322
-460.938 -46.875 849
-39.0625 398.438 913
-351.562 398.438 925
-390.625 -46.875 849
382.812 -273.438 1080
445.312 -7.8125 1022
-453.125 -46.875 849
-453.125 343.75 943
-101.562 203.125 867
-257.812 -70.3125 1130
484.375 171.875 1169
484.375 382.812 987
-210.938 -171.875 987
-335.938 -257.812 998
-296.875 265.625 849
-93.75 210.938 867
453.125 -179.688 975
-101.562 -70.3125 1025
132.812 0 1084
-398.438 265.625 858
210.938 78.125 1241
-203.125 289.062 843
132.812 15.625 1067
-242.188 -70.3125 987
-109.375 296.875 841
140.625 414.062 951
382.812 -140.625 959
-414.062 101.562 962
-101.562 179.688 923
421.875 -7.8125 1034
-460.938 -78.125 1328
-437.5 -62.5 858
-195.312 -39.0625 938
-132.812 296.875 841
-234.375 -203.125 1022
-492.188 -304.688 2241
-367.188 -226.562 1007
-367.188 -226.562 1007
-187.5 -93.75 992
-101.562 -85.9375 1016
-484.375 -304.688 3037
-437.5 -187.5 2908
-406.25 -46.875 851
-460.938 -54.6875 849
-445.312 -148.438 1404
281.25 -226.562 3092
-218.75 -148.438 987
-406.25 289.062 889
-156.25 296.875 841
-78.125 250 856
-125 296.875 841
109.375 343.75 827
-375 343.75 954
421.875 -31.25 1013
-234.375 398.438 933
-210.938 -156.25 984
-179.688 289.062 841
-265.625 -140.625 1022
-304.688 414.062 928
492.188 78.125 1097
-210.938 281.25 845
-296.875 -164.062 998
-375 -171.875 1004
-125 210.938 898
23.4375 320.312 833
-101.562 -93.75 1016
-375 351.562 943
15.625 335.938 831
-500 -398.438 2256
-226.562 -101.562 989
234.375 15.625 1312
-398.438 -289.062 3149
226.562 -242.188 3037
-398.438 93.75 951
-187.5 -101.562 989
-93.75 304.688 839
-453.125 -54.6875 849
468.75 109.375 1134
-468.75 -46.875 1288
-125 132.812 959
-234.375 -132.812 998
-195.312 -156.25 981
-132.812 -46.875 940
-273.438 -78.125 1141
-7.8125 62.5 1025
-54.6875 218.75 860
-54.6875 125 898
-351.562 117.188 954
132.812 62.5 1028
7.8125 335.938 831
-31.25 179.688 896
93.75 328.125 829
93.75 328.125 829
-398.438 250 854
-406.25 0 873
-281.25 375 946
132.812 70.3125 1025
265.625 0 1333
-132.812 -281.25 3120
-242.188 -164.062 1022
-203.125 -78.125 998
-62.5 312.5 833
-156.25 -281.25 3120
-453.125 -93.75 1349
-453.125 -78.125 1333
-414.062 -78.125 875
-289.062 39.0625 910
-398.438 85.9375 943
39.0625 351.562 841
54.6875 351.562 837
-406.25 382.812 930
101.562 382.812 864
429.688 140.625 1169
15.625 -234.375 3208
-328.125 0 873
445.312 125 1153
-39.0625 312.5 835
-390.625 93.75 954
-273.438 -296.875 1025
265.625 -15.625 1354
-375 250 854
203.125 -242.188 3064
-328.125 101.562 954
-304.688 46.875 910
-195.312 289.062 843
-15.625 203.125 901
289.062 109.375 1197
-218.75 15.625 981
-445.312 31.25 1016
203.125 78.125 1241
-109.375 453.125 918
-289.062 -195.312 998
-492.188 218.75 867
-218.75 -140.625 987
-289.062 78.125 938
109.375 359.375 835
-62.5 101.562 967
-312.5 -70.3125 873
484.375 70.3125 1090
-500 -156.25 1398
-218.75 -171.875 987
-85.9375 304.688 837
-335.938 -289.062 1016
-85.9375 140.625 913
-460.938 406.25 1108
109.375 335.938 827
-62.5 421.875 930
-335.938 7.8125 878
-210.938 -218.75 1050
-187.5 -78.125 995
273.438 -234.375 3064
117.188 335.938 829
468.75 132.812 1145
-406.25 242.188 856
-148.438 -54.6875 1016
-304.688 101.562 959
-257.812 -179.688 1010
453.125 117.188 1138
-210.938 109.375 975
-437.5 375 933
85.9375 335.938 827
-351.562 -85.9375 869
476.562 85.9375 1105
-226.562 289.062 843
-476.562 -7.8125 1241
-367.188 -15.625 858
-359.375 390.625 925
-390.625 414.062 1338
-281.25 390.625 933
-101.562 218.75 860
-320.312 -31.25 851
-125 414.062 933
-156.25 -39.0625 933
-335.938 39.0625 903
-187.5 -85.9375 992
-210.938 -70.3125 1013
-117.188 226.562 864
460.938 109.375 1134
-125 140.625 913
-62.5 -281.25 3120
-226.562 -117.188 992
85.9375 421.875 943
132.812 54.6875 1034
-453.125 -148.438 1404
-312.5 -46.875 858
-414.062 -31.25 851
-406.25 -312.5 3092
-242.188 -93.75 987
-101.562 453.125 918
-54.6875 203.125 887
-250 -101.562 1060
85.9375 328.125 829
-46.875 304.688 837
132.812 7.8125 1077
-226.562 -257.812 1050
-109.375 140.625 913
140.625 -54.6875 1138
-320.312 -101.562 1038
-203.125 -296.875 3120
-304.688 -46.875 858
-265.625 -156.25 1013
-390.625 -312.5 3092
-125 31.25 1007
-234.375 -93.75 987
-187.5 -62.5 995
-328.125 257.812 849
-343.75 -265.625 1001
-93.75 234.375 862
-140.625 -31.25 938
-304.688 273.438 847
-265.625 414.062 925
-187.5 -265.625 3178
-468.75 226.562 862
257.812 39.0625 1292
-296.875 93.75 948
218.75 117.188 1202
-421.875 -171.875 2859
-164.062 -46.875 992
-195.312 -164.062 981
39.0625 320.312 835
-109.375 187.5 918
437.5 -23.4375 1016
-78.125 -234.375 3238
-70.3125 132.812 903
-359.375 0 871
-242.188 -156.25 1025
289.062 -7.8125 1134
132.812 101.562 992
-78.125 304.688 837
-132.812 140.625 951
-304.688 -156.25 998
-195.312 -39.0625 938
-148.438 -39.0625 938
-312.5 70.3125 930
31.25 -156.25 1250
-171.875 -70.3125 992
132.812 46.875 1038
-414.062 -62.5 858
-203.125 -93.75 992
-429.688 85.9375 973
-304.688 -54.6875 860
-226.562 -125 998
-421.875 85.9375 973
-382.812 -93.75 1145
109.375 328.125 829
-453.125 7.8125 1038
-234.375 -78.125 987
-218.75 -54.6875 943
-218.75 281.25 845
-437.5 -93.75 1359
-250 390.625 935
-406.25 85.9375 943
-179.688 390.625 943
125 156.25 951
-226.562 31.25 978
-375 -210.938 1007
-78.125 187.5 885
-31.25 312.5 835
-39.0625 328.125 835
