ply
format ascii 1.0
comment Created by Open3D
element vertex 2310
property double x
property double y
property double z
end_header
-492.188 -250 2365
-421.875 -382.812 3037
375 250 1609
289.062 -382.812 1232
-421.875 -273.438 3178
281.25 171.875 1926
-421.875 -359.375 3064
-421.875 -437.5 2958
210.938 -367.188 1259
-421.875 -390.625 3064
-406.25 -289.062 3064
-406.25 -328.125 3064
148.438 343.75 1343
492.188 -31.25 1202
-421.875 -312.5 3092
-242.188 265.625 1283
-492.188 -265.625 2317
-406.25 -257.812 3120
-406.25 -320.312 3064
-226.562 265.625 1302
-406.25 -414.062 2958
312.5 -242.188 1134
-257.812 265.625 1210
-421.875 -414.062 2984
156.25 -445.312 1470
-421.875 -421.875 3037
335.938 304.688 1489
-406.25 -375 2984
-421.875 -335.938 3092
-289.062 31.25 1130
250 187.5 1936
320.312 -23.4375 1197
-437.5 -335.938 3037
-421.875 -265.625 3178
-460.938 -289.062 2467
-179.688 257.812 1328
-460.938 -281.25 2485
-429.688 -320.312 3149
-406.25 -281.25 3092
-203.125 265.625 1307
-187.5 257.812 1328
-406.25 -453.125 2933
210.938 -421.875 1427
-195.312 265.625 1302
-289.062 39.0625 1134
-429.688 -7.8125 2560
-390.625 156.25 2485
-218.75 250 1328
265.625 398.438 1404
-218.75 265.625 1288
-218.75 265.625 1288
312.5 132.812 1904
78.125 132.812 1210
-351.562 -109.375 1165
-421.875 -281.25 3178
-210.938 265.625 1288
-421.875 -257.812 3178
-492.188 -203.125 2349
-85.9375 -210.938 1278
-203.125 257.812 1322
-406.25 -406.25 2958
-179.688 265.625 1302
101.562 187.5 1427
-250 -31.25 1119
-234.375 195.312 1433
-273.438 226.562 1197
210.938 398.438 1415
-171.875 203.125 1439
-312.5 335.938 1241
-226.562 250 1328
-171.875 257.812 1322
-195.312 195.312 1458
148.438 -390.625 1427
-164.062 -31.25 1130
-242.188 117.188 1161
-492.188 -179.688 2349
-218.75 257.812 1322
-296.875 421.875 1283
-187.5 265.625 1302
-406.25 -304.688 3064
-281.25 156.25 1173
-109.375 273.438 1302
-460.938 -359.375 3064
-421.875 -367.188 3037
-93.75 273.438 1307
-234.375 257.812 1322
-85.9375 250 1343
93.75 -132.812 1134
-148.438 265.625 1307
-148.438 265.625 1307
-406.25 -429.688 2933
-421.875 -460.938 2933
-421.875 -296.875 3149
-257.812 343.75 1241
-406.25 -445.312 2933
-265.625 289.062 1223
-453.125 250 2090
320.312 101.562 1894
-195.312 250 1333
179.688 273.438 1359
-203.125 250 1333
-421.875 -328.125 3064
-226.562 203.125 1427
-218.75 218.75 1398
-406.25 -273.438 3120
-101.562 250 1338
484.375 328.125 1415
-62.5 179.688 1529
-484.375 -250 2415
281.25 179.688 1936
-429.688 0 2560
-203.125 242.188 1359
-101.562 234.375 1387
39.0625 273.438 1328
-171.875 265.625 1302
-218.75 195.312 1452
-101.562 273.438 1302
-78.125 273.438 1307
-210.938 250 1328
-257.812 250 1206
-226.562 117.188 1173
62.5 -242.188 1138
-500 -234.375 2333
-140.625 265.625 1307
-93.75 234.375 1381
-242.188 195.312 1433
-148.438 257.812 1338
-39.0625 -234.375 1197
-156.25 265.625 1302
-117.188 273.438 1302
-296.875 -15.625 1115
-164.062 257.812 1322
-140.625 257.812 1338
-148.438 164.062 1197
-242.188 234.375 1359
23.4375 234.375 1392
-242.188 257.812 1278
-187.5 250 1338
-476.562 250 2078
-414.062 -281.25 3092
-226.562 218.75 1398
-203.125 -31.25 1130
-242.188 250 1322
-234.375 210.938 1415
-179.688 257.812 1328
-31.25 265.625 1317
-93.75 250 1343
-156.25 257.812 1333
390.625 226.562 1624
-421.875 -351.562 3064
-179.688 117.188 1177
-218.75 250 1328
-257.812 250 1206
-406.25 -250 3120
7.8125 101.562 1185
-234.375 117.188 1165
31.25 226.562 1404
296.875 -289.062 1273
140.625 -265.625 1297
62.5 226.562 1415
-39.0625 265.625 1312
-203.125 210.938 1439
-218.75 -31.25 1119
-210.938 257.812 1322
-226.562 234.375 1365
-140.625 164.062 1197
-85.9375 273.438 1307
-406.25 -296.875 3064
54.6875 257.812 1338
-78.125 250 1343
-226.562 226.562 1376
-70.3125 250 1343
421.875 273.438 1509
23.4375 242.188 1376
-187.5 242.188 1359
-164.062 250 1338
-218.75 210.938 1415
-210.938 242.188 1354
-421.875 -445.312 2984
-125 265.625 1312
-406.25 -335.938 3037
-406.25 -312.5 3064
-125 179.688 1509
-226.562 242.188 1354
54.6875 250 1359
31.25 148.438 1210
31.25 203.125 1458
-148.438 195.312 1439
-187.5 195.312 1458
39.0625 242.188 1354
-156.25 242.188 1370
-210.938 226.562 1392
-117.188 179.688 1509
-179.688 242.188 1359
-179.688 250 1338
-234.375 250 1322
-164.062 195.312 1477
-398.438 -164.062 3120
148.438 335.938 1338
15.625 218.75 1427
46.875 257.812 1338
-421.875 -398.438 3010
78.125 265.625 1328
210.938 -109.375 1161
-171.875 242.188 1365
15.625 140.625 1206
-195.312 257.812 1322
31.25 140.625 1202
-85.9375 234.375 1381
-195.312 250 1333
-218.75 31.25 1141
-234.375 218.75 1398
-85.9375 -132.812 1264
-7.8125 140.625 1202
-195.312 218.75 1404
-101.562 179.688 1523
-203.125 250 1333
-406.25 -265.625 3120
-406.25 -367.188 2984
-226.562 250 1328
93.75 -70.3125 1105
-203.125 195.312 1464
-226.562 210.938 1415
-171.875 250 1343
-242.188 210.938 1398
-187.5 226.562 1398
-46.875 164.062 1202
-218.75 234.375 1370
-195.312 210.938 1439
-429.688 -343.75 3092
-156.25 210.938 1427
-171.875 -31.25 1130
39.0625 234.375 1392
-289.062 54.6875 1141
-195.312 117.188 1177
-31.25 164.062 1202
-195.312 203.125 1445
375 203.125 1632
-203.125 242.188 1359
-195.312 242.188 1365
-62.5 250 1349
-23.4375 250 1354
-210.938 195.312 1464
-156.25 250 1343
-445.312 7.8125 2560
-289.062 15.625 1130
-250 250 1206
-406.25 -281.25 3092
-226.562 195.312 1433
-226.562 -78.125 1077
-164.062 226.562 1392
31.25 242.188 1370
-257.812 117.188 1165
-156.25 179.688 1509
-132.812 265.625 1312
-148.438 250 1343
-203.125 218.75 1410
-148.438 265.625 1307
-179.688 226.562 1404
-70.3125 273.438 1349
39.0625 218.75 1427
46.875 242.188 1370
-218.75 218.75 1398
54.6875 -257.812 1161
-210.938 250 1328
62.5 257.812 1338
-210.938 218.75 1398
-234.375 234.375 1354
-226.562 265.625 1288
-70.3125 117.188 1189
-210.938 210.938 1427
-250 117.188 1161
-484.375 265.625 2016
-39.0625 218.75 1415
-171.875 226.562 1404
-132.812 257.812 1338
-109.375 265.625 1307
-125 257.812 1333
-179.688 195.312 1458
-289.062 7.8125 1126
-93.75 117.188 1181
-148.438 203.125 1439
39.0625 203.125 1464
-179.688 218.75 1410
-62.5 117.188 1189
-156.25 117.188 1177
-390.625 -31.25 3269
-109.375 234.375 1381
-203.125 226.562 1392
-117.188 257.812 1328
70.3125 -242.188 1138
54.6875 187.5 1516
-226.562 234.375 1365
-148.438 218.75 1410
-179.688 210.938 1439
-140.625 195.312 1483
-234.375 242.188 1354
-109.375 -148.438 1292
-23.4375 203.125 1470
-148.438 257.812 1338
109.375 203.125 1376
-203.125 210.938 1439
-203.125 234.375 1370
-23.4375 164.062 1564
23.4375 140.625 1206
-421.875 -250 3178
-140.625 242.188 1370
-187.5 250 1338
39.0625 250 1349
93.75 -164.062 1126
-164.062 210.938 1433
-179.688 250 1338
-70.3125 234.375 1381
23.4375 226.562 1404
-171.875 195.312 1458
-195.312 234.375 1370
-156.25 203.125 1439
31.25 218.75 1427
-109.375 179.688 1516
-250 398.438 1264
-179.688 203.125 1439
-140.625 265.625 1307
-179.688 265.625 1302
-492.188 -335.938 2256
-210.938 -78.125 1080
-257.812 -78.125 1070
-117.188 265.625 1307
-78.125 273.438 1307
-195.312 226.562 1404
226.562 -109.375 1165
179.688 273.438 1359
46.875 210.938 1445
-78.125 234.375 1381
-257.812 273.438 1223
-187.5 210.938 1439
-7.8125 250 1354
-421.875 -304.688 3092
-31.25 203.125 1470
-210.938 242.188 1354
-421.875 -312.5 3064
-203.125 117.188 1177
-250 234.375 1338
54.6875 257.812 1338
-132.812 250 1349
-31.25 265.625 1317
-257.812 234.375 1206
-125 265.625 1312
-171.875 250 1343
-15.625 203.125 1464
-414.062 -453.125 2933
-54.6875 -164.062 1259
-234.375 265.625 1288
46.875 234.375 1398
-156.25 265.625 1302
-164.062 250 1338
-101.562 265.625 1307
-242.188 242.188 1307
-437.5 -359.375 3064
62.5 250 1365
-421.875 -335.938 3092
-406.25 -187.5 2723
-187.5 242.188 1359
-132.812 242.188 1370
39.0625 226.562 1404
-195.312 265.625 1302
312.5 148.438 1915
-109.375 257.812 1328
250 -312.5 1255
-187.5 234.375 1370
31.25 234.375 1392
-140.625 250 1349
7.8125 140.625 1202
-70.3125 250 1343
187.5 234.375 1370
203.125 -296.875 1292
-23.4375 265.625 1317
-140.625 117.188 1181
-210.938 117.188 1177
-171.875 242.188 1365
-164.062 242.188 1370
-140.625 257.812 1338
-179.688 234.375 1370
-234.375 203.125 1427
85.9375 257.812 1338
-187.5 257.812 1328
23.4375 273.438 1328
46.875 140.625 1210
-234.375 210.938 1415
31.25 -242.188 1157
85.9375 210.938 1445
-140.625 226.562 1404
46.875 -164.062 1134
-46.875 250 1349
-210.938 234.375 1370
-148.438 210.938 1433
-421.875 -289.062 3178
62.5 -257.812 1157
-390.625 257.812 2078
-171.875 210.938 1433
203.125 -109.375 1161
0 140.625 1202
46.875 257.812 1338
-164.062 265.625 1297
-218.75 273.438 1283
-148.438 242.188 1370
-156.25 250 1343
-85.9375 273.438 1307
-398.438 257.812 2078
-156.25 218.75 1404
-148.438 250 1343
39.0625 210.938 1445
-7.8125 187.5 1503
-289.062 62.5 1141
-39.0625 164.062 1202
-179.688 242.188 1359
-39.0625 265.625 1312
15.625 -31.25 1141
-226.562 218.75 1398
-210.938 226.562 1392
-101.562 187.5 1489
7.8125 -101.562 1134
109.375 265.625 1322
-195.312 210.938 1439
-125 195.312 1439
140.625 109.375 1206
0 -31.25 1145
78.125 265.625 1328
-171.875 218.75 1415
31.25 226.562 1404
218.75 -109.375 1161
15.625 265.625 1328
-289.062 23.4375 1130
62.5 -210.938 1138
-421.875 -171.875 2450
85.9375 226.562 1404
-164.062 203.125 1439
-250 242.188 1206
-218.75 234.375 1370
-132.812 210.938 1410
-164.062 257.812 1322
-218.75 250 1328
-101.562 -195.312 1302
-93.75 179.688 1516
367.188 218.75 1639
46.875 -257.812 1157
-203.125 257.812 1322
-304.688 -78.125 1070
-117.188 -257.812 1288
15.625 -101.562 1134
-421.875 -273.438 3178
101.562 257.812 1338
-93.75 273.438 1307
-15.625 140.625 1202
-398.438 414.062 1647
-54.6875 226.562 1392
101.562 109.375 1202
109.375 257.812 1338
-226.562 226.562 1376
125 -140.625 1149
-101.562 257.812 1333
0 54.6875 1149
-85.9375 179.688 1516
-242.188 -78.125 1073
-164.062 117.188 1177
-218.75 -78.125 1077
-164.062 218.75 1410
-195.312 250 1333
-140.625 218.75 1410
-242.188 234.375 1359
-156.25 195.312 1477
-421.875 -281.25 3178
0 187.5 1509
31.25 -31.25 1149
-195.312 -78.125 1084
-62.5 250 1349
-156.25 242.188 1370
-234.375 226.562 1370
23.4375 273.438 1328
78.125 -257.812 1157
-460.938 -296.875 2467
-179.688 -78.125 1087
-156.25 234.375 1381
125 242.188 1333
-406.25 -257.812 3149
-7.8125 164.062 1572
39.0625 140.625 1206
46.875 250 1359
-406.25 -460.938 2908
23.4375 148.438 1210
-132.812 226.562 1398
-39.0625 250 1349
46.875 242.188 1370
-117.188 257.812 1328
-226.562 242.188 1354
85.9375 265.625 1328
-132.812 195.312 1483
-281.25 164.062 1177
46.875 226.562 1404
-218.75 210.938 1415
-109.375 265.625 1307
-179.688 226.562 1404
-164.062 195.312 1477
-359.375 359.375 1785
54.6875 250 1359
-85.9375 257.812 1343
-101.562 273.438 1302
-171.875 234.375 1376
46.875 218.75 1427
-70.3125 273.438 1349
39.0625 218.75 1427
-460.938 -273.438 2503
-398.438 -132.812 3178
234.375 -109.375 1165
-210.938 265.625 1288
-15.625 234.375 1387
-109.375 273.438 1302
-156.25 210.938 1427
-148.438 218.75 1410
-421.875 -453.125 2933
-62.5 -187.5 1259
-101.562 265.625 1307
-148.438 226.562 1404
39.0625 242.188 1354
351.562 -328.125 1343
-78.125 -70.3125 1090
367.188 289.062 1509
-117.188 242.188 1370
93.75 257.812 1338
46.875 203.125 1470
23.4375 234.375 1392
31.25 -265.625 1149
-210.938 203.125 1445
39.0625 -31.25 1149
265.625 -265.625 1273
62.5 265.625 1333
-125 203.125 1439
-132.812 250 1349
70.3125 -250 1153
78.125 -242.188 1138
-164.062 226.562 1392
-171.875 117.188 1177
-117.188 265.625 1307
-85.9375 -281.25 1359
-125 242.188 1365
-78.125 -281.25 1359
-367.188 -343.75 3064
-406.25 -343.75 3037
-46.875 -281.25 1181
-351.562 359.375 1794
-492.188 -242.188 2333
-171.875 265.625 1302
-203.125 234.375 1370
-140.625 210.938 1445
-437.5 -343.75 3092
-109.375 195.312 1483
-210.938 273.438 1288
-187.5 273.438 1288
-62.5 179.688 1529
54.6875 242.188 1365
-242.188 218.75 1398
-78.125 -31.25 1141
210.938 359.375 1496
-54.6875 234.375 1381
39.0625 203.125 1464
23.4375 273.438 1328
-31.25 -195.312 1214
-125 257.812 1333
-85.9375 -132.812 1264
-93.75 -31.25 1134
-289.062 179.688 1181
-132.812 257.812 1338
-140.625 -31.25 1134
-335.938 359.375 1794
-140.625 242.188 1370
-203.125 -78.125 1080
-70.3125 70.3125 1134
39.0625 257.812 1333
-265.625 117.188 1161
-85.9375 -187.5 1255
31.25 218.75 1427
-187.5 234.375 1370
-273.438 218.75 1197
-406.25 -164.062 3120
70.3125 195.312 1483
31.25 140.625 1202
-132.812 -31.25 1134
-242.188 226.562 1338
39.0625 -164.062 1134
-140.625 250 1349
39.0625 226.562 1404
7.8125 187.5 1509
-62.5 234.375 1381
-132.812 117.188 1181
-390.625 -39.0625 1041
-85.9375 265.625 1307
54.6875 203.125 1470
-31.25 265.625 1317
-187.5 226.562 1398
-132.812 203.125 1452
-406.25 351.562 1785
-164.062 242.188 1370
-39.0625 117.188 1189
85.9375 242.188 1370
-210.938 179.688 1509
-203.125 265.625 1307
54.6875 234.375 1398
46.875 234.375 1398
-78.125 179.688 1536
-164.062 210.938 1433
-226.562 210.938 1415
46.875 -265.625 1149
-187.5 203.125 1439
70.3125 257.812 1338
-93.75 -132.812 1259
-132.812 234.375 1370
-421.875 -265.625 3178
70.3125 250 1365
-93.75 265.625 1307
187.5 -109.375 1157
-359.375 -46.875 1063
-93.75 242.188 1365
109.375 226.562 1404
54.6875 257.812 1338
-203.125 226.562 1392
-171.875 250 1343
70.3125 265.625 1328
-195.312 234.375 1370
-23.4375 265.625 1317
-179.688 210.938 1439
62.5 250 1365
-117.188 210.938 1439
-210.938 210.938 1427
-218.75 242.188 1354
-148.438 242.188 1370
-54.6875 117.188 1185
-265.625 242.188 1206
-187.5 218.75 1410
203.125 -101.562 1169
-187.5 -78.125 1087
-140.625 226.562 1404
-101.562 195.312 1483
-46.875 -203.125 1227
-148.438 195.312 1439
-7.8125 265.625 1328
-351.562 398.438 1696
-93.75 117.188 1181
234.375 117.188 1873
-171.875 226.562 1404
-93.75 257.812 1338
-125 187.5 1489
-171.875 242.188 1365
-15.625 164.062 1564
-23.4375 164.062 1564
-148.438 234.375 1381
78.125 -31.25 1149
-70.3125 -31.25 1138
195.312 -109.375 1157
-46.875 273.438 1302
39.0625 148.438 1210
-421.875 -375 2984
-15.625 218.75 1427
39.0625 234.375 1392
-125 226.562 1398
-406.25 -359.375 2984
-109.375 210.938 1404
-156.25 234.375 1381
-132.812 242.188 1370
54.6875 140.625 1210
-101.562 257.812 1333
-109.375 242.188 1370
-187.5 210.938 1439
93.75 242.188 1370
-148.438 -78.125 1087
-203.125 210.938 1439
-117.188 195.312 1439
101.562 -164.062 1126
-109.375 -31.25 1134
-343.75 -78.125 1063
-39.0625 273.438 1307
195.312 -101.562 1161
-78.125 273.438 1307
-70.3125 234.375 1381
-296.875 414.062 1278
-492.188 -359.375 3010
-101.562 265.625 1307
-140.625 234.375 1387
-101.562 226.562 1404
-93.75 210.938 1452
-210.938 156.25 1181
46.875 140.625 1210
-406.25 -320.312 3037
-156.25 226.562 1392
-195.312 226.562 1404
-148.438 210.938 1433
78.125 265.625 1328
31.25 265.625 1322
-46.875 117.188 1185
70.3125 -210.938 1134
-85.9375 -210.938 1278
-179.688 273.438 1288
-437.5 -320.312 3149
-117.188 250 1338
-46.875 226.562 1398
62.5 -210.938 1138
15.625 250 1359
-328.125 265.625 1210
15.625 -164.062 1134
-195.312 273.438 1302
-31.25 46.875 1157
210.938 -109.375 1161
-179.688 250 1338
218.75 -109.375 1161
-156.25 179.688 1509
-109.375 265.625 1307
-23.4375 250 1354
-109.375 250 1333
-125 210.938 1439
-406.25 -304.688 3064
-179.688 179.688 1516
250 -101.562 1169
187.5 -289.062 1503
46.875 148.438 1210
257.812 -101.562 1169
-406.25 -406.25 2958
-132.812 210.938 1410
-7.8125 140.625 1202
-156.25 242.188 1370
-203.125 273.438 1297
-132.812 218.75 1410
226.562 -101.562 1169
-148.438 250 1343
-85.9375 187.5 1496
-234.375 234.375 1354
39.0625 140.625 1206
-117.188 242.188 1370
-156.25 250 1343
101.562 242.188 1370
0 234.375 1392
-351.562 328.125 1873
-273.438 210.938 1193
-125 265.625 1312
117.188 -304.688 3333
226.562 -109.375 1165
46.875 226.562 1404
-78.125 -132.812 1264
-101.562 -31.25 1134
-421.875 -242.188 3178
-117.188 203.125 1439
-179.688 156.25 1197
23.4375 140.625 1206
-132.812 265.625 1312
-179.688 343.75 1509
-15.625 265.625 1322
-148.438 -31.25 1134
15.625 140.625 1206
0 250 1354
148.438 265.625 1297
-39.0625 250 1349
210.938 -101.562 1169
62.5 242.188 1365
-187.5 242.188 1359
-109.375 117.188 1181
-70.3125 164.062 1193
-218.75 226.562 1392
-85.9375 -31.25 1134
54.6875 218.75 1427
-125 195.312 1439
-500 -187.5 2365
93.75 109.375 1197
31.25 242.188 1370
-93.75 164.062 1557
-125 242.188 1365
54.6875 -31.25 1149
-398.438 -156.25 3120
0 257.812 1333
-179.688 242.188 1359
-125 234.375 1365
-7.8125 203.125 1464
7.8125 164.062 1579
-406.25 -328.125 3037
-132.812 234.375 1370
-195.312 156.25 1177
7.8125 -132.812 1149
54.6875 226.562 1410
-156.25 -31.25 1134
-140.625 242.188 1370
-54.6875 -195.312 1259
7.8125 -101.562 1134
-101.562 210.938 1452
-117.188 -31.25 1134
-125 117.188 1181
-62.5 -31.25 1134
-164.062 234.375 1376
62.5 203.125 1470
-78.125 117.188 1189
-164.062 273.438 1297
476.562 -265.625 1232
-164.062 250 1338
-85.9375 257.812 1343
-148.438 226.562 1404
-484.375 343.75 1785
-70.3125 429.688 1343
-85.9375 265.625 1307
-109.375 234.375 1381
-101.562 250 1333
250 -265.625 1268
-375 257.812 2078
-109.375 226.562 1392
70.3125 257.812 1333
-203.125 250 1338
382.812 -117.188 1181
-7.8125 273.438 1322
54.6875 203.125 1464
273.438 -265.625 1273
375 -117.188 1181
-15.625 148.438 1181
210.938 -242.188 1123
23.4375 -101.562 1126
296.875 -265.625 1278
164.062 -250 1189
-31.25 250 1354
-46.875 234.375 1381
257.812 -265.625 1273
-406.25 -171.875 3092
-54.6875 250 1343
-46.875 -195.312 1255
-117.188 117.188 1185
-39.0625 234.375 1376
-132.812 226.562 1381
-93.75 429.688 1343
-210.938 234.375 1359
-101.562 429.688 1343
-54.6875 -164.062 1259
62.5 234.375 1392
62.5 218.75 1433
-31.25 273.438 1322
62.5 226.562 1398
-210.938 148.438 1181
54.6875 234.375 1392
-335.938 265.625 2053
0 265.625 1322
-140.625 210.938 1433
-70.3125 257.812 1328
164.062 273.438 1307
-242.188 210.938 1398
-93.75 265.625 1307
-117.188 -78.125 1087
62.5 140.625 1214
117.188 109.375 1206
-234.375 148.438 1177
54.6875 242.188 1370
0 164.062 1185
46.875 242.188 1322
54.6875 210.938 1445
-117.188 187.5 1489
156.25 335.938 1376
-70.3125 265.625 1317
421.875 140.625 1748
85.9375 265.625 1328
-375 406.25 1655
218.75 -242.188 1123
62.5 257.812 1338
-109.375 250 1333
-140.625 -78.125 1087
78.125 250 1349
-62.5 273.438 1312
-78.125 257.812 1343
-117.188 218.75 1415
-164.062 -78.125 1084
-179.688 148.438 1189
-218.75 148.438 1177
78.125 -210.938 1138
-125 218.75 1415
-484.375 -187.5 2415
-234.375 156.25 1177
-468.75 343.75 1785
-429.688 -359.375 3064
78.125 257.812 1333
62.5 -250 1145
-70.3125 273.438 1312
250 187.5 1947
179.688 343.75 1381
-93.75 250 1338
-7.8125 -187.5 1210
-23.4375 46.875 1145
-109.375 257.812 1312
-234.375 250 1312
-203.125 148.438 1177
-460.938 -281.25 2503
250 359.375 1483
-23.4375 273.438 1322
62.5 -281.25 1169
281.25 -265.625 1181
-476.562 343.75 1785
289.062 -265.625 1181
-195.312 148.438 1177
187.5 -101.562 1157
31.25 -226.562 1189
-164.062 242.188 1381
-125 226.562 1392
-117.188 265.625 1302
-242.188 148.438 1177
-257.812 242.188 1210
46.875 203.125 1464
-492.188 0 3208
-117.188 234.375 1381
62.5 250 1365
-218.75 203.125 1427
-117.188 242.188 1370
-343.75 265.625 2065
39.0625 -234.375 1138
-39.0625 273.438 1312
-54.6875 -31.25 1141
-492.188 -218.75 2333
234.375 -101.562 1177
-7.8125 265.625 1322
140.625 -171.875 1161
-78.125 265.625 1317
-148.438 242.188 1343
156.25 31.25 1185
46.875 234.375 1392
-109.375 226.562 1392
-78.125 429.688 1343
-140.625 226.562 1381
-406.25 -351.562 3037
-62.5 265.625 1312
93.75 -132.812 1130
-156.25 234.375 1381
-414.062 257.812 2053
70.3125 -31.25 1153
54.6875 -273.438 1149
-382.812 -39.0625 1057
335.938 390.625 1415
109.375 257.812 1338
78.125 187.5 1503
-62.5 429.688 1349
-406.25 -421.875 2958
-93.75 -132.812 1241
7.8125 250 1338
140.625 203.125 1288
-23.4375 117.188 1197
70.3125 242.188 1365
39.0625 265.625 1322
7.8125 257.812 1328
-226.562 148.438 1177
-85.9375 -132.812 1241
-93.75 226.562 1392
-23.4375 -187.5 1232
-203.125 257.812 1307
101.562 -31.25 1153
-62.5 257.812 1322
-289.062 15.625 1130
-7.8125 218.75 1421
-140.625 265.625 1307
148.438 109.375 1210
-406.25 -273.438 3064
62.5 -226.562 1138
-289.062 46.875 1141
218.75 -101.562 1169
62.5 242.188 1370
85.9375 -31.25 1153
187.5 242.188 1359
-203.125 156.25 1177
156.25 23.4375 1181
-125 429.688 1343
15.625 -101.562 1119
125 -31.25 1157
0 218.75 1427
-109.375 210.938 1415
117.188 -31.25 1157
-109.375 195.312 1433
-210.938 218.75 1392
7.8125 265.625 1322
-140.625 234.375 1376
-414.062 -242.188 3010
-101.562 250 1333
70.3125 250 1349
-15.625 242.188 1370
179.688 -101.562 1165
54.6875 421.875 1370
-23.4375 242.188 1365
-46.875 234.375 1381
-187.5 250 1328
-203.125 203.125 1439
-109.375 234.375 1376
250 203.125 1936
-23.4375 250 1349
171.875 -414.062 1421
-101.562 234.375 1376
-406.25 -437.5 2933
-109.375 -148.438 1302
-140.625 179.688 1516
-320.312 -78.125 1067
-226.562 156.25 1177
-46.875 273.438 1312
281.25 179.688 1947
7.8125 226.562 1398
-148.438 156.25 1177
-281.25 109.375 1157
93.75 226.562 1392
-187.5 148.438 1177
-218.75 234.375 1359
-289.062 -23.4375 1115
54.6875 148.438 1214
-218.75 156.25 1177
-125 234.375 1387
320.312 187.5 1947
54.6875 -226.562 1138
62.5 187.5 1509
-476.562 -7.8125 3399
93.75 -31.25 1153
-312.5 382.812 1264
-109.375 -187.5 1273
281.25 -351.562 1245
-101.562 242.188 1349
-281.25 117.188 1161
46.875 117.188 1202
54.6875 -210.938 1134
101.562 -132.812 1123
242.188 -101.562 1173
-109.375 242.188 1354
46.875 265.625 1322
39.0625 156.25 1594
-367.188 359.375 1776
-140.625 156.25 1193
-85.9375 242.188 1343
31.25 187.5 1503
-164.062 156.25 1177
-23.4375 -31.25 1145
-101.562 117.188 1189
-492.188 281.25 1926
-328.125 390.625 1713
-460.938 -187.5 2432
-31.25 -156.25 1250
-203.125 218.75 1398
-70.3125 -195.312 1255
-257.812 335.938 1245
-93.75 -171.875 1259
23.4375 -171.875 1134
-148.438 203.125 1439
-39.0625 -31.25 1141
-296.875 -78.125 1067
0 117.188 1197
140.625 195.312 1288
-406.25 -179.688 3120
109.375 -164.062 1134
-101.562 226.562 1392
-171.875 156.25 1177
-210.938 148.438 1181
-70.3125 265.625 1317
-70.3125 -132.812 1250
-93.75 -78.125 1090
-406.25 -398.438 2958
-406.25 -265.625 3064
-93.75 250 1338
54.6875 140.625 1214
492.188 -281.25 1245
-195.312 218.75 1410
203.125 -101.562 1161
-101.562 265.625 1292
-148.438 250 1333
-460.938 250 2078
54.6875 226.562 1398
62.5 203.125 1464
70.3125 -242.188 1134
101.562 -210.938 1141
140.625 -125 1236
-93.75 257.812 1328
-234.375 273.438 1278
70.3125 234.375 1387
70.3125 257.812 1333
-289.062 7.8125 1126
-85.9375 257.812 1338
15.625 -218.75 1177
39.0625 226.562 1392
23.4375 -101.562 1126
-31.25 273.438 1322
-132.812 234.375 1376
15.625 265.625 1322
-54.6875 273.438 1312
-31.25 -31.25 1145
-101.562 210.938 1415
-148.438 265.625 1307
-54.6875 265.625 1312
109.375 242.188 1370
-421.875 257.812 2053
-15.625 -31.25 1149
-148.438 148.438 1189
-132.812 179.688 1509
-54.6875 257.812 1328
54.6875 195.312 1470
-164.062 226.562 1381
-445.312 31.25 2560
-70.3125 257.812 1328
0 46.875 1149
39.0625 -140.625 1130
-85.9375 250 1343
-15.625 -156.25 1165
62.5 226.562 1398
39.0625 -242.188 1145
-164.062 148.438 1181
234.375 -109.375 1169
46.875 140.625 1210
-39.0625 -273.438 1169
-187.5 257.812 1312
7.8125 -156.25 1138
-421.875 -242.188 3037
-242.188 265.625 1283
54.6875 203.125 1464
78.125 257.812 1333
250 -101.562 1173
-109.375 250 1333
218.75 -390.625 1245
-210.938 265.625 1292
-93.75 234.375 1381
7.8125 -101.562 1119
-85.9375 429.688 1343
-156.25 148.438 1181
-265.625 359.375 1259
-421.875 -257.812 3120
226.562 -101.562 1173
-15.625 265.625 1317
-23.4375 273.438 1322
-78.125 -78.125 1090
210.938 -101.562 1165
-46.875 -156.25 1268
-406.25 -15.625 3269
62.5 140.625 1214
23.4375 257.812 1317
109.375 226.562 1392
54.6875 -234.375 1138
-195.312 203.125 1439
-132.812 -78.125 1087
-93.75 218.75 1415
-7.8125 117.188 1197
-320.312 273.438 1210
109.375 -31.25 1153
218.75 218.75 1823
-54.6875 429.688 1349
-125 7.8125 1149
-117.188 226.562 1392
93.75 265.625 1328
-171.875 148.438 1189
-39.0625 273.438 1312
-15.625 -187.5 1219
7.8125 218.75 1427
-78.125 257.812 1343
-179.688 148.438 1189
-179.688 265.625 1307
15.625 -250 1185
-195.312 265.625 1302
23.4375 -148.438 1130
-70.3125 117.188 1193
-132.812 -273.438 1283
-289.062 70.3125 1145
-101.562 218.75 1415
-31.25 234.375 1381
-140.625 242.188 1343
-468.75 -187.5 2415
23.4375 148.438 1214
62.5 234.375 1392
125 257.812 1328
-234.375 148.438 1177
-234.375 218.75 1392
-187.5 195.312 1452
-109.375 265.625 1292
-117.188 429.688 1343
62.5 -257.812 1145
-54.6875 -414.062 3178
-78.125 250 1343
-62.5 242.188 1354
101.562 226.562 1398
250 -242.188 1126
-406.25 -234.375 2958
-195.312 148.438 1177
-460.938 -289.062 2503
-93.75 -195.312 1250
304.688 -265.625 1283
-39.0625 234.375 1376
390.625 -117.188 1185
39.0625 210.938 1464
125 367.188 1354
85.9375 109.375 1202
109.375 109.375 1206
-265.625 -78.125 1070
320.312 -359.375 1255
109.375 382.812 1415
289.062 -367.188 1241
-203.125 148.438 1177
140.625 -265.625 1288
23.4375 210.938 1445
-359.375 359.375 1785
-273.438 148.438 1173
7.8125 164.062 1189
-7.8125 273.438 1322
-273.438 203.125 1193
-179.688 218.75 1404
-125 -78.125 1087
117.188 242.188 1370
0 -203.125 1189
-437.5 -359.375 3064
-54.6875 117.188 1193
140.625 -31.25 1161
210.938 250 1794
-445.312 -187.5 2432
-31.25 250 1354
-39.0625 429.688 1343
-468.75 -7.8125 3333
101.562 242.188 1370
-109.375 226.562 1392
398.438 -117.188 1185
70.3125 242.188 1365
-125 226.562 1392
-62.5 265.625 1312
0 226.562 1398
54.6875 234.375 1392
-218.75 148.438 1177
-218.75 265.625 1278
-93.75 265.625 1307
-390.625 -460.938 2933
-226.562 148.438 1177
195.312 -101.562 1157
117.188 -164.062 1138
-195.312 273.438 1288
-484.375 -179.688 2398
-23.4375 -78.125 1094
156.25 335.938 1376
-242.188 148.438 1177
-203.125 -54.6875 1090
-101.562 250 1333
62.5 250 1365
31.25 257.812 1322
70.3125 203.125 1439
-484.375 -359.375 2522
-93.75 226.562 1392
-226.562 273.438 1278
-492.188 -187.5 2365
-132.812 156.25 1193
-23.4375 234.375 1381
0 273.438 1322
257.812 -382.812 1232
-289.062 23.4375 1130
-156.25 -54.6875 1123
85.9375 257.812 1328
343.75 -7.8125 1219
-117.188 179.688 1509
210.938 -421.875 1427
15.625 117.188 1202
304.688 148.438 1926
-437.5 351.562 1776
-218.75 125 1177
281.25 171.875 1936
-226.562 117.188 1173
-70.3125 -78.125 1090
-46.875 117.188 1189
70.3125 218.75 1415
101.562 -132.812 1123
-203.125 273.438 1288
-31.25 179.688 1529
-468.75 312.5 1883
328.125 203.125 1639
101.562 265.625 1338
-500 -351.562 2226
7.8125 265.625 1322
281.25 -398.438 1223
-85.9375 117.188 1185
0 39.0625 1161
-62.5 257.812 1322
242.188 -109.375 1169
62.5 218.75 1433
-93.75 242.188 1343
-125 62.5 1138
109.375 -132.812 1123
70.3125 226.562 1398
164.062 -250 1189
226.562 -109.375 1169
-117.188 234.375 1381
-453.125 -109.375 2485
117.188 257.812 1338
-468.75 250 2078
-164.062 -54.6875 1123
-265.625 257.812 1202
-46.875 265.625 1312
-85.9375 242.188 1343
-109.375 273.438 1288
15.625 226.562 1398
-70.3125 203.125 1452
78.125 242.188 1365
320.312 -382.812 1241
156.25 250 1292
-109.375 179.688 1489
-312.5 328.125 1241
-54.6875 242.188 1354
-62.5 203.125 1427
15.625 218.75 1421
-70.3125 250 1343
-195.312 257.812 1307
-85.9375 250 1343
273.438 -101.562 1181
-54.6875 -156.25 1264
-398.438 -203.125 2984
54.6875 242.188 1370
281.25 -101.562 1181
-78.125 -132.812 1241
-46.875 257.812 1328
23.4375 164.062 1223
-257.812 351.562 1255
-62.5 210.938 1439
-23.4375 179.688 1536
250 -109.375 1169
-78.125 -203.125 1288
265.625 242.188 1616
257.812 -109.375 1169
-62.5 -78.125 1094
140.625 210.938 1288
-54.6875 257.812 1328
78.125 234.375 1381
-85.9375 226.562 1354
-7.8125 -273.438 1145
-39.0625 -156.25 1250
46.875 234.375 1392
132.812 109.375 1210
-195.312 -54.6875 1094
93.75 -132.812 1130
85.9375 187.5 1496
-132.812 210.938 1421
23.4375 265.625 1322
-54.6875 265.625 1312
109.375 265.625 1333
-250 242.188 1210
-234.375 273.438 1278
-23.4375 -195.312 1236
179.688 335.938 1376
242.188 -242.188 1126
-187.5 148.438 1177
-15.625 273.438 1322
-171.875 265.625 1302
-148.438 148.438 1189
312.5 -265.625 1283
15.625 265.625 1322
-179.688 273.438 1302
-101.562 210.938 1415
-39.0625 164.062 1210
-234.375 -23.4375 1126
-375 359.375 1766
-15.625 -78.125 1094
-117.188 148.438 1197
78.125 140.625 1210
132.812 265.625 1312
7.8125 -31.25 1149
-179.688 257.812 1307
453.125 -242.188 1149
-148.438 195.312 1439
62.5 -265.625 1153
-39.0625 257.812 1322
70.3125 250 1349
-132.812 226.562 1381
-101.562 -195.312 1288
125 109.375 1206
0 -265.625 1149
-414.062 -70.3125 1054
257.812 -101.562 1173
39.0625 -101.562 1126
-500 296.875 1883
296.875 -101.562 1185
-15.625 234.375 1381
-218.75 273.438 1283
-492.188 -343.75 2226
-39.0625 -226.562 1206
-109.375 156.25 1193
-23.4375 273.438 1322
-46.875 429.688 1343
-203.125 210.938 1421
-78.125 265.625 1317
-93.75 -203.125 1250
23.4375 226.562 1398
132.812 -31.25 1161
-406.25 -70.3125 1054
-156.25 148.438 1181
-296.875 406.25 1278
-7.8125 -31.25 1149
-93.75 -187.5 1255
187.5 242.188 1359
367.188 -117.188 1181
234.375 -242.188 1126
265.625 -242.188 1130
-31.25 273.438 1322
-62.5 -257.812 1214
23.4375 -179.688 1141
23.4375 242.188 1359
54.6875 234.375 1392
62.5 -242.188 1138
179.688 -242.188 1134
-179.688 -31.25 1130
-46.875 164.062 1557
164.062 -117.188 1202
-257.812 343.75 1241
-187.5 273.438 1307
-234.375 -78.125 1073
-62.5 250 1343
85.9375 242.188 1370
132.812 -140.625 1161
421.875 -140.625 1177
7.8125 117.188 1197
125 -304.688 3333
-93.75 250 1338
-179.688 210.938 1404
-281.25 -23.4375 1119
-15.625 -265.625 1153
-39.0625 265.625 1312
62.5 -273.438 1161
-242.188 210.938 1398
-226.562 273.438 1278
164.062 335.938 1376
-70.3125 257.812 1328
0 -101.562 1119
-195.312 273.438 1288
-7.8125 273.438 1322
62.5 226.562 1398
-359.375 265.625 2053
23.4375 -265.625 1149
-156.25 257.812 1338
15.625 234.375 1392
-140.625 148.438 1193
156.25 -31.25 1169
54.6875 -78.125 1105
7.8125 -132.812 1145
-101.562 226.562 1392
-125 -195.312 1292
-31.25 -187.5 1236
-117.188 242.188 1370
-62.5 242.188 1354
-187.5 210.938 1433
70.3125 -250 1149
-15.625 179.688 1536
-210.938 226.562 1365
-39.0625 117.188 1193
-62.5 265.625 1312
-54.6875 -195.312 1264
85.9375 140.625 1210
-93.75 -195.312 1250
-23.4375 164.062 1177
-156.25 265.625 1307
-210.938 273.438 1292
78.125 242.188 1365
250 -312.5 1255
-125 148.438 1197
-359.375 -70.3125 1060
-31.25 265.625 1317
-164.062 273.438 1297
-62.5 -195.312 1264
-257.812 234.375 1210
-70.3125 265.625 1317
242.188 -101.562 1173
78.125 257.812 1333
-406.25 -382.812 2984
-226.562 210.938 1376
-250 273.438 1223
70.3125 234.375 1387
-195.312 171.875 1509
-132.812 -265.625 1283
-54.6875 250 1343
-265.625 -23.4375 1119
-101.562 -281.25 1250
109.375 -210.938 1153
-210.938 -23.4375 1130
-406.25 -257.812 3064
23.4375 234.375 1392
-31.25 -78.125 1094
-62.5 210.938 1439
7.8125 250 1338
70.3125 242.188 1365
0 273.438 1322
289.062 -390.625 1236
-70.3125 -195.312 1255
-281.25 101.562 1157
-93.75 234.375 1381
-218.75 226.562 1370
273.438 -109.375 1173
-109.375 -187.5 1273
125 382.812 1365
-187.5 171.875 1509
-93.75 -132.812 1241
-62.5 -132.812 1232
-296.875 -54.6875 1073
289.062 -101.562 1181
62.5 265.625 1333
-93.75 -156.25 1264
7.8125 273.438 1328
-93.75 226.562 1392
85.9375 257.812 1328
-78.125 250 1343
171.875 -101.562 1157
-484.375 -320.312 2365
148.438 -117.188 1219
-15.625 -156.25 1165
-218.75 218.75 1376
-203.125 273.438 1288
31.25 265.625 1322
-140.625 -54.6875 1087
-242.188 382.812 1264
-70.3125 -132.812 1250
-390.625 414.062 1639
320.312 148.438 1915
39.0625 -265.625 1149
281.25 -109.375 1173
-23.4375 -132.812 1169
54.6875 -31.25 1149
-101.562 148.438 1193
39.0625 -62.5 1105
-218.75 242.188 1343
15.625 242.188 1365
-46.875 242.188 1354
-93.75 -210.938 1292
-437.5 257.812 2040
-15.625 -187.5 1219
-367.188 406.25 1655
-195.312 250 1333
78.125 226.562 1387
-195.312 234.375 1365
-234.375 234.375 1354
156.25 62.5 1197
-7.8125 234.375 1381
-187.5 234.375 1365
-476.562 257.812 2040
187.5 367.188 1392
-343.75 398.438 1688
101.562 -132.812 1123
-109.375 148.438 1193
-234.375 171.875 1509
117.188 -117.188 1197
39.0625 -31.25 1149
39.0625 -250 1153
414.062 -242.188 1149
148.438 -132.812 1250
281.25 -242.188 1138
-171.875 148.438 1189
-70.3125 429.688 1343
-46.875 257.812 1328
-203.125 171.875 1509
-179.688 171.875 1509
-101.562 234.375 1376
-226.562 281.25 1278
-62.5 257.812 1322
85.9375 242.188 1370
-273.438 -23.4375 1119
39.0625 -242.188 1145
39.0625 164.062 1557
-382.812 359.375 1766
-23.4375 -187.5 1232
-101.562 273.438 1288
-85.9375 -203.125 1250
-476.562 250 2078
-203.125 226.562 1370
-242.188 257.812 1292
23.4375 367.188 1483
23.4375 117.188 1202
93.75 -109.375 1126
148.438 -31.25 1161
-23.4375 257.812 1317
-46.875 265.625 1312
78.125 -210.938 1138
320.312 -242.188 1138
-210.938 210.938 1421
-109.375 242.188 1354
218.75 -414.062 1250
-382.812 -70.3125 1054
-406.25 -375 2984
265.625 -398.438 1223
31.25 -78.125 1101
-179.688 273.438 1302
148.438 281.25 1302
140.625 -320.312 1477
-164.062 242.188 1381
-226.562 -23.4375 1126
320.312 -101.562 1149
-23.4375 117.188 1197
70.3125 -242.188 1134
-7.8125 179.688 1529
-148.438 -23.4375 1134
-46.875 226.562 1387
23.4375 265.625 1322
-46.875 203.125 1458
-109.375 429.688 1349
39.0625 421.875 1370
-390.625 0 3300
46.875 117.188 1202
-39.0625 257.812 1322
-70.3125 250 1343
-117.188 273.438 1288
-7.8125 -78.125 1097
273.438 -242.188 1134
-289.062 39.0625 1134
-93.75 156.25 1197
-101.562 -132.812 1241
7.8125 -78.125 1097
-429.688 -351.562 3064
335.938 -242.188 1138
-218.75 250 1328
-39.0625 -187.5 1245
23.4375 273.438 1322
85.9375 -210.938 1138
148.438 -257.812 1259
265.625 -101.562 1177
31.25 210.938 1445
-281.25 -54.6875 1073
39.0625 250 1328
-218.75 171.875 1503
-7.8125 273.438 1322
-367.188 -70.3125 1057
70.3125 218.75 1415
-85.9375 156.25 1197
-93.75 148.438 1197
-250 -23.4375 1123
-156.25 273.438 1307
-62.5 -140.625 1264
218.75 -242.188 1123
-140.625 273.438 1307
-171.875 210.938 1433
-234.375 -23.4375 1126
406.25 -117.188 1185
31.25 226.562 1398
132.812 -265.625 1288
-179.688 148.438 1189
-117.188 148.438 1197
39.0625 -234.375 1138
-31.25 265.625 1317
-289.062 -7.8125 1115
-226.562 257.812 1292
281.25 179.688 1947
-46.875 210.938 1439
156.25 15.625 1177
-273.438 125 1165
-273.438 179.688 1177
-85.9375 -195.312 1250
117.188 242.188 1370
-31.25 257.812 1317
31.25 -250 1157
-195.312 281.25 1288
-62.5 250 1343
-39.0625 265.625 1312
-70.3125 156.25 1181
31.25 -31.25 1149
-414.062 -242.188 3010
265.625 -109.375 1173
0 179.688 1529
78.125 234.375 1381
-54.6875 257.812 1328
125 -140.625 1153
-39.0625 250 1349
351.562 -101.562 1193
62.5 234.375 1392
-46.875 195.312 1489
-281.25 125 1161
-234.375 257.812 1292
85.9375 234.375 1387
-500 -179.688 2349
-234.375 125 1173
0 -140.625 1157
62.5 -281.25 1169
39.0625 265.625 1322
187.5 250 1359
-54.6875 265.625 1312
-242.188 -23.4375 1126
-15.625 265.625 1317
-7.8125 -164.062 1145
39.0625 117.188 1202
46.875 257.812 1322
-390.625 -70.3125 1054
-257.812 125 1173
7.8125 273.438 1328
398.438 -117.188 1185
-335.938 -70.3125 1060
-210.938 171.875 1503
39.0625 203.125 1464
-187.5 218.75 1404
70.3125 -273.438 1165
93.75 203.125 1452
-312.5 320.312 1236
-195.312 273.438 1288
-156.25 218.75 1410
31.25 -265.625 1149
-54.6875 250 1343
-164.062 273.438 1297
15.625 -125 1138
-218.75 281.25 1278
-429.688 257.812 2065
46.875 -101.562 1126
-85.9375 250 1343
-187.5 273.438 1307
-226.562 234.375 1365
15.625 257.812 1322
78.125 195.312 1483
-484.375 343.75 1785
78.125 250 1349
-164.062 218.75 1410
296.875 -265.625 1278
-39.0625 242.188 1354
-210.938 281.25 1288
-304.688 382.812 1264
93.75 140.625 1214
39.0625 257.812 1322
-148.438 273.438 1307
156.25 281.25 1302
85.9375 226.562 1392
-132.812 210.938 1421
15.625 265.625 1322
-23.4375 257.812 1317
-171.875 234.375 1370
-187.5 -23.4375 1134
109.375 257.812 1338
-195.312 257.812 1307
46.875 -132.812 1138
-289.062 54.6875 1141
-39.0625 210.938 1421
46.875 171.875 1536
7.8125 -218.75 1185
-164.062 210.938 1433
0 273.438 1322
-289.062 -15.625 1115
-140.625 218.75 1398
-85.9375 273.438 1307
-195.312 -23.4375 1134
-101.562 164.062 1564
109.375 265.625 1333
250 -101.562 1173
31.25 203.125 1464
273.438 -101.562 1181
-500 -187.5 2365
148.438 140.625 1227
-265.625 125 1169
312.5 132.812 1915
179.688 351.562 1381
-54.6875 234.375 1381
-93.75 273.438 1307
156.25 0 1173
-171.875 226.562 1376
7.8125 250 1338
-437.5 -359.375 3064
312.5 148.438 1915
-203.125 242.188 1349
429.688 -117.188 1185
54.6875 -234.375 1138
-132.812 -265.625 1283
-132.812 218.75 1410
101.562 265.625 1338
62.5 187.5 1509
414.062 -117.188 1185
-164.062 226.562 1381
117.188 382.812 1376
-148.438 242.188 1343
-328.125 -70.3125 1063
-101.562 250 1333
250 203.125 1936
-179.688 -23.4375 1134
-7.8125 171.875 1173
15.625 -265.625 1149
-226.562 250 1322
-203.125 265.625 1302
-312.5 -70.3125 1067
-62.5 242.188 1354
-109.375 234.375 1376
78.125 -242.188 1130
281.25 -367.188 1236
-195.312 164.062 1516
-203.125 281.25 1288
117.188 -273.438 1398
304.688 -242.188 1138
-31.25 429.688 1349
31.25 -93.75 1108
-54.6875 203.125 1439
-15.625 273.438 1322
15.625 250 1338
-398.438 -359.375 3037
296.875 -242.188 1141
-23.4375 171.875 1177
-7.8125 -164.062 1145
23.4375 -250 1169
-156.25 171.875 1543
-218.75 125 1177
-156.25 234.375 1381
-140.625 -23.4375 1134
-210.938 148.438 1181
-195.312 148.438 1177
-70.3125 273.438 1312
-281.25 109.375 1157
70.3125 265.625 1333
187.5 -437.5 1439
-23.4375 -156.25 1165
-148.438 148.438 1189
-78.125 273.438 1317
-148.438 164.062 1543
-132.812 46.875 1161
460.938 -257.812 1202
351.562 226.562 1647
304.688 -101.562 1185
-101.562 -281.25 1250
203.125 -242.188 1123
-226.562 281.25 1278
-210.938 -23.4375 1130
-484.375 273.438 1993
242.188 210.938 1853
-203.125 257.812 1307
31.25 234.375 1392
-289.062 15.625 1130
-187.5 257.812 1312
-164.062 -23.4375 1134
-117.188 265.625 1302
78.125 140.625 1210
484.375 -242.188 1157
382.812 -117.188 1181
39.0625 242.188 1365
-140.625 210.938 1433
-109.375 218.75 1415
375 -296.875 1365
-78.125 148.438 1197
85.9375 140.625 1210
375 250 1503
-226.562 218.75 1376
-171.875 171.875 1516
164.062 343.75 1376
-109.375 195.312 1433
-226.562 -78.125 1073
-187.5 281.25 1288
359.375 -101.562 1197
-31.25 117.188 1197
-148.438 250 1333
179.688 265.625 1354
-140.625 242.188 1343
39.0625 171.875 1536
-31.25 250 1354
-242.188 125 1173
85.9375 257.812 1328
-203.125 125 1181
85.9375 242.188 1370
-171.875 273.438 1297
-70.3125 148.438 1181
31.25 218.75 1421
-203.125 -23.4375 1134
70.3125 -210.938 1134
195.312 -242.188 1119
46.875 -78.125 1105
-335.938 265.625 2053
-390.625 359.375 1766
-226.562 179.688 1496
-39.0625 242.188 1354
-62.5 210.938 1439
-140.625 234.375 1376
-210.938 257.812 1307
-7.8125 164.062 1173
-46.875 250 1343
-140.625 265.625 1307
7.8125 -125 1149
-460.938 -179.688 2432
-210.938 -78.125 1080
437.5 -242.188 1145
125 -117.188 1206
0 -101.562 1119
-39.0625 429.688 1343
-85.9375 148.438 1197
-46.875 257.812 1328
-179.688 257.812 1307
-195.312 171.875 1509
-492.188 -179.688 2349
23.4375 -273.438 1149
328.125 -242.188 1141
-15.625 171.875 1173
-390.625 -148.438 3149
-85.9375 242.188 1343
429.688 -242.188 1145
125 359.375 1354
-70.3125 -203.125 1283
-234.375 375 1264
-132.812 273.438 1307
421.875 -242.188 1145
0 39.0625 1161
-148.438 171.875 1529
-242.188 421.875 1278
23.4375 250 1349
-15.625 -187.5 1219
-304.688 -70.3125 1067
15.625 148.438 1210
-109.375 257.812 1312
273.438 -312.5 1255
-289.062 46.875 1141
-218.75 273.438 1283
-250 125 1173
23.4375 -31.25 1149
-15.625 46.875 1145
54.6875 257.812 1328
39.0625 -210.938 1141
101.562 367.188 1398
-93.75 148.438 1197
-23.4375 242.188 1365
-117.188 164.062 1564
-101.562 148.438 1193
-179.688 171.875 1509
7.8125 148.438 1210
39.0625 -109.375 1149
187.5 242.188 1359
140.625 367.188 1359
39.0625 -265.625 1149
-85.9375 164.062 1564
85.9375 218.75 1398
-429.688 7.8125 2560
-156.25 273.438 1307
281.25 -101.562 1181
320.312 -273.438 1283
-171.875 -23.4375 1134
93.75 226.562 1392
-7.8125 117.188 1197
-62.5 148.438 1189
-296.875 -70.3125 1070
117.188 -218.75 1177
93.75 -218.75 1119
296.875 -101.562 1185
-93.75 70.3125 1145
-460.938 -7.8125 3300
171.875 -109.375 1185
-406.25 -46.875 1057
-7.8125 -265.625 1149
-429.688 -328.125 3120
-140.625 148.438 1193
-453.125 -187.5 2432
54.6875 187.5 1470
125 273.438 1317
140.625 109.375 1210
-359.375 -70.3125 1060
164.062 -421.875 1445
39.0625 148.438 1206
-78.125 156.25 1197
148.438 -390.625 1427
-210.938 234.375 1359
164.062 -101.562 1149
7.8125 226.562 1398
-15.625 257.812 1328
-218.75 257.812 1307
-289.062 -78.125 1070
0 171.875 1185
-468.75 -7.8125 3333
54.6875 203.125 1464
-125 226.562 1392
-93.75 -156.25 1264
-171.875 156.25 1177
125 -164.062 1141
62.5 257.812 1338
132.812 296.875 1328
-195.312 281.25 1288
-210.938 125 1181
218.75 -328.125 1268
46.875 203.125 1464
85.9375 -179.688 1126
-210.938 281.25 1288
46.875 250 1322
-273.438 -78.125 1070
-125 164.062 1557
-234.375 242.188 1328
-257.812 226.562 1210
-46.875 210.938 1439
218.75 -101.562 1169
281.25 -109.375 1173
23.4375 265.625 1322
171.875 351.562 1381
-15.625 265.625 1317
210.938 -101.562 1165
39.0625 265.625 1322
-101.562 257.812 1307
-257.812 328.125 1241
23.4375 -101.562 1126
-39.0625 250 1349
132.812 -148.438 1157
-15.625 179.688 1536
-156.25 242.188 1349
-109.375 148.438 1193
7.8125 179.688 1529
85.9375 234.375 1387
-390.625 15.625 3178
296.875 -109.375 1173
-125 148.438 1197
-140.625 273.438 1307
-195.312 218.75 1410
-117.188 273.438 1288
-179.688 281.25 1302
-23.4375 179.688 1536
-39.0625 257.812 1322
-46.875 226.562 1387
273.438 179.688 1936
-31.25 -132.812 1236
-210.938 242.188 1338
-484.375 -7.8125 3333
281.25 -312.5 1259
-164.062 281.25 1663
-406.25 -226.562 2859
54.6875 117.188 1202
492.188 -250 1157
-398.438 -195.312 3010
-164.062 234.375 1370
54.6875 250 1322
23.4375 273.438 1322
-203.125 281.25 1288
-23.4375 265.625 1317
-179.688 125 1181
375 -101.562 1202
-117.188 218.75 1415
-359.375 265.625 2053
273.438 -109.375 1173
15.625 273.438 1322
-226.562 257.812 1292
265.625 -242.188 1130
-39.0625 265.625 1312
-250 234.375 1333
171.875 -101.562 1157
23.4375 -171.875 1134
-500 343.75 1748
164.062 -31.25 1169
335.938 304.688 1503
101.562 -132.812 1123
460.938 -242.188 1149
-85.9375 437.5 1333
-39.0625 226.562 1381
289.062 -390.625 1236
-359.375 406.25 1655
-218.75 242.188 1343
-195.312 234.375 1365
-70.3125 250 1343
-23.4375 257.812 1317
-117.188 242.188 1370
101.562 -31.25 1153
-7.8125 273.438 1322
148.438 289.062 1307
156.25 -78.125 1115
187.5 250 1359
-109.375 164.062 1564
171.875 -242.188 1149
-257.812 242.188 1210
-101.562 265.625 1292
70.3125 -125 1134
15.625 179.688 1223
62.5 117.188 1202
-453.125 351.562 1776
-148.438 171.875 1529
7.8125 273.438 1328
-101.562 -265.625 1259
46.875 265.625 1322
421.875 -117.188 1185
70.3125 -242.188 1134
-414.062 -46.875 1057
-492.188 289.062 1926
-85.9375 265.625 1307
85.9375 -78.125 1105
101.562 -125 1123
109.375 257.812 1338
62.5 164.062 1529
156.25 367.188 1392
93.75 -31.25 1153
-250 -70.3125 1070
132.812 -140.625 1161
125 257.812 1328
-226.562 210.938 1376
31.25 171.875 1227
-132.812 -23.4375 1134
289.062 -242.188 1138
164.062 195.312 1268
398.438 -23.4375 1223
-125 70.3125 1157
-250 257.812 1202
-46.875 156.25 1193
-203.125 242.188 1349
-7.8125 265.625 1322
-109.375 -265.625 1268
-210.938 218.75 1392
-484.375 -195.312 2432
-156.25 281.25 1307
-203.125 210.938 1421
62.5 -250 1145
-304.688 367.188 1264
54.6875 164.062 1564
-281.25 -70.3125 1070
-109.375 -93.75 1097
-281.25 171.875 1181
-406.25 -78.125 1050
-132.812 -273.438 1283
-78.125 -195.312 1250
179.688 -242.188 1134
-7.8125 -187.5 1210
492.188 -140.625 1189
-132.812 171.875 1523
-23.4375 242.188 1365
7.8125 117.188 1197
85.9375 -164.062 1126
0 117.188 1197
-125 234.375 1387
-382.812 359.375 1766
-273.438 -70.3125 1070
-156.25 257.812 1338
250 -109.375 1169
242.188 -109.375 1169
-203.125 257.812 1307
-226.562 242.188 1343
242.188 -85.9375 1126
187.5 335.938 1381
492.188 -242.188 1157
-445.312 -320.312 2579
390.625 -117.188 1185
-218.75 125 1177
-46.875 -265.625 1185
281.25 -289.062 1273
-125 273.438 1297
-54.6875 156.25 1193
-46.875 242.188 1354
-39.0625 156.25 1210
101.562 242.188 1370
117.188 265.625 1328
-195.312 125 1181
-320.312 367.188 1776
-70.3125 203.125 1452
203.125 210.938 1936
-78.125 148.438 1197
-15.625 242.188 1370
289.062 -406.25 1227
-62.5 265.625 1312
31.25 265.625 1322
-164.062 156.25 1177
-125 218.75 1415
-70.3125 -257.812 1223
-226.562 281.25 1278
132.812 -265.625 1288
-171.875 125 1181
171.875 257.812 1354
-406.25 7.8125 3238
156.25 187.5 1268
-164.062 125 1185
-218.75 226.562 1370
406.25 234.375 1594
117.188 250 1354
-46.875 234.375 1381
125 398.438 1370
62.5 421.875 1370
-109.375 210.938 1415
-437.5 257.812 2040
-31.25 234.375 1381
109.375 140.625 1219
39.0625 273.438 1322
-210.938 226.562 1365
289.062 -101.562 1181
-46.875 -132.812 1236
70.3125 195.312 1489
335.938 -242.188 1138
54.6875 171.875 1529
-406.25 -156.25 3120
-70.3125 -23.4375 1145
-31.25 -195.312 1245
-179.688 281.25 1302
-109.375 273.438 1288
78.125 -125 1134
31.25 250 1354
-164.062 281.25 1663
23.4375 250 1349
-39.0625 187.5 1489
-148.438 -23.4375 1134
23.4375 273.438 1322
-31.25 250 1354
-85.9375 -195.312 1250
-117.188 234.375 1381
46.875 -265.625 1149
-406.25 -218.75 2859
0 164.062 1185
-257.812 -70.3125 1070
101.562 226.562 1398
437.5 -117.188 1189
367.188 218.75 1647
-117.188 -265.625 1283
-398.438 359.375 1766
-398.438 421.875 1616
-468.75 -179.688 2415
-265.625 -70.3125 1070
-281.25 -23.4375 1119
-210.938 -70.3125 1080
-226.562 437.5 1317
179.688 257.812 1354
46.875 242.188 1322
-109.375 -23.4375 1134
-492.188 -226.562 2333
-195.312 281.25 1288
31.25 273.438 1322
-140.625 171.875 1529
156.25 39.0625 1189
-70.3125 148.438 1181
-54.6875 -156.25 1264
-164.062 257.812 1302
-39.0625 242.188 1354
0 179.688 1529
-46.875 265.625 1312
-257.812 250 1202
-406.25 -453.125 2933
39.0625 234.375 1392
-78.125 265.625 1317
-109.375 242.188 1354
-15.625 257.812 1328
484.375 -250 1157
-31.25 -187.5 1236
0 257.812 1328
-7.8125 179.688 1529
-265.625 -23.4375 1119
-453.125 257.812 2040
117.188 257.812 1338
-445.312 257.812 2040
-195.312 179.688 1509
273.438 -398.438 1223
-320.312 -70.3125 1067
-171.875 226.562 1376
132.812 -390.625 1445
-187.5 125 1181
-156.25 125 1185
-31.25 218.75 1421
-23.4375 250 1349
-234.375 -23.4375 1126
-265.625 265.625 1214
289.062 -109.375 1173
109.375 -132.812 1123
312.5 -101.562 1185
46.875 -132.812 1138
-125 171.875 1536
-242.188 -70.3125 1073
101.562 257.812 1333
-242.188 -23.4375 1126
-117.188 273.438 1288
-62.5 273.438 1312
-101.562 -132.812 1241
-398.438 -46.875 1054
-101.562 210.938 1415
-195.312 242.188 1343
-54.6875 273.438 1312
0 265.625 1322
46.875 234.375 1392
15.625 234.375 1392
62.5 250 1365
-101.562 273.438 1288
39.0625 -148.438 1130
-273.438 -23.4375 1119
85.9375 218.75 1398
-140.625 281.25 1307
-62.5 70.3125 1134
-250 -23.4375 1123
-445.312 -343.75 3064
-257.812 -23.4375 1126
-54.6875 148.438 1193
-39.0625 -281.25 1165
-335.938 398.438 1688
-250 273.438 1223
-156.25 281.25 1307
93.75 218.75 1398
78.125 265.625 1333
476.562 -242.188 1153
-234.375 437.5 1307
15.625 250 1338
-15.625 242.188 1370
-117.188 148.438 1197
-203.125 265.625 1302
93.75 210.938 1398
7.8125 -171.875 1138
367.188 -101.562 1197
234.375 -242.188 1126
-500 -187.5 2365
23.4375 234.375 1392
-117.188 171.875 1529
-7.8125 -164.062 1145
-195.312 437.5 1328
132.812 273.438 1312
406.25 -242.188 1149
-93.75 -23.4375 1141
-117.188 226.562 1392
-93.75 273.438 1307
-39.0625 226.562 1381
281.25 -406.25 1223
-234.375 273.438 1278
289.062 -382.812 1236
-148.438 257.812 1317
15.625 -210.938 1169
179.688 265.625 1354
-218.75 187.5 1470
-85.9375 257.812 1338
-23.4375 226.562 1381
31.25 -148.438 1126
39.0625 -250 1153
-7.8125 265.625 1322
46.875 265.625 1322
-101.562 242.188 1349
-148.438 281.25 1307
-46.875 226.562 1387
31.25 -265.625 1149
39.0625 -265.625 1149
-117.188 -23.4375 1138
-242.188 265.625 1283
54.6875 -101.562 1126
-210.938 187.5 1470
-62.5 148.438 1189
351.562 -101.562 1193
-421.875 -343.75 3064
39.0625 273.438 1322
-31.25 242.188 1359
-164.062 226.562 1381
320.312 -101.562 1149
-156.25 257.812 1338
-210.938 242.188 1338
15.625 273.438 1322
39.0625 250 1328
-31.25 257.812 1317
242.188 -242.188 1126
468.75 -242.188 1149
