ply
format ascii 1.0
comment Created by Open3D
element vertex 2468
property double x
property double y
property double z
end_header
484.375 7.8125 901
-250 39.0625 3208
375 195.312 940
210.938 179.688 1001
15.625 445.312 871
132.812 429.688 823
343.75 7.8125 913
218.75 375 860
-85.9375 328.125 959
437.5 312.5 823
125 312.5 827
85.9375 421.875 829
437.5 39.0625 891
367.188 429.688 873
234.375 304.688 920
-289.062 39.0625 3208
406.25 320.312 817
-148.438 78.125 1359
132.812 382.812 821
476.562 -265.625 2958
54.6875 218.75 1016
203.125 156.25 1019
-15.625 109.375 1054
-15.625 117.188 1054
171.875 117.188 1073
-273.438 39.0625 3208
-273.438 39.0625 3208
414.062 -7.8125 910
406.25 312.5 817
62.5 148.438 1007
-164.062 0 3208
-218.75 46.875 3208
445.312 101.562 928
242.188 250 903
453.125 312.5 823
367.188 328.125 809
460.938 46.875 903
406.25 15.625 885
117.188 445.312 829
85.9375 437.5 829
-203.125 39.0625 3238
289.062 -132.812 1073
-117.188 203.125 946
31.25 453.125 862
148.438 179.688 935
-78.125 226.562 940
140.625 273.438 854
414.062 -62.5 1060
343.75 437.5 873
250 -70.3125 1067
351.562 -70.3125 1057
-453.125 -187.5 2618
-109.375 304.688 967
351.562 203.125 938
-164.062 78.125 1354
-187.5 78.125 1354
-179.688 78.125 1354
-476.562 -460.938 2450
476.562 304.688 825
93.75 289.062 831
109.375 164.062 967
31.25 -156.25 3037
-218.75 78.125 1354
-93.75 257.812 989
203.125 148.438 1022
375 54.6875 885
328.125 -39.0625 1054
-23.4375 109.375 1054
351.562 78.125 908
335.938 -101.562 1060
117.188 125 1292
-281.25 78.125 1343
484.375 296.875 827
421.875 15.625 889
242.188 343.75 901
273.438 328.125 821
406.25 -7.8125 910
-132.812 0 3208
39.0625 460.938 858
125 296.875 835
101.562 445.312 831
-62.5 0 3238
78.125 242.188 858
54.6875 335.938 862
320.312 335.938 807
210.938 343.75 860
257.812 343.75 851
406.25 -31.25 1338
265.625 54.6875 1157
414.062 7.8125 891
-203.125 78.125 1354
-31.25 304.688 951
-234.375 78.125 1349
257.812 289.062 860
125 273.438 839
39.0625 210.938 1028
445.312 304.688 823
437.5 23.4375 889
-210.938 78.125 1354
15.625 195.312 1047
367.188 31.25 882
187.5 304.688 885
-265.625 78.125 1343
62.5 437.5 827
-93.75 0 3208
-46.875 265.625 923
101.562 375 829
93.75 171.875 981
-23.4375 312.5 948
0 273.438 845
-7.8125 265.625 871
242.188 429.688 887
-296.875 78.125 1343
125 117.188 1307
-195.312 78.125 1354
445.312 312.5 823
-351.562 78.125 1328
242.188 296.875 906
367.188 -289.062 2933
414.062 46.875 889
23.4375 453.125 864
492.188 312.5 827
101.562 179.688 975
171.875 320.312 871
-101.562 78.125 1365
421.875 312.5 819
445.312 39.0625 894
195.312 140.625 1041
257.812 312.5 847
171.875 265.625 871
148.438 187.5 933
367.188 39.0625 885
117.188 429.688 825
398.438 31.25 878
-125 78.125 1365
-304.688 78.125 1333
-140.625 78.125 1365
351.562 437.5 880
-273.438 78.125 1343
85.9375 437.5 829
226.562 -70.3125 1080
-85.9375 78.125 1370
359.375 -7.8125 910
414.062 187.5 951
-54.6875 289.062 946
-312.5 78.125 1333
226.562 234.375 946
85.9375 234.375 992
179.688 398.438 835
210.938 -7.8125 1119
-23.4375 257.812 869
343.75 39.0625 918
382.812 195.312 938
54.6875 296.875 823
-109.375 0 3238
234.375 445.312 875
-132.812 179.688 959
375 -31.25 1090
-7.8125 195.312 1044
132.812 164.062 948
23.4375 203.125 1031
335.938 31.25 923
46.875 390.625 843
85.9375 164.062 987
171.875 -15.625 1288
-109.375 78.125 1365
-31.25 390.625 925
398.438 78.125 901
-335.938 78.125 1328
39.0625 429.688 854
-85.9375 359.375 948
453.125 164.062 964
226.562 359.375 878
31.25 132.812 1034
-109.375 218.75 964
15.625 117.188 1050
-93.75 351.562 962
-93.75 382.812 928
109.375 281.25 835
312.5 445.312 875
15.625 382.812 935
367.188 320.312 809
398.438 15.625 880
218.75 343.75 867
132.812 187.5 946
-46.875 125 1034
312.5 179.688 967
312.5 328.125 807
-226.562 78.125 1354
117.188 101.562 1338
-93.75 328.125 967
-414.062 -15.625 3010
-31.25 203.125 1031
-117.188 78.125 1365
78.125 421.875 827
320.312 328.125 807
210.938 85.9375 1105
250 445.312 871
-7.8125 367.188 951
140.625 0 1259
187.5 179.688 1080
-31.25 257.812 896
46.875 148.438 1022
-492.188 -304.688 2116
-320.312 78.125 1333
289.062 85.9375 1105
-46.875 351.562 964
7.8125 328.125 918
171.875 265.625 871
-78.125 351.562 956
0 31.25 3300
-453.125 -281.25 2618
-289.062 78.125 1343
492.188 31.25 908
304.688 -125 1067
39.0625 343.75 871
78.125 164.062 995
414.062 320.312 817
250 453.125 869
218.75 195.312 975
-101.562 195.312 938
-78.125 359.375 951
-132.812 78.125 1365
320.312 187.5 956
257.812 453.125 869
7.8125 281.25 837
476.562 132.812 1025
140.625 132.812 1245
-171.875 78.125 1359
-101.562 343.75 967
257.812 54.6875 1153
-125 187.5 954
187.5 304.688 885
78.125 460.938 860
484.375 304.688 825
101.562 453.125 867
250 414.062 862
0 179.688 1054
242.188 453.125 869
218.75 359.375 871
54.6875 226.562 1010
265.625 312.5 835
148.438 351.562 835
445.312 179.688 959
0 414.062 898
164.062 414.062 829
453.125 414.062 885
398.438 62.5 889
85.9375 304.688 835
351.562 320.312 811
39.0625 218.75 1013
156.25 203.125 920
296.875 46.875 1165
140.625 453.125 867
109.375 304.688 829
468.75 93.75 933
429.688 70.3125 908
289.062 -39.0625 1054
31.25 46.875 3208
-140.625 179.688 959
-78.125 343.75 954
-328.125 78.125 1333
492.188 296.875 827
-23.4375 367.188 948
70.3125 234.375 1001
460.938 421.875 898
195.312 -15.625 1123
359.375 31.25 891
93.75 367.188 833
93.75 335.938 845
54.6875 31.25 3300
476.562 39.0625 903
179.688 273.438 862
117.188 296.875 835
-226.562 39.0625 3238
-164.062 78.125 1354
15.625 171.875 1054
140.625 296.875 835
281.25 39.0625 1108
242.188 390.625 894
250 273.438 878
-187.5 78.125 1354
117.188 179.688 959
54.6875 156.25 1016
31.25 23.4375 3269
-148.438 78.125 1359
-39.0625 78.125 1370
-70.3125 218.75 913
187.5 296.875 845
-179.688 78.125 1354
343.75 23.4375 913
62.5 296.875 823
-156.25 39.0625 3238
-54.6875 78.125 1370
-156.25 242.188 1090
-70.3125 78.125 1370
132.812 70.3125 1255
15.625 281.25 833
210.938 15.625 1141
296.875 85.9375 1105
195.312 421.875 837
-70.3125 0 3238
-210.938 78.125 1354
125 148.438 1255
23.4375 453.125 864
-109.375 328.125 984
39.0625 296.875 821
46.875 140.625 1022
-78.125 78.125 1370
-218.75 78.125 1354
226.562 429.688 891
164.062 406.25 829
156.25 296.875 839
-117.188 0 3208
-109.375 320.312 992
453.125 304.688 825
70.3125 164.062 1001
421.875 -23.4375 920
429.688 187.5 954
226.562 421.875 896
62.5 304.688 856
460.938 148.438 954
-445.312 -156.25 2723
-78.125 265.625 946
351.562 -85.9375 1060
-93.75 328.125 967
460.938 -7.8125 910
132.812 171.875 948
195.312 312.5 873
78.125 390.625 837
31.25 328.125 906
382.812 109.375 908
-109.375 140.625 998
453.125 132.812 946
-468.75 -250 2701
187.5 -23.4375 1130
-93.75 132.812 1010
-93.75 250 992
-140.625 250 1080
23.4375 132.812 1041
-7.8125 117.188 1057
281.25 -23.4375 1063
187.5 125 1073
328.125 335.938 809
234.375 234.375 928
429.688 15.625 889
46.875 296.875 821
101.562 289.062 841
-304.688 335.938 956
-281.25 78.125 1343
78.125 304.688 841
-85.9375 281.25 948
7.8125 367.188 948
-46.875 117.188 1038
226.562 210.938 946
257.812 296.875 862
390.625 85.9375 898
-70.3125 281.25 948
-265.625 78.125 1343
93.75 453.125 867
-70.3125 304.688 933
-195.312 78.125 1354
320.312 -62.5 1050
242.188 281.25 903
78.125 242.188 858
304.688 328.125 805
390.625 0 896
62.5 343.75 856
-203.125 78.125 1354
250 -148.438 1097
296.875 -148.438 1073
-93.75 78.125 1370
359.375 7.8125 896
296.875 343.75 805
367.188 7.8125 891
-46.875 304.688 940
-85.9375 0 3238
-156.25 0 3208
-78.125 125 1025
-23.4375 312.5 948
187.5 421.875 837
210.938 343.75 860
-296.875 78.125 1343
359.375 320.312 809
39.0625 445.312 856
140.625 445.312 831
375 78.125 896
85.9375 109.375 1322
-39.0625 320.312 943
429.688 62.5 903
-367.188 78.125 1328
-304.688 78.125 1333
437.5 54.6875 898
-39.0625 242.188 882
109.375 85.9375 1359
109.375 109.375 1317
-343.75 78.125 1328
281.25 343.75 811
-476.562 -328.125 2618
429.688 39.0625 891
406.25 62.5 894
46.875 460.938 854
156.25 273.438 856
406.25 31.25 882
-101.562 289.062 956
421.875 320.312 819
62.5 390.625 839
15.625 203.125 1031
257.812 62.5 1138
-101.562 0 3208
210.938 312.5 875
437.5 15.625 889
242.188 257.812 906
-234.375 78.125 1349
242.188 -148.438 1108
351.562 7.8125 903
242.188 70.3125 1130
437.5 78.125 913
421.875 -54.6875 1063
101.562 250 862
492.188 -23.4375 1080
210.938 171.875 1001
398.438 15.625 880
375 328.125 811
93.75 289.062 831
351.562 203.125 938
312.5 -46.875 1050
-109.375 203.125 946
257.812 -125 1077
492.188 304.688 827
398.438 429.688 891
203.125 7.8125 1141
23.4375 125 1041
-359.375 78.125 1328
-85.9375 78.125 1370
296.875 -93.75 1054
31.25 296.875 823
-156.25 78.125 1354
343.75 7.8125 913
179.688 148.438 1094
-31.25 335.938 984
-125 78.125 1365
109.375 429.688 827
445.312 54.6875 901
179.688 273.438 862
-15.625 234.375 862
281.25 335.938 811
-46.875 109.375 1044
70.3125 296.875 845
328.125 328.125 809
-132.812 234.375 1105
-93.75 203.125 930
85.9375 296.875 839
-78.125 0 3238
-85.9375 335.938 959
-46.875 250 889
156.25 429.688 827
117.188 125 1292
-406.25 7.8125 3064
179.688 218.75 889
335.938 335.938 809
289.062 -15.625 1063
414.062 187.5 951
-109.375 78.125 1365
-31.25 78.125 1370
70.3125 156.25 1001
109.375 179.688 967
289.062 343.75 805
156.25 210.938 906
54.6875 304.688 823
-46.875 210.938 1016
312.5 -132.812 1073
-320.312 78.125 1333
78.125 414.062 831
289.062 -78.125 1054
390.625 -31.25 1090
460.938 312.5 823
93.75 414.062 829
265.625 453.125 869
-54.6875 0 3238
265.625 312.5 835
382.812 328.125 815
343.75 203.125 935
195.312 312.5 873
-273.438 78.125 1343
414.062 312.5 817
187.5 429.688 889
-78.125 218.75 915
-7.8125 390.625 928
15.625 390.625 851
70.3125 242.188 858
414.062 -39.0625 1067
-70.3125 367.188 943
203.125 445.312 873
15.625 296.875 878
367.188 320.312 809
406.25 171.875 951
-78.125 226.562 940
390.625 320.312 815
-500 320.312 2090
-125 195.312 946
445.312 -7.8125 908
-335.938 78.125 1328
179.688 421.875 837
250 367.188 878
70.3125 367.188 847
156.25 62.5 1181
23.4375 398.438 854
359.375 171.875 935
101.562 281.25 831
210.938 445.312 875
-70.3125 78.125 1370
242.188 62.5 1141
335.938 62.5 933
-226.562 78.125 1354
-85.9375 359.375 948
445.312 -15.625 930
-171.875 78.125 1359
226.562 390.625 860
140.625 203.125 923
-70.3125 234.375 933
31.25 437.5 860
382.812 195.312 938
164.062 85.9375 1105
476.562 -23.4375 1097
-62.5 218.75 913
-31.25 203.125 1031
39.0625 375 864
-328.125 78.125 1333
273.438 -93.75 1063
320.312 195.312 948
-132.812 78.125 1365
328.125 15.625 923
-117.188 156.25 978
-31.25 351.562 967
406.25 203.125 935
-70.3125 273.438 956
140.625 406.25 823
406.25 15.625 885
421.875 187.5 954
281.25 -78.125 1057
265.625 -117.188 1073
23.4375 203.125 1031
406.25 312.5 817
-140.625 78.125 1365
70.3125 320.312 867
156.25 359.375 831
148.438 281.25 849
-148.438 78.125 1359
476.562 414.062 887
-15.625 320.312 938
-39.0625 78.125 1370
-500 -367.188 2598
289.062 335.938 805
375 320.312 811
-7.8125 195.312 1044
210.938 359.375 860
125 148.438 1255
304.688 -156.25 1067
-70.3125 125 1028
-23.4375 78.125 1376
414.062 46.875 889
273.438 453.125 867
93.75 421.875 829
-289.062 78.125 1343
132.812 296.875 835
398.438 195.312 940
351.562 46.875 908
140.625 187.5 938
281.25 453.125 869
23.4375 296.875 878
257.812 296.875 862
312.5 179.688 967
78.125 171.875 995
203.125 156.25 1019
414.062 437.5 882
179.688 265.625 871
210.938 375 856
70.3125 406.25 831
390.625 328.125 815
-54.6875 437.5 871
23.4375 187.5 1050
-46.875 390.625 923
39.0625 140.625 1025
125 132.812 1278
78.125 164.062 995
-93.75 351.562 962
460.938 414.062 885
0 375 940
132.812 406.25 823
195.312 -7.8125 1130
437.5 15.625 889
78.125 289.062 823
218.75 195.312 975
7.8125 382.812 935
-125 179.688 956
-101.562 335.938 975
250 273.438 878
265.625 -156.25 1087
-484.375 7.8125 2170
421.875 109.375 923
203.125 421.875 839
203.125 437.5 882
312.5 328.125 807
7.8125 281.25 837
46.875 210.938 1025
140.625 195.312 938
437.5 148.438 948
265.625 320.312 835
-93.75 195.312 933
390.625 0 896
-78.125 367.188 943
218.75 23.4375 1210
242.188 31.25 1123
226.562 218.75 946
203.125 164.062 1019
-62.5 78.125 1370
-39.0625 117.188 1041
359.375 7.8125 896
-15.625 78.125 1376
-117.188 187.5 946
-39.0625 210.938 1016
273.438 62.5 1145
351.562 7.8125 903
-101.562 242.188 989
109.375 109.375 1317
31.25 132.812 1034
54.6875 398.438 835
70.3125 421.875 827
156.25 453.125 867
273.438 335.938 819
15.625 335.938 910
421.875 312.5 819
148.438 187.5 933
414.062 421.875 885
328.125 445.312 873
226.562 -117.188 1097
-78.125 78.125 1370
468.75 0 903
-31.25 335.938 984
-93.75 328.125 967
54.6875 226.562 1010
-93.75 78.125 1370
-93.75 320.312 967
164.062 257.812 873
-85.9375 281.25 948
343.75 -93.75 1063
476.562 -31.25 1097
-85.9375 210.938 923
343.75 335.938 811
85.9375 437.5 829
117.188 281.25 837
242.188 445.312 873
460.938 -7.8125 910
-46.875 78.125 1370
23.4375 445.312 871
70.3125 414.062 829
492.188 296.875 827
453.125 -31.25 1013
242.188 437.5 880
31.25 140.625 1034
15.625 414.062 860
242.188 320.312 906
250 289.062 871
-101.562 343.75 967
93.75 304.688 831
-117.188 39.0625 3269
187.5 -15.625 1288
-46.875 0 3238
46.875 335.938 867
117.188 414.062 825
335.938 23.4375 918
-54.6875 289.062 946
437.5 15.625 889
125 304.688 831
39.0625 453.125 858
54.6875 156.25 1016
335.938 0 906
85.9375 429.688 829
70.3125 31.25 3300
132.812 171.875 948
132.812 320.312 827
-367.188 78.125 1328
218.75 203.125 970
-117.188 78.125 1365
148.438 367.188 827
468.75 -31.25 1097
140.625 156.25 1241
414.062 15.625 885
-46.875 125 1034
-343.75 78.125 1328
125 187.5 954
15.625 289.062 873
148.438 7.8125 1236
484.375 -23.4375 1097
109.375 304.688 829
453.125 304.688 825
54.6875 406.25 831
210.938 351.562 860
210.938 179.688 1001
-70.3125 281.25 948
23.4375 382.812 849
-109.375 226.562 964
320.312 328.125 807
117.188 132.812 1278
15.625 78.125 1381
195.312 140.625 1041
15.625 31.25 3269
289.062 62.5 1138
234.375 31.25 1134
148.438 31.25 1219
460.938 125 946
62.5 164.062 1004
70.3125 296.875 845
70.3125 164.062 1001
195.312 148.438 1044
-23.4375 0 3208
7.8125 78.125 1376
-179.688 0 3208
-7.8125 328.125 933
-39.0625 0 3208
460.938 -31.25 1101
453.125 85.9375 920
-476.562 -414.062 2485
78.125 398.438 835
62.5 398.438 837
78.125 359.375 843
46.875 226.562 1004
-93.75 0 3208
335.938 -125 1073
476.562 -7.8125 915
273.438 -132.812 1077
460.938 304.688 823
179.688 312.5 873
-359.375 78.125 1328
125 156.25 1250
398.438 7.8125 889
-62.5 0 3238
320.312 31.25 1105
85.9375 250 858
-109.375 203.125 946
273.438 335.938 819
359.375 328.125 809
304.688 343.75 805
78.125 250 858
351.562 343.75 813
117.188 101.562 1338
62.5 406.25 829
375 85.9375 898
257.812 -54.6875 1060
359.375 203.125 935
390.625 195.312 940
-109.375 39.0625 3269
226.562 218.75 946
39.0625 78.125 1376
257.812 296.875 862
140.625 187.5 938
257.812 -140.625 1094
234.375 414.062 903
31.25 78.125 1381
250 281.25 873
210.938 398.438 843
31.25 437.5 860
-7.8125 78.125 1376
406.25 54.6875 891
359.375 437.5 882
140.625 164.062 940
453.125 312.5 823
-492.188 -343.75 2618
39.0625 406.25 841
210.938 164.062 1004
85.9375 406.25 831
382.812 328.125 815
351.562 15.625 901
281.25 359.375 817
359.375 7.8125 896
179.688 320.312 867
250 78.125 1115
39.0625 390.625 845
-70.3125 132.812 1025
312.5 335.938 805
-15.625 265.625 885
234.375 453.125 869
46.875 390.625 843
367.188 7.8125 891
15.625 203.125 1031
-117.188 148.438 987
453.125 -7.8125 910
132.812 328.125 825
140.625 343.75 841
-46.875 304.688 940
7.8125 335.938 918
242.188 54.6875 1157
203.125 7.8125 1141
492.188 -31.25 1090
-23.4375 78.125 1376
-54.6875 218.75 898
-101.562 210.938 962
265.625 -54.6875 1060
46.875 78.125 1376
250 54.6875 1157
132.812 -23.4375 1297
437.5 7.8125 894
62.5 234.375 1001
7.8125 195.312 1044
78.125 296.875 843
-476.562 210.938 2432
257.812 85.9375 1105
148.438 406.25 825
210.938 406.25 839
93.75 343.75 837
-15.625 78.125 1376
-46.875 210.938 1016
-39.0625 117.188 1041
109.375 281.25 835
-31.25 117.188 1047
7.8125 117.188 1054
-85.9375 359.375 948
398.438 0 901
242.188 -78.125 1070
156.25 289.062 845
132.812 140.625 1259
7.8125 421.875 891
-78.125 226.562 940
-23.4375 343.75 975
39.0625 304.688 885
-148.438 312.5 1001
101.562 304.688 829
210.938 343.75 860
328.125 39.0625 925
484.375 -31.25 1094
312.5 343.75 807
281.25 -125 1070
320.312 203.125 940
23.4375 78.125 1381
93.75 320.312 827
54.6875 328.125 862
414.062 429.688 889
132.812 453.125 869
335.938 39.0625 925
421.875 -15.625 920
39.0625 335.938 873
265.625 320.312 835
382.812 85.9375 898
265.625 -132.812 1084
132.812 289.062 845
429.688 148.438 943
-23.4375 203.125 1034
164.062 93.75 1108
265.625 335.938 829
-101.562 203.125 935
375 39.0625 878
78.125 429.688 827
140.625 429.688 821
328.125 -62.5 1050
93.75 31.25 3149
281.25 7.8125 1070
101.562 31.25 3149
23.4375 328.125 908
328.125 328.125 809
-54.6875 210.938 1022
31.25 132.812 1031
-15.625 359.375 964
-93.75 39.0625 3269
328.125 78.125 938
-62.5 351.562 940
351.562 70.3125 901
218.75 414.062 908
335.938 328.125 809
-460.938 46.875 3064
39.0625 210.938 1031
156.25 406.25 827
335.938 -85.9375 1060
-39.0625 78.125 1376
226.562 54.6875 1161
85.9375 460.938 862
7.8125 31.25 3300
210.938 367.188 862
289.062 -70.3125 1054
328.125 -70.3125 1050
226.562 437.5 885
-54.6875 78.125 1370
23.4375 453.125 871
-304.688 54.6875 3149
226.562 46.875 1173
476.562 46.875 908
429.688 320.312 819
460.938 -23.4375 1101
367.188 70.3125 889
-421.875 46.875 3037
-109.375 195.312 943
109.375 109.375 1328
421.875 312.5 819
-93.75 46.875 3238
234.375 445.312 878
54.6875 398.438 837
468.75 304.688 823
-109.375 0 3208
375 23.4375 878
-101.562 148.438 1001
31.25 445.312 856
132.812 312.5 829
-93.75 351.562 964
125 359.375 829
39.0625 148.438 1025
85.9375 31.25 3300
406.25 429.688 882
-31.25 0 3208
171.875 351.562 841
406.25 179.688 951
7.8125 125 1050
78.125 460.938 827
-78.125 281.25 948
210.938 351.562 862
117.188 375 823
382.812 320.312 815
-500 85.9375 2256
187.5 335.938 856
148.438 429.688 825
421.875 15.625 891
375 62.5 887
46.875 398.438 837
234.375 242.188 920
390.625 320.312 815
421.875 320.312 817
-54.6875 0 3238
351.562 210.938 930
390.625 328.125 815
101.562 179.688 973
187.5 132.812 1070
85.9375 445.312 831
132.812 62.5 1241
257.812 -125 1080
117.188 367.188 825
476.562 7.8125 898
234.375 234.375 928
148.438 46.875 1210
85.9375 171.875 984
-132.812 195.312 951
164.062 132.812 1141
242.188 -85.9375 1073
-140.625 187.5 956
460.938 23.4375 891
421.875 429.688 889
46.875 218.75 1022
492.188 429.688 882
70.3125 390.625 839
421.875 187.5 959
23.4375 335.938 903
382.812 429.688 875
273.438 335.938 815
218.75 203.125 964
195.312 0 1130
-109.375 335.938 981
78.125 328.125 867
-7.8125 273.438 847
453.125 117.188 933
296.875 335.938 805
148.438 203.125 925
484.375 15.625 898
117.188 132.812 1283
250 -109.375 1077
296.875 31.25 1101
210.938 179.688 992
93.75 179.688 978
-445.312 -164.062 2579
492.188 31.25 901
171.875 132.812 1084
164.062 359.375 835
-46.875 320.312 940
351.562 31.25 898
453.125 421.875 885
421.875 31.25 887
367.188 7.8125 896
171.875 250 871
-289.062 343.75 954
296.875 343.75 805
148.438 187.5 933
468.75 0 910
171.875 117.188 1077
242.188 -46.875 1070
179.688 343.75 845
406.25 7.8125 896
218.75 -54.6875 1087
281.25 -148.438 1077
101.562 289.062 833
367.188 -23.4375 1084
250 281.25 871
171.875 125 1077
-421.875 7.8125 2958
31.25 335.938 901
343.75 335.938 809
-109.375 226.562 962
203.125 328.125 869
-54.6875 296.875 943
85.9375 367.188 835
-78.125 359.375 954
101.562 250 867
375 320.312 813
31.25 304.688 821
-39.0625 320.312 948
468.75 312.5 823
-7.8125 195.312 1050
132.812 31.25 1227
367.188 437.5 878
-382.812 203.125 1115
109.375 304.688 833
93.75 296.875 837
31.25 210.938 1031
-85.9375 140.625 1013
15.625 195.312 1050
375 437.5 880
-109.375 328.125 989
179.688 304.688 845
-312.5 351.562 940
23.4375 296.875 821
148.438 281.25 856
257.812 304.688 860
218.75 445.312 878
226.562 375 862
15.625 78.125 1381
15.625 375 948
-15.625 203.125 1038
437.5 78.125 908
429.688 312.5 821
164.062 304.688 841
-70.3125 0 3238
382.812 0 906
148.438 156.25 1219
265.625 328.125 829
398.438 328.125 815
101.562 429.688 827
54.6875 78.125 1381
85.9375 335.938 823
437.5 7.8125 901
414.062 62.5 894
421.875 46.875 889
-476.562 -117.188 2271
375 7.8125 896
62.5 164.062 1004
460.938 78.125 918
39.0625 437.5 851
179.688 125 1080
-78.125 367.188 943
312.5 -367.188 2812
-117.188 210.938 946
7.8125 0 3269
148.438 421.875 825
125 125 1288
367.188 203.125 940
70.3125 242.188 992
46.875 437.5 839
406.25 148.438 938
445.312 -23.4375 930
-132.812 39.0625 3238
7.8125 78.125 1381
398.438 0 910
437.5 320.312 821
54.6875 234.375 1004
406.25 0 908
117.188 312.5 829
250 39.0625 1123
109.375 375 825
101.562 382.812 827
234.375 -46.875 1077
320.312 335.938 807
210.938 187.5 992
218.75 187.5 973
164.062 101.562 1090
140.625 7.8125 1255
445.312 -62.5 1057
62.5 78.125 1387
281.25 93.75 1094
281.25 93.75 1094
39.0625 140.625 1025
429.688 187.5 959
15.625 445.312 875
39.0625 218.75 1019
234.375 -101.562 1084
70.3125 78.125 1392
23.4375 210.938 1031
-125 203.125 946
250 70.3125 1134
265.625 320.312 829
-453.125 70.3125 2958
46.875 203.125 1031
171.875 273.438 867
39.0625 78.125 1381
382.812 39.0625 878
125 117.188 1302
-171.875 70.3125 1370
-101.562 39.0625 3269
414.062 78.125 901
-476.562 -390.625 2522
335.938 210.938 933
312.5 54.6875 1157
-7.8125 0 3269
335.938 -93.75 1060
-70.3125 375 938
-39.0625 328.125 948
265.625 93.75 1094
421.875 148.438 940
85.9375 242.188 862
460.938 101.562 928
335.938 31.25 918
148.438 195.312 930
39.0625 148.438 1025
414.062 15.625 891
289.062 -117.188 1067
156.25 62.5 1177
-7.8125 328.125 928
-93.75 257.812 989
335.938 23.4375 918
-359.375 7.8125 3092
406.25 187.5 959
148.438 304.688 837
234.375 242.188 920
125 421.875 821
-78.125 304.688 938
367.188 39.0625 880
375 203.125 938
0 0 3269
15.625 132.812 1044
437.5 421.875 880
109.375 328.125 825
273.438 -70.3125 1057
429.688 7.8125 898
-218.75 54.6875 3178
218.75 70.3125 1138
31.25 78.125 1381
171.875 54.6875 1161
171.875 328.125 862
445.312 46.875 896
78.125 429.688 827
320.312 -132.812 1077
406.25 7.8125 896
-62.5 289.062 948
62.5 390.625 841
234.375 54.6875 1161
85.9375 46.875 3238
484.375 125 1041
101.562 289.062 833
187.5 46.875 1173
39.0625 429.688 854
-39.0625 125 1041
359.375 203.125 938
289.062 453.125 869
421.875 -7.8125 913
210.938 328.125 871
132.812 273.438 845
140.625 164.062 1241
-109.375 335.938 981
296.875 453.125 869
-39.0625 273.438 910
273.438 343.75 815
-390.625 7.8125 3037
-101.562 343.75 973
210.938 31.25 1210
140.625 281.25 854
125 156.25 1250
-31.25 117.188 1050
-62.5 359.375 956
-101.562 218.75 962
-398.438 7.8125 3064
226.562 218.75 943
468.75 -23.4375 1097
281.25 -117.188 1067
382.812 -23.4375 1094
148.438 39.0625 1210
187.5 320.312 871
85.9375 179.688 981
-132.812 195.312 951
7.8125 437.5 880
-304.688 39.0625 3208
328.125 203.125 943
179.688 125 1080
218.75 406.25 920
-421.875 39.0625 3010
226.562 226.562 943
273.438 31.25 1108
109.375 117.188 1312
-46.875 39.0625 3269
-460.938 70.3125 2933
484.375 406.25 875
226.562 445.312 878
54.6875 304.688 821
187.5 125 1070
7.8125 304.688 880
117.188 367.188 825
328.125 -46.875 1050
-46.875 367.188 948
78.125 421.875 829
7.8125 429.688 887
-437.5 -70.3125 2835
289.062 -62.5 1054
-85.9375 132.812 1016
179.688 414.062 835
367.188 210.938 928
390.625 70.3125 889
31.25 0 3238
-93.75 125 1019
140.625 445.312 833
140.625 15.625 1241
-406.25 54.6875 3037
203.125 429.688 891
218.75 -62.5 1090
367.188 93.75 898
-23.4375 125 1050
-414.062 7.8125 3010
-46.875 0 3238
-476.562 -296.875 2598
148.438 335.938 860
429.688 -179.688 3064
70.3125 406.25 831
117.188 281.25 837
-375 7.8125 3092
31.25 343.75 896
320.312 312.5 823
0 117.188 1057
-414.062 54.6875 3064
375 7.8125 896
351.562 62.5 903
-15.625 0 3238
-500 93.75 2241
304.688 343.75 805
257.812 -93.75 1067
359.375 335.938 809
226.562 414.062 908
-125 226.562 1119
226.562 281.25 930
-101.562 351.562 962
101.562 375 827
117.188 242.188 873
-93.75 218.75 928
218.75 203.125 964
367.188 7.8125 896
320.312 343.75 807
148.438 203.125 925
-78.125 281.25 948
-39.0625 304.688 948
117.188 132.812 1283
117.188 187.5 956
148.438 187.5 933
390.625 320.312 815
171.875 125 1077
-476.562 -445.312 2450
171.875 210.938 901
62.5 54.6875 3208
-85.9375 226.562 920
93.75 312.5 831
289.062 335.938 805
421.875 421.875 880
39.0625 335.938 871
359.375 -7.8125 908
39.0625 148.438 1025
-117.188 210.938 946
7.8125 421.875 896
-382.812 23.4375 3092
-54.6875 359.375 956
-140.625 234.375 1108
492.188 140.625 1016
15.625 335.938 908
218.75 414.062 908
70.3125 414.062 829
-453.125 -39.0625 2883
351.562 -39.0625 1057
453.125 -23.4375 930
-460.938 -453.125 2450
234.375 421.875 903
46.875 328.125 860
445.312 23.4375 889
-101.562 148.438 1001
93.75 328.125 825
421.875 62.5 896
15.625 125 1047
343.75 328.125 809
406.25 195.312 948
406.25 0 908
109.375 437.5 827
468.75 23.4375 894
296.875 328.125 809
-54.6875 250 889
85.9375 437.5 831
-85.9375 296.875 943
429.688 304.688 827
171.875 273.438 867
7.8125 195.312 1050
15.625 203.125 1038
31.25 312.5 887
320.312 195.312 956
406.25 23.4375 882
-70.3125 39.0625 3238
414.062 23.4375 885
414.062 7.8125 896
203.125 164.062 1019
468.75 304.688 823
-62.5 125 1034
31.25 390.625 849
140.625 320.312 827
70.3125 453.125 827
328.125 335.938 807
453.125 328.125 825
226.562 304.688 938
476.562 7.8125 898
-85.9375 265.625 989
-85.9375 0 3238
117.188 289.062 843
46.875 304.688 821
250 -132.812 1094
351.562 85.9375 906
195.312 320.312 871
7.8125 117.188 1054
304.688 359.375 813
429.688 15.625 889
85.9375 257.812 858
226.562 -70.3125 1080
-78.125 234.375 940
-46.875 109.375 1047
-54.6875 226.562 896
429.688 31.25 889
-93.75 265.625 989
93.75 375 829
351.562 328.125 809
257.812 7.8125 1084
351.562 335.938 809
312.5 343.75 805
-85.9375 335.938 956
398.438 -23.4375 1328
78.125 78.125 1381
93.75 78.125 1381
125 273.438 841
-125 203.125 946
296.875 93.75 1094
187.5 312.5 878
46.875 226.562 1010
445.312 46.875 896
117.188 335.938 825
54.6875 429.688 827
421.875 -46.875 1063
-31.25 210.938 1025
0 281.25 839
421.875 7.8125 898
148.438 195.312 930
195.312 281.25 867
-15.625 398.438 920
257.812 320.312 862
46.875 398.438 837
-31.25 125 1050
62.5 406.25 829
312.5 -132.812 1073
335.938 70.3125 930
398.438 85.9375 898
390.625 39.0625 878
382.812 210.938 925
421.875 101.562 913
148.438 210.938 910
343.75 210.938 933
335.938 445.312 875
390.625 -23.4375 1328
429.688 7.8125 898
39.0625 140.625 1025
85.9375 445.312 831
312.5 -46.875 1050
437.5 187.5 959
445.312 429.688 894
70.3125 171.875 998
15.625 445.312 875
117.188 359.375 827
132.812 421.875 821
484.375 343.75 839
429.688 429.688 894
218.75 46.875 1173
-62.5 132.812 1028
437.5 171.875 962
304.688 93.75 1094
-132.812 187.5 956
-31.25 312.5 951
328.125 -101.562 1063
-367.188 7.8125 3092
93.75 257.812 858
-85.9375 390.625 920
-15.625 117.188 1054
-46.875 31.25 3238
406.25 85.9375 903
7.8125 390.625 930
-23.4375 320.312 943
289.062 54.6875 1165
-93.75 210.938 928
70.3125 242.188 992
140.625 359.375 829
195.312 148.438 1044
-85.9375 367.188 946
-39.0625 367.188 951
203.125 46.875 1173
296.875 -70.3125 1054
179.688 273.438 869
-54.6875 296.875 943
54.6875 46.875 3238
398.438 23.4375 880
-93.75 359.375 954
85.9375 78.125 1376
234.375 242.188 920
7.8125 320.312 889
125 320.312 827
-93.75 335.938 964
101.562 78.125 1387
-117.188 445.312 864
289.062 -101.562 1060
429.688 312.5 821
351.562 93.75 906
320.312 445.312 873
210.938 257.812 989
62.5 398.438 841
335.938 -78.125 1057
-23.4375 0 3208
-39.0625 351.562 970
437.5 312.5 821
117.188 328.125 825
343.75 78.125 918
218.75 328.125 882
31.25 367.188 898
117.188 304.688 835
31.25 445.312 856
335.938 328.125 809
406.25 328.125 817
242.188 265.625 898
46.875 429.688 829
289.062 7.8125 1067
-429.688 7.8125 2958
164.062 265.625 873
7.8125 429.688 887
187.5 429.688 835
406.25 7.8125 896
398.438 320.312 815
7.8125 335.938 915
46.875 156.25 1019
437.5 15.625 889
-23.4375 117.188 1054
109.375 93.75 1359
-476.562 -398.438 2503
312.5 187.5 964
375 -23.4375 1094
-406.25 46.875 3092
-46.875 343.75 943
156.25 70.3125 1177
179.688 281.25 860
218.75 421.875 901
0 125 1057
125 375 821
156.25 421.875 825
234.375 -78.125 1077
226.562 226.562 943
-109.375 296.875 964
93.75 460.938 864
70.3125 429.688 827
-101.562 250 992
85.9375 296.875 831
406.25 437.5 889
-492.188 -312.5 2618
-62.5 335.938 935
23.4375 343.75 903
-343.75 7.8125 3092
382.812 320.312 815
312.5 39.0625 1097
-78.125 0 3238
437.5 320.312 821
414.062 -31.25 1070
382.812 7.8125 894
-78.125 343.75 946
62.5 414.062 829
257.812 414.062 845
125 148.438 1259
-70.3125 289.062 946
-70.3125 289.062 946
15.625 132.812 1044
132.812 195.312 946
421.875 0 908
15.625 406.25 858
226.562 437.5 885
476.562 304.688 823
-54.6875 390.625 925
171.875 273.438 867
-46.875 351.562 967
101.562 460.938 864
140.625 328.125 827
-101.562 328.125 975
31.25 218.75 1022
398.438 39.0625 878
-7.8125 359.375 967
375 7.8125 896
-437.5 -109.375 2789
250 296.875 871
-140.625 187.5 956
453.125 125 938
125 187.5 951
351.562 187.5 938
-62.5 304.688 935
-476.562 -382.812 2541
-289.062 0 3120
132.812 171.875 943
414.062 0 908
257.812 304.688 860
242.188 367.188 894
148.438 296.875 841
210.938 195.312 992
0 367.188 954
15.625 453.125 869
62.5 242.188 992
367.188 39.0625 880
-117.188 93.75 1338
226.562 429.688 891
109.375 187.5 964
-39.0625 335.938 946
226.562 -31.25 1084
359.375 101.562 903
70.3125 171.875 998
210.938 187.5 992
-7.8125 117.188 1057
-101.562 140.625 1007
195.312 140.625 1044
312.5 335.938 805
367.188 203.125 940
210.938 359.375 862
-85.9375 312.5 943
132.812 304.688 835
156.25 210.938 910
125 289.062 845
445.312 320.312 821
-46.875 312.5 943
7.8125 0 3269
421.875 46.875 889
78.125 250 862
414.062 7.8125 896
-62.5 250 889
195.312 312.5 878
265.625 328.125 829
312.5 351.562 809
-93.75 289.062 948
289.062 343.75 805
-23.4375 265.625 864
70.3125 164.062 998
85.9375 429.688 829
218.75 210.938 962
304.688 335.938 805
-445.312 -210.938 2723
421.875 7.8125 898
-78.125 335.938 938
31.25 335.938 901
-375 23.4375 3092
382.812 -23.4375 1094
-109.375 203.125 943
359.375 210.938 930
-39.0625 210.938 1022
-468.75 -218.75 2723
85.9375 343.75 839
390.625 85.9375 898
406.25 54.6875 889
93.75 429.688 829
109.375 78.125 1381
398.438 -23.4375 1328
140.625 281.25 854
335.938 46.875 925
-117.188 210.938 946
187.5 445.312 878
-492.188 179.688 2467
421.875 78.125 903
429.688 187.5 959
62.5 78.125 1387
242.188 39.0625 1134
156.25 429.688 827
234.375 398.438 898
46.875 398.438 837
70.3125 78.125 1392
179.688 125 1080
484.375 429.688 889
31.25 234.375 1001
453.125 46.875 898
93.75 453.125 871
476.562 312.5 823
296.875 335.938 805
179.688 437.5 839
132.812 148.438 1255
-117.188 148.438 989
281.25 351.562 809
-476.562 -421.875 2467
484.375 304.688 825
187.5 320.312 871
335.938 -85.9375 1060
320.312 -85.9375 1054
-39.0625 257.812 875
226.562 367.188 871
265.625 85.9375 1115
-398.438 54.6875 3092
54.6875 328.125 864
281.25 15.625 1073
289.062 93.75 1101
289.062 -70.3125 1054
484.375 31.25 896
210.938 23.4375 1123
414.062 148.438 935
242.188 265.625 894
7.8125 414.062 862
335.938 210.938 938
265.625 70.3125 1145
-445.312 -132.812 2767
-125 195.312 954
-85.9375 218.75 918
421.875 23.4375 887
445.312 312.5 823
468.75 54.6875 906
187.5 421.875 833
226.562 445.312 882
31.25 445.312 854
-437.5 -132.812 2767
70.3125 421.875 829
-109.375 234.375 962
15.625 382.812 887
226.562 -78.125 1080
359.375 328.125 811
39.0625 445.312 847
-46.875 359.375 959
0 445.312 878
468.75 421.875 882
-7.8125 164.062 1054
-125 398.438 910
109.375 421.875 821
492.188 62.5 910
0 281.25 839
-453.125 -242.188 2701
226.562 62.5 1153
-500 132.812 2317
250 -148.438 1101
-101.562 351.562 967
-476.562 -335.938 2560
351.562 328.125 811
398.438 148.438 930
132.812 351.562 856
203.125 414.062 833
101.562 367.188 827
117.188 296.875 843
117.188 296.875 843
148.438 437.5 827
85.9375 453.125 833
398.438 23.4375 880
-93.75 335.938 962
367.188 335.938 811
78.125 437.5 827
-70.3125 367.188 948
-468.75 -289.062 2618
250 289.062 871
0 117.188 1057
390.625 -23.4375 1338
101.562 304.688 835
93.75 351.562 831
406.25 320.312 817
359.375 39.0625 887
7.8125 289.062 829
273.438 -148.438 1080
23.4375 140.625 1038
414.062 171.875 948
195.312 406.25 843
125 156.25 1255
203.125 171.875 1013
476.562 -164.062 3064
320.312 343.75 807
117.188 93.75 1349
179.688 429.688 837
101.562 437.5 827
148.438 195.312 930
148.438 195.312 930
382.812 437.5 875
46.875 148.438 1019
296.875 -46.875 1050
164.062 -23.4375 1312
406.25 195.312 951
54.6875 406.25 835
242.188 -101.562 1080
117.188 195.312 954
320.312 335.938 807
343.75 335.938 809
234.375 367.188 901
-70.3125 132.812 1028
-15.625 125 1054
453.125 -15.625 1090
437.5 -54.6875 1057
437.5 187.5 962
132.812 359.375 831
62.5 328.125 864
171.875 250 873
-453.125 -343.75 2560
39.0625 453.125 845
-23.4375 203.125 1041
156.25 312.5 837
117.188 281.25 837
62.5 304.688 823
335.938 343.75 807
-453.125 -304.688 2598
328.125 343.75 807
414.062 7.8125 901
375 203.125 946
406.25 78.125 898
250 -39.0625 1067
375 335.938 811
343.75 46.875 913
429.688 148.438 940
-39.0625 375 948
437.5 46.875 891
179.688 -23.4375 1126
421.875 320.312 819
164.062 359.375 837
484.375 312.5 823
62.5 414.062 829
39.0625 226.562 1016
140.625 429.688 821
125 195.312 951
-85.9375 429.688 885
453.125 62.5 906
343.75 210.938 938
273.438 -62.5 1057
70.3125 250 862
117.188 437.5 821
382.812 7.8125 901
-85.9375 304.688 940
351.562 23.4375 898
-429.688 -31.25 2933
0 312.5 882
-421.875 -78.125 2835
62.5 23.4375 3269
93.75 78.125 1387
218.75 421.875 906
46.875 156.25 1016
-78.125 140.625 1019
-476.562 -453.125 2450
187.5 132.812 1067
-375 101.562 1288
109.375 296.875 841
359.375 31.25 887
23.4375 210.938 1034
281.25 101.562 1090
-31.25 210.938 1028
210.938 382.812 860
210.938 382.812 860
-453.125 -359.375 2522
226.562 453.125 875
390.625 39.0625 878
265.625 328.125 827
-132.812 234.375 1115
148.438 289.062 851
148.438 367.188 829
-453.125 -320.312 2598
-93.75 359.375 956
-445.312 46.875 3010
179.688 281.25 864
-70.3125 242.188 903
101.562 187.5 970
351.562 -70.3125 1060
-62.5 359.375 959
351.562 445.312 878
257.812 312.5 845
-429.688 -46.875 2908
476.562 62.5 913
-453.125 -312.5 2598
148.438 -23.4375 1312
-492.188 -367.188 2618
15.625 437.5 862
429.688 46.875 889
15.625 296.875 827
-468.75 -265.625 2659
0 335.938 918
242.188 -31.25 1070
-46.875 335.938 938
-445.312 421.875 856
-453.125 -328.125 2560
-445.312 -203.125 2701
-125 265.625 992
15.625 109.375 1050
-445.312 -187.5 2618
-445.312 -179.688 2598
492.188 304.688 827
140.625 203.125 933
195.312 304.688 878
492.188 125 1047
359.375 335.938 811
398.438 320.312 817
203.125 335.938 867
289.062 351.562 803
445.312 421.875 878
296.875 343.75 803
414.062 156.25 938
140.625 312.5 833
62.5 156.25 1004
-85.9375 -273.438 2859
320.312 -31.25 1050
-429.688 -39.0625 2908
23.4375 46.875 3269
-54.6875 218.75 1022
468.75 414.062 878
-468.75 -304.688 2618
460.938 0 915
195.312 421.875 827
-15.625 328.125 933
-484.375 -375 2541
156.25 218.75 908
-476.562 -109.375 2241
54.6875 304.688 821
429.688 23.4375 889
109.375 437.5 823
39.0625 304.688 819
-476.562 -406.25 2522
281.25 -125 1073
156.25 273.438 864
414.062 328.125 815
218.75 -93.75 1090
367.188 15.625 894
109.375 289.062 835
-78.125 328.125 935
226.562 226.562 938
15.625 125 1044
125 437.5 821
398.438 179.688 948
-429.688 -109.375 2812
250 390.625 862
414.062 54.6875 889
-437.5 -117.188 2789
125 390.625 821
421.875 179.688 956
-23.4375 390.625 933
195.312 414.062 833
93.75 187.5 975
125 234.375 887
78.125 437.5 827
382.812 93.75 896
257.812 328.125 849
-437.5 -54.6875 2883
218.75 453.125 875
328.125 210.938 933
250 289.062 871
101.562 453.125 873
351.562 7.8125 903
78.125 367.188 837
406.25 328.125 815
-39.0625 328.125 946
-117.188 320.312 1001
-445.312 -195.312 2680
-62.5 429.688 887
132.812 437.5 821
85.9375 257.812 860
-445.312 -210.938 2701
468.75 78.125 918
187.5 304.688 880
156.25 257.812 862
39.0625 445.312 847
-171.875 210.938 1141
398.438 15.625 894
359.375 -39.0625 1063
-46.875 210.938 1025
-445.312 15.625 2984
265.625 62.5 1157
-437.5 -101.562 2812
398.438 39.0625 878
-453.125 -296.875 2598
164.062 414.062 829
304.688 343.75 803
304.688 453.125 871
-85.9375 54.6875 3208
-54.6875 125 1038
-132.812 164.062 967
-453.125 -375 2485
23.4375 335.938 903
-109.375 320.312 970
382.812 203.125 943
23.4375 31.25 3300
203.125 398.438 851
-210.938 31.25 3208
382.812 171.875 935
421.875 328.125 819
429.688 195.312 954
125 296.875 843
-421.875 -62.5 2883
390.625 132.812 918
406.25 70.3125 891
-70.3125 281.25 956
398.438 70.3125 889
125 320.312 829
-414.062 7.8125 3037
312.5 453.125 873
70.3125 414.062 833
-500 -156.25 1981
414.062 320.312 817
-117.188 312.5 967
343.75 54.6875 913
234.375 250 913
-140.625 0 3208
304.688 335.938 805
-93.75 343.75 962
-62.5 367.188 948
-367.188 7.8125 3092
210.938 320.312 878
328.125 335.938 807
281.25 343.75 805
460.938 117.188 928
109.375 453.125 873
257.812 -46.875 1063
226.562 -15.625 1084
-70.3125 -156.25 3010
-437.5 -109.375 2812
-421.875 15.625 3010
234.375 -78.125 1077
-453.125 -390.625 2485
367.188 328.125 811
-484.375 31.25 2198
484.375 304.688 829
171.875 414.062 829
31.25 390.625 856
281.25 -7.8125 1063
-429.688 -46.875 2908
453.125 320.312 823
132.812 375 823
39.0625 421.875 837
93.75 179.688 978
31.25 375 869
7.8125 328.125 891
343.75 15.625 906
406.25 429.688 878
359.375 328.125 811
195.312 -70.3125 1119
437.5 351.562 833
312.5 335.938 805
-476.562 -312.5 2598
250 351.562 864
85.9375 453.125 833
78.125 304.688 837
421.875 421.875 875
429.688 -54.6875 1057
359.375 7.8125 903
31.25 304.688 819
414.062 195.312 951
-257.812 382.812 915
-31.25 273.438 896
-93.75 289.062 954
78.125 406.25 833
273.438 351.562 811
-468.75 -164.062 2485
265.625 -148.438 1084
234.375 429.688 896
54.6875 234.375 1007
156.25 296.875 845
-7.8125 281.25 871
476.562 15.625 898
437.5 31.25 889
-453.125 -351.562 2541
-335.938 -117.188 2908
-70.3125 289.062 951
-46.875 218.75 1019
382.812 335.938 813
-62.5 218.75 903
429.688 46.875 889
-429.688 0 2933
218.75 382.812 867
351.562 210.938 938
-437.5 -70.3125 2812
437.5 46.875 891
382.812 7.8125 901
93.75 296.875 829
-468.75 -328.125 2598
117.188 320.312 827
-39.0625 398.438 923
156.25 281.25 858
31.25 351.562 894
125 281.25 841
62.5 414.062 829
328.125 31.25 915
171.875 242.188 875
-468.75 -148.438 2398
-46.875 226.562 894
-437.5 -164.062 2701
273.438 62.5 1157
468.75 367.188 843
-445.312 -234.375 2723
265.625 -164.062 1108
460.938 320.312 823
296.875 -117.188 1067
210.938 414.062 833
23.4375 132.812 1038
-125 187.5 954
-70.3125 359.375 959
-78.125 367.188 948
476.562 421.875 885
187.5 398.438 841
398.438 203.125 946
85.9375 460.938 864
406.25 320.312 817
101.562 289.062 831
-445.312 -140.625 2744
109.375 304.688 837
398.438 23.4375 880
140.625 351.562 843
234.375 62.5 1157
109.375 312.5 831
-390.625 7.8125 3092
429.688 78.125 903
390.625 62.5 885
-492.188 109.375 2241
414.062 85.9375 901
398.438 85.9375 898
70.3125 296.875 825
-445.312 -125 2789
-15.625 273.438 851
476.562 296.875 835
93.75 335.938 827
-398.438 7.8125 3064
140.625 210.938 918
281.25 62.5 1157
390.625 7.8125 901
-23.4375 210.938 1031
375 93.75 896
54.6875 164.062 1010
-460.938 -171.875 2541
-93.75 218.75 920
85.9375 296.875 827
-453.125 -421.875 2503
-7.8125 117.188 1057
171.875 445.312 837
125 218.75 896
-429.688 -62.5 2883
-453.125 -398.438 2485
-492.188 117.188 2271
-429.688 -7.8125 2933
453.125 132.812 940
-453.125 -437.5 2467
-468.75 -242.188 2680
39.0625 453.125 845
-54.6875 351.562 938
343.75 445.312 875
101.562 78.125 1392
445.312 78.125 908
-62.5 382.812 935
39.0625 335.938 862
7.8125 445.312 880
-117.188 265.625 992
78.125 453.125 827
-445.312 -171.875 2579
62.5 398.438 839
453.125 312.5 823
359.375 109.375 903
-445.312 -148.438 2701
156.25 414.062 827
164.062 101.562 1097
54.6875 335.938 860
62.5 304.688 817
351.562 15.625 901
93.75 359.375 829
125 328.125 827
-453.125 -406.25 2485
335.938 343.75 807
109.375 250 875
-421.875 31.25 3010
445.312 31.25 889
101.562 390.625 823
156.25 304.688 843
46.875 31.25 3269
484.375 421.875 880
460.938 312.5 823
31.25 54.6875 3238
54.6875 406.25 839
-468.75 -296.875 2618
-445.312 -218.75 2701
-101.562 265.625 989
226.562 265.625 925
-445.312 -226.562 2701
390.625 312.5 827
359.375 15.625 896
70.3125 304.688 821
375 335.938 811
-437.5 -93.75 2835
-125 156.25 987
15.625 296.875 827
484.375 15.625 901
15.625 304.688 821
23.4375 304.688 821
445.312 62.5 898
-31.25 343.75 928
-31.25 375 951
-78.125 140.625 1022
351.562 335.938 807
-78.125 132.812 1025
-117.188 203.125 943
-101.562 351.562 973
218.75 351.562 864
234.375 406.25 887
187.5 -70.3125 1130
156.25 -23.4375 1317
429.688 328.125 817
-453.125 -335.938 2598
195.312 156.25 1031
140.625 -23.4375 1312
-15.625 367.188 962
421.875 85.9375 901
85.9375 429.688 827
257.812 312.5 843
304.688 85.9375 1119
78.125 437.5 829
-429.688 -23.4375 2933
414.062 429.688 873
281.25 -78.125 1054
164.062 273.438 871
-492.188 -70.3125 2016
359.375 203.125 943
-453.125 -343.75 2579
406.25 179.688 948
78.125 265.625 856
218.75 210.938 959
117.188 187.5 956
93.75 367.188 829
414.062 54.6875 885
312.5 187.5 973
375 328.125 813
-445.312 -250 2701
242.188 273.438 889
-93.75 328.125 959
140.625 203.125 933
101.562 257.812 869
140.625 195.312 935
164.062 265.625 869
250 289.062 869
476.562 78.125 915
70.3125 250 992
375 437.5 871
-453.125 -359.375 2541
421.875 320.312 819
-54.6875 382.812 940
-500 62.5 2226
187.5 54.6875 1173
414.062 421.875 871
250 -140.625 1097
0 335.938 915
351.562 54.6875 898
273.438 -117.188 1073
421.875 117.188 920
320.312 335.938 809
187.5 414.062 839
187.5 414.062 839
23.4375 421.875 843
148.438 289.062 856
-101.562 250 987
179.688 328.125 871
406.25 -23.4375 1067
-390.625 203.125 1119
-78.125 375 946
62.5 328.125 869
-437.5 -132.812 2767
46.875 304.688 819
-421.875 7.8125 2984
-39.0625 210.938 1028
-15.625 203.125 1044
203.125 93.75 1108
-70.3125 351.562 935
289.062 -148.438 1067
445.312 187.5 964
187.5 429.688 833
132.812 226.562 906
140.625 445.312 825
234.375 453.125 875
273.438 343.75 809
-109.375 281.25 992
414.062 -23.4375 1067
-15.625 54.6875 3238
15.625 453.125 871
78.125 171.875 989
390.625 437.5 875
359.375 93.75 894
179.688 171.875 1070
31.25 398.438 847
-85.9375 367.188 954
382.812 335.938 813
-85.9375 328.125 938
-54.6875 296.875 948
31.25 437.5 854
242.188 54.6875 1173
-23.4375 398.438 925
453.125 54.6875 896
414.062 39.0625 882
-453.125 -382.812 2522
148.438 23.4375 1232
125 335.938 825
78.125 312.5 837
31.25 218.75 1028
109.375 289.062 835
-445.312 31.25 3037
203.125 335.938 869
125 140.625 1283
367.188 62.5 880
-460.938 218.75 2398
296.875 351.562 803
-78.125 296.875 946
187.5 437.5 833
343.75 343.75 807
148.438 265.625 856
85.9375 257.812 862
-70.3125 375 946
179.688 257.812 871
54.6875 226.562 1016
-70.3125 320.312 933
-15.625 328.125 928
421.875 328.125 815
-429.688 -46.875 2883
156.25 367.188 833
-468.75 -273.438 2659
-78.125 343.75 938
406.25 62.5 887
-453.125 -289.062 2618
437.5 23.4375 889
390.625 7.8125 906
-460.938 210.938 2398
312.5 -39.0625 1050
-429.688 -54.6875 2883
-437.5 54.6875 3010
-453.125 -179.688 2618
414.062 320.312 819
140.625 320.312 831
148.438 210.938 918
125 445.312 823
242.188 398.438 871
382.812 203.125 948
-484.375 -320.312 2618
218.75 312.5 954
148.438 15.625 1241
445.312 312.5 829
234.375 250 910
-109.375 210.938 935
-468.75 -320.312 2598
-132.812 164.062 975
179.688 210.938 908
-109.375 156.25 998
-429.688 -117.188 2835
78.125 179.688 989
39.0625 328.125 901
203.125 171.875 1007
-70.3125 289.062 956
492.188 304.688 829
85.9375 85.9375 1381
390.625 93.75 896
351.562 351.562 811
23.4375 390.625 847
93.75 320.312 829
210.938 187.5 984
414.062 23.4375 889
-460.938 -156.25 2467
54.6875 398.438 843
359.375 335.938 809
140.625 375 825
406.25 39.0625 882
-453.125 -414.062 2485
453.125 31.25 891
132.812 445.312 821
367.188 359.375 817
179.688 234.375 887
85.9375 375 829
445.312 109.375 920
328.125 156.25 943
15.625 210.938 1038
39.0625 390.625 854
382.812 117.188 906
460.938 132.812 940
351.562 15.625 901
117.188 320.312 829
39.0625 398.438 843
93.75 382.812 825
125 367.188 829
367.188 101.562 896
85.9375 312.5 835
398.438 15.625 898
23.4375 140.625 1038
-445.312 -242.188 2701
453.125 85.9375 915
-468.75 -335.938 2579
101.562 437.5 825
328.125 31.25 915
62.5 312.5 813
390.625 203.125 948
-7.8125 203.125 1047
-93.75 148.438 1010
359.375 15.625 896
414.062 195.312 959
414.062 195.312 959
62.5 242.188 1001
242.188 78.125 1134
-101.562 218.75 928
468.75 140.625 943
492.188 312.5 825
15.625 234.375 1004
-117.188 312.5 967
-117.188 429.688 887
31.25 382.812 869
289.062 343.75 803
31.25 445.312 854
7.8125 437.5 887
257.812 62.5 1153
-437.5 -179.688 2680
351.562 210.938 940
-320.312 62.5 3092
148.438 281.25 862
171.875 281.25 862
7.8125 273.438 835
453.125 0 918
-437.5 -125 2789
-117.188 218.75 967
101.562 445.312 831
31.25 242.188 1001
312.5 343.75 805
46.875 234.375 1007
312.5 -140.625 1067
0 406.25 918
421.875 23.4375 889
273.438 -70.3125 1054
117.188 242.188 880
476.562 429.688 885
437.5 429.688 880
437.5 179.688 959
390.625 335.938 815
468.75 46.875 898
265.625 335.938 821
328.125 335.938 809
156.25 289.062 854
273.438 15.625 1070
-453.125 -445.312 2450
-93.75 140.625 1013
335.938 335.938 807
179.688 312.5 885
-54.6875 125 1038
-210.938 78.125 1365
421.875 320.312 819
437.5 15.625 898
7.8125 335.938 906
-117.188 375 943
453.125 78.125 908
359.375 46.875 885
70.3125 421.875 831
78.125 257.812 862
382.812 328.125 815
-140.625 195.312 956
148.438 -23.4375 1317
-453.125 -390.625 2485
39.0625 406.25 837
304.688 351.562 805
-343.75 343.75 954
328.125 453.125 873
242.188 320.312 871
117.188 382.812 821
78.125 367.188 837
-93.75 359.375 959
-31.25 265.625 864
31.25 148.438 1031
312.5 -85.9375 1054
296.875 -164.062 1123
-445.312 -210.938 2701
312.5 -117.188 1073
-437.5 -117.188 2789
70.3125 304.688 821
148.438 429.688 825
54.6875 164.062 1007
-429.688 -39.0625 2883
54.6875 156.25 1010
460.938 0 915
179.688 406.25 837
304.688 -117.188 1067
78.125 250 862
-453.125 -429.688 2485
281.25 343.75 805
-31.25 210.938 1034
-54.6875 257.812 885
140.625 437.5 821
265.625 -109.375 1073
-7.8125 335.938 925
476.562 70.3125 913
382.812 351.562 817
-23.4375 210.938 1038
-453.125 -54.6875 2883
-93.75 226.562 923
218.75 304.688 948
226.562 -46.875 1077
132.812 335.938 829
343.75 335.938 807
429.688 320.312 819
289.062 -31.25 1050
343.75 15.625 906
234.375 -101.562 1084
93.75 296.875 829
-23.4375 296.875 891
7.8125 429.688 891
-312.5 343.75 956
359.375 39.0625 885
85.9375 296.875 827
468.75 312.5 823
210.938 406.25 862
85.9375 320.312 831
414.062 -23.4375 1067
-93.75 328.125 959
109.375 382.812 821
187.5 421.875 835
-421.875 46.875 3037
218.75 210.938 959
328.125 210.938 938
445.312 -23.4375 1060
-46.875 257.812 882
132.812 328.125 827
-93.75 390.625 928
-460.938 15.625 3120
109.375 398.438 821
351.562 -39.0625 1060
140.625 195.312 935
367.188 15.625 898
-445.312 -234.375 2723
359.375 15.625 896
179.688 281.25 867
54.6875 351.562 854
125 398.438 821
7.8125 445.312 882
398.438 7.8125 908
-445.312 -132.812 2767
140.625 289.062 854
445.312 -421.875 2767
476.562 320.312 823
-476.562 -429.688 2467
-476.562 -109.375 2226
7.8125 132.812 1050
85.9375 453.125 831
203.125 15.625 1134
203.125 453.125 878
23.4375 398.438 847
-484.375 15.625 2170
375 46.875 875
-140.625 242.188 1105
460.938 312.5 823
343.75 -85.9375 1063
148.438 312.5 837
125 304.688 839
250 320.312 860
39.0625 156.25 1022
359.375 210.938 940
367.188 -15.625 1077
289.062 -62.5 1054
179.688 320.312 880
242.188 273.438 889
406.25 -23.4375 1067
406.25 -23.4375 1067
-109.375 234.375 959
414.062 23.4375 889
31.25 218.75 1028
296.875 343.75 803
281.25 85.9375 1123
140.625 304.688 843
31.25 140.625 1031
-445.312 -156.25 2680
-132.812 203.125 951
414.062 203.125 951
437.5 85.9375 908
-421.875 -70.3125 2835
148.438 203.125 928
390.625 328.125 815
320.312 343.75 805
453.125 429.688 882
445.312 -46.875 1057
343.75 31.25 906
398.438 335.938 815
70.3125 328.125 871
-390.625 140.625 1227
164.062 335.938 862
