ply
format ascii 1.0
comment Created by Open3D
element vertex 2371
property double x
property double y
property double z
end_header
-273.438 343.75 1470
281.25 -187.5 981
-437.5 -39.0625 918
-320.312 312.5 938
-218.75 335.938 930
-164.062 406.25 1112
-218.75 15.625 933
78.125 445.312 1101
-179.688 398.438 1115
281.25 -125 1031
-187.5 117.188 1010
-476.562 23.4375 913
-250 -296.875 1236
367.188 406.25 903
-7.8125 320.312 943
-484.375 109.375 856
101.562 -312.5 928
328.125 406.25 903
-500 -156.25 889
-195.312 93.75 1001
-85.9375 -187.5 1278
-468.75 -296.875 992
335.938 406.25 903
382.812 31.25 1185
125 -179.688 1016
414.062 -15.625 1236
-242.188 -296.875 1236
-179.688 -289.062 1227
296.875 406.25 901
437.5 343.75 946
-429.688 281.25 943
289.062 -125 1031
156.25 -156.25 1022
-304.688 148.438 837
-429.688 70.3125 880
398.438 46.875 1173
-445.312 -312.5 1087
-226.562 93.75 896
-125 437.5 1359
132.812 -179.688 1013
132.812 -304.688 920
-31.25 367.188 918
281.25 -179.688 987
-367.188 -15.625 913
93.75 445.312 1087
-445.312 -23.4375 946
265.625 -15.625 1223
296.875 -289.062 918
265.625 -39.0625 1245
-164.062 -78.125 1013
-414.062 125 847
-335.938 -312.5 1245
-195.312 -62.5 992
273.438 125 1097
304.688 -304.688 933
289.062 -218.75 951
-203.125 117.188 984
-132.812 -62.5 1134
-320.312 -304.688 1236
-54.6875 421.875 1101
-62.5 312.5 940
296.875 -343.75 984
0 -85.9375 1153
-148.438 406.25 1108
257.812 -117.188 1041
265.625 -140.625 1019
-23.4375 429.688 1112
-7.8125 -351.562 3120
-164.062 39.0625 1077
210.938 398.438 908
421.875 62.5 1165
-210.938 -23.4375 962
-171.875 93.75 1090
-156.25 429.688 1376
-109.375 -125 1219
187.5 234.375 1001
140.625 0 1165
-164.062 437.5 1365
164.062 453.125 1070
-460.938 -367.188 1063
-234.375 250 925
-187.5 70.3125 1010
15.625 421.875 1067
-156.25 -15.625 1097
312.5 429.688 903
312.5 429.688 903
226.562 398.438 906
281.25 -195.312 973
257.812 -15.625 1223
-242.188 250 925
140.625 -179.688 1007
203.125 0 1161
-156.25 -171.875 1094
62.5 -15.625 1189
-132.812 -210.938 1134
218.75 -15.625 1141
-460.938 -304.688 987
125 7.8125 1181
-125 -234.375 1161
-132.812 -54.6875 1165
-414.062 -39.0625 913
-171.875 -46.875 1022
164.062 -164.062 1013
-351.562 0 898
0 -78.125 1250
-179.688 93.75 1031
-296.875 367.188 1483
-437.5 -31.25 920
0 -70.3125 1241
257.812 117.188 1105
218.75 -7.8125 1153
179.688 171.875 964
234.375 -54.6875 1097
-140.625 -367.188 3092
-132.812 -31.25 1134
203.125 218.75 1004
-109.375 -265.625 1197
289.062 -23.4375 1232
-109.375 437.5 1328
156.25 -312.5 918
-250 335.938 925
-375 -62.5 901
-242.188 78.125 887
-117.188 437.5 1359
-125 -101.562 1181
-148.438 -171.875 1094
210.938 0 1157
-101.562 429.688 1119
-156.25 437.5 1365
484.375 -265.625 2859
273.438 -164.062 1001
234.375 398.438 906
359.375 -7.8125 1223
-7.8125 429.688 1073
-234.375 39.0625 915
-226.562 39.0625 915
234.375 437.5 1016
117.188 453.125 1094
7.8125 375 915
-453.125 -31.25 954
-218.75 -296.875 1232
171.875 0 1165
117.188 -179.688 1016
0 -93.75 1153
-406.25 31.25 887
-179.688 -39.0625 984
148.438 390.625 908
-140.625 -39.0625 1141
-148.438 -39.0625 1119
-140.625 -7.8125 1134
-148.438 -15.625 1126
-46.875 -31.25 1202
46.875 -23.4375 1193
-351.562 -70.3125 987
242.188 -70.3125 1084
-117.188 -109.375 1197
257.812 -117.188 1041
296.875 -250 928
-109.375 -132.812 1219
-171.875 -132.812 1054
273.438 -171.875 992
140.625 -164.062 1019
406.25 -281.25 2933
-460.938 -312.5 987
296.875 -335.938 973
-62.5 -359.375 3092
156.25 187.5 978
-335.938 140.625 841
-195.312 132.812 1001
-398.438 132.812 843
414.062 0 1219
-359.375 7.8125 896
242.188 23.4375 1185
-234.375 54.6875 903
-171.875 62.5 1063
-187.5 117.188 1010
179.688 453.125 1067
85.9375 445.312 1094
-15.625 437.5 1112
85.9375 414.062 1022
398.438 406.25 906
-54.6875 406.25 1063
23.4375 421.875 1067
-62.5 429.688 1112
-289.062 343.75 1470
-250 328.125 925
187.5 257.812 995
-460.938 -203.125 930
0 -101.562 1268
304.688 -359.375 1004
281.25 46.875 1169
265.625 0 1206
140.625 -179.688 1007
375 -109.375 1317
187.5 140.625 970
273.438 0 1206
-218.75 226.562 923
437.5 351.562 940
-421.875 117.188 851
257.812 226.562 1025
-453.125 273.438 943
-492.188 281.25 1312
-171.875 -289.062 1227
-390.625 23.4375 898
-226.562 31.25 918
-242.188 62.5 898
101.562 -7.8125 1169
-203.125 171.875 975
-460.938 -320.312 987
-289.062 320.312 933
242.188 -62.5 1090
-476.562 -304.688 978
171.875 453.125 1067
-445.312 320.312 1557
-148.438 437.5 1370
-343.75 164.062 847
-132.812 -62.5 1134
257.812 -125 1034
242.188 -320.312 933
-281.25 320.312 933
-125 414.062 1105
-164.062 -132.812 1057
-257.812 -304.688 1236
7.8125 -164.062 1343
-132.812 406.25 1105
-125 -85.9375 1181
429.688 187.5 1060
421.875 78.125 1149
375 406.25 906
148.438 -171.875 1013
-195.312 140.625 1001
-375 132.812 843
-210.938 132.812 964
-351.562 343.75 1496
-328.125 140.625 841
289.062 -382.812 1031
429.688 414.062 901
-156.25 15.625 1094
195.312 0 1157
226.562 -289.062 915
-187.5 -70.3125 998
39.0625 375 915
-390.625 -46.875 896
-390.625 -46.875 896
0 367.188 915
250 -93.75 1063
156.25 -164.062 1016
304.688 429.688 908
109.375 382.812 910
164.062 -296.875 915
-242.188 242.188 918
203.125 -296.875 915
242.188 398.438 906
-484.375 -312.5 973
210.938 -289.062 918
-140.625 343.75 923
195.312 -289.062 915
445.312 296.875 981
375 -289.062 2958
0 -351.562 3092
367.188 -289.062 2933
-117.188 421.875 1101
-500 101.562 856
-273.438 343.75 1470
-156.25 429.688 1376
93.75 382.812 913
-117.188 -250 1181
382.812 -289.062 2958
-117.188 -117.188 1185
-171.875 -62.5 1010
-234.375 210.938 910
-210.938 140.625 964
-203.125 -31.25 967
117.188 -179.688 1016
328.125 164.062 1073
164.062 -164.062 1013
476.562 -265.625 2908
-351.562 -23.4375 925
109.375 -312.5 925
218.75 -7.8125 1153
203.125 140.625 973
-132.812 -78.125 1149
-93.75 351.562 920
-406.25 140.625 847
156.25 453.125 1080
-140.625 414.062 1119
-187.5 -62.5 989
-265.625 125 856
-250 85.9375 882
250 117.188 1105
132.812 -390.625 1004
414.062 406.25 908
93.75 -312.5 928
-93.75 -171.875 1255
-187.5 70.3125 1010
46.875 375 915
-218.75 164.062 906
-281.25 -304.688 1236
148.438 -54.6875 1108
234.375 -46.875 1108
-468.75 -312.5 984
-203.125 117.188 984
132.812 7.8125 1181
312.5 406.25 901
382.812 46.875 1173
-140.625 -31.25 1134
-359.375 -70.3125 903
-445.312 117.188 851
421.875 -281.25 2933
39.0625 -23.4375 1197
-414.062 -31.25 910
-445.312 -31.25 918
-406.25 -132.812 1019
70.3125 -15.625 1185
-156.25 -15.625 1097
31.25 421.875 1063
289.062 -210.938 959
-171.875 23.4375 1028
78.125 -15.625 1181
-500 -257.812 875
218.75 0 1157
-164.062 -289.062 1227
234.375 -289.062 915
281.25 -195.312 973
257.812 -7.8125 1214
437.5 265.625 1001
-421.875 -7.8125 891
265.625 -7.8125 1214
-406.25 125 847
164.062 390.625 910
-117.188 437.5 1359
351.562 429.688 901
-296.875 -382.812 3092
250 -39.0625 1123
195.312 218.75 992
289.062 -218.75 951
-445.312 125 851
117.188 -312.5 923
-101.562 429.688 1119
-476.562 109.375 856
296.875 -304.688 930
-421.875 -109.375 1019
-242.188 140.625 856
289.062 -289.062 915
179.688 7.8125 1165
46.875 -257.812 984
148.438 7.8125 1181
-320.312 -304.688 1236
-312.5 335.938 1464
117.188 445.312 1073
226.562 -23.4375 1134
203.125 7.8125 1169
-109.375 429.688 1101
164.062 -210.938 978
265.625 -281.25 915
-476.562 -289.062 987
-179.688 -93.75 1022
23.4375 -31.25 1206
195.312 -335.938 943
-109.375 -109.375 1223
179.688 -296.875 915
234.375 117.188 1105
-375 140.625 843
-140.625 -62.5 1134
343.75 7.8125 1206
-117.188 -234.375 1161
-210.938 -15.625 956
-179.688 85.9375 1038
-171.875 -109.375 1031
148.438 -179.688 1007
304.688 242.188 1013
-148.438 -15.625 1126
187.5 -343.75 948
-101.562 -148.438 1236
-164.062 -31.25 1019
-210.938 195.312 959
54.6875 -15.625 1197
-148.438 429.688 1381
-492.188 -195.312 862
-62.5 421.875 1101
234.375 7.8125 1193
-164.062 39.0625 1077
-179.688 437.5 1292
265.625 -132.812 1028
312.5 -117.188 1322
234.375 -39.0625 1115
-203.125 -46.875 978
-218.75 218.75 940
0 -85.9375 1153
-54.6875 429.688 1112
187.5 453.125 1070
-31.25 429.688 1112
-429.688 281.25 943
-156.25 23.4375 1094
78.125 429.688 1010
-85.9375 -375 3064
-171.875 62.5 1063
-421.875 125 847
-429.688 -218.75 946
-218.75 -375 3120
-296.875 -304.688 1241
-23.4375 -179.688 1354
148.438 -164.062 1016
-164.062 -125 1050
-164.062 62.5 1063
156.25 -164.062 1016
273.438 -281.25 913
-406.25 7.8125 891
289.062 445.312 1010
218.75 15.625 1185
195.312 453.125 1067
335.938 414.062 901
-171.875 -117.188 1044
382.812 406.25 903
132.812 -179.688 1013
-375 -62.5 901
140.625 -164.062 1019
-312.5 -304.688 1236
-445.312 -46.875 918
429.688 179.688 1067
-164.062 398.438 1105
-132.812 -39.0625 1153
-382.812 132.812 843
226.562 -54.6875 1097
-109.375 -140.625 1214
-15.625 429.688 1115
-54.6875 359.375 915
0 -93.75 1153
-132.812 -367.188 3092
-46.875 359.375 915
351.562 406.25 903
-164.062 0 1080
-187.5 -85.9375 1013
-93.75 429.688 1112
132.812 -171.875 1019
-296.875 148.438 839
125 -156.25 1038
-125 -101.562 1181
-257.812 101.562 869
-140.625 -39.0625 1141
265.625 398.438 908
156.25 164.062 978
-203.125 164.062 984
-359.375 -289.062 1219
-304.688 140.625 841
-140.625 -195.312 1119
109.375 -7.8125 1165
-117.188 -117.188 1185
171.875 7.8125 1173
-164.062 -78.125 1013
273.438 -171.875 992
-7.8125 367.188 918
0 117.188 1087
-468.75 -257.812 998
-148.438 -39.0625 1119
-359.375 -62.5 903
-437.5 117.188 849
-156.25 7.8125 1101
257.812 -125 1034
-179.688 -39.0625 984
-429.688 -320.312 1255
46.875 -304.688 956
101.562 445.312 1084
-234.375 117.188 871
125 445.312 1073
-398.438 23.4375 894
-125 -46.875 1161
-382.812 -31.25 908
132.812 445.312 1070
304.688 -304.688 933
-7.8125 437.5 1108
-195.312 140.625 1001
156.25 390.625 910
-54.6875 -359.375 3092
296.875 -257.812 920
-125 -195.312 1119
-125 -234.375 1161
179.688 -281.25 923
-312.5 312.5 933
398.438 -7.8125 1223
-226.562 -296.875 1232
-468.75 15.625 918
-226.562 234.375 923
-125 -85.9375 1181
-468.75 -382.812 1057
-406.25 -250 1022
328.125 -7.8125 1219
-273.438 367.188 1489
-187.5 -78.125 1004
70.3125 -7.8125 1189
257.812 -281.25 915
250 -93.75 1063
-62.5 359.375 915
-250 343.75 943
-125 -289.062 1227
187.5 -296.875 915
-117.188 -125 1181
0 -109.375 1278
-117.188 -273.438 1210
-492.188 109.375 856
-203.125 109.375 984
-85.9375 429.688 1112
-250 273.438 954
195.312 -296.875 915
-492.188 -312.5 973
132.812 453.125 1087
-54.6875 70.3125 1115
-171.875 54.6875 1063
7.8125 -351.562 3092
-39.0625 421.875 1108
-281.25 320.312 933
296.875 437.5 906
7.8125 -171.875 1349
-85.9375 351.562 920
148.438 54.6875 1145
-453.125 109.375 856
343.75 -296.875 2958
-70.3125 -187.5 1288
-468.75 -203.125 930
156.25 54.6875 1145
-125 406.25 1105
195.312 7.8125 1169
312.5 421.875 901
242.188 -70.3125 1084
-476.562 -296.875 984
492.188 -265.625 2859
-367.188 132.812 845
203.125 148.438 973
-117.188 -257.812 1193
-203.125 -39.0625 975
7.8125 250 992
281.25 398.438 908
-234.375 242.188 923
-23.4375 421.875 1080
179.688 0 1161
-179.688 -109.375 1031
-132.812 414.062 1115
-242.188 70.3125 891
-453.125 23.4375 869
273.438 101.562 1123
-281.25 343.75 1470
148.438 -304.688 918
7.8125 -164.062 1343
-179.688 -85.9375 1013
-382.812 140.625 843
-148.438 -125 1057
-203.125 328.125 925
-250 117.188 860
-273.438 140.625 843
-187.5 109.375 1001
-398.438 289.062 940
187.5 0 1157
109.375 0 1185
-7.8125 429.688 1073
-125 -367.188 3092
-468.75 31.25 903
-156.25 -156.25 1077
281.25 -203.125 967
-406.25 -7.8125 894
-109.375 -273.438 1210
109.375 453.125 1094
-132.812 -62.5 1134
-195.312 85.9375 954
320.312 -78.125 1292
-132.812 -234.375 1161
406.25 -7.8125 1227
-250 78.125 887
-203.125 -375 3092
-46.875 429.688 1115
-445.312 -210.938 933
-320.312 -382.812 3092
-218.75 7.8125 935
382.812 375 923
234.375 -46.875 1108
148.438 -164.062 1016
171.875 234.375 995
179.688 218.75 989
-171.875 -46.875 1022
-218.75 250 925
-195.312 -54.6875 987
390.625 -289.062 2933
-132.812 -210.938 1134
-445.312 -93.75 1004
-328.125 140.625 841
0 -101.562 1268
382.812 -7.8125 1223
171.875 390.625 908
-273.438 320.312 930
-109.375 437.5 1328
234.375 320.312 959
-484.375 101.562 858
-109.375 -265.625 1197
-468.75 109.375 856
156.25 7.8125 1181
242.188 -7.8125 1145
-132.812 -85.9375 1149
-148.438 -179.688 1101
265.625 -148.438 1013
-179.688 421.875 1236
-148.438 437.5 1370
460.938 -273.438 2933
156.25 -304.688 918
-93.75 421.875 1112
-382.812 125 847
-226.562 187.5 915
-171.875 -62.5 1010
-125 343.75 923
367.188 406.25 903
-429.688 -46.875 918
414.062 -23.4375 1236
257.812 -125 1034
148.438 -179.688 1007
117.188 -179.688 1016
-148.438 429.688 1381
-421.875 -23.4375 913
-257.812 117.188 860
140.625 445.312 1067
-296.875 320.312 933
-156.25 -179.688 1101
-140.625 -62.5 1134
-406.25 -31.25 906
250 398.438 908
-78.125 234.375 992
-156.25 -289.062 1227
-78.125 429.688 1123
-359.375 -31.25 910
312.5 -23.4375 1232
164.062 0 1165
-414.062 117.188 851
-476.562 -218.75 998
0 -117.188 1288
-148.438 -15.625 1126
-93.75 -187.5 1241
179.688 171.875 964
125 0 1185
-179.688 -93.75 1022
250 -289.062 915
-39.0625 242.188 992
-484.375 109.375 856
148.438 382.812 910
437.5 414.062 903
-117.188 -125 1181
304.688 406.25 901
-218.75 -296.875 1232
-312.5 -304.688 1236
-453.125 -210.938 933
-109.375 -132.812 1219
-265.625 140.625 843
-226.562 179.688 915
289.062 -382.812 1031
-164.062 31.25 1077
-117.188 -117.188 1185
437.5 273.438 995
125 -312.5 920
-429.688 62.5 864
351.562 -296.875 2958
15.625 421.875 1067
257.812 398.438 908
289.062 -226.562 946
320.312 414.062 901
46.875 -15.625 1193
-218.75 218.75 940
62.5 -320.312 938
-250 93.75 875
-132.812 437.5 1370
-187.5 117.188 1010
93.75 -320.312 928
-445.312 31.25 873
195.312 0 1157
-187.5 62.5 1013
218.75 117.188 1101
351.562 414.062 901
-390.625 15.625 896
-109.375 -281.25 1219
273.438 226.562 1022
343.75 406.25 903
296.875 -328.125 959
-296.875 140.625 843
93.75 414.062 1016
-218.75 335.938 930
-156.25 7.8125 1101
140.625 62.5 1138
-421.875 -320.312 1250
78.125 -359.375 956
273.438 398.438 908
289.062 -15.625 1223
-500 257.812 946
-109.375 -39.0625 1202
-164.062 0 1080
-179.688 39.0625 1041
-179.688 85.9375 1038
242.188 -78.125 1073
-226.562 242.188 925
304.688 -281.25 915
-117.188 -109.375 1197
-125 -257.812 1193
-23.4375 429.688 1112
-289.062 148.438 837
-140.625 406.25 1112
164.062 7.8125 1181
62.5 -15.625 1189
-203.125 -296.875 1232
265.625 -140.625 1019
296.875 -335.938 973
242.188 -289.062 915
70.3125 -320.312 935
460.938 -132.812 2744
226.562 -31.25 1123
-250 328.125 925
179.688 -289.062 918
-218.75 234.375 923
265.625 -132.812 1028
265.625 -289.062 915
0 -109.375 1278
117.188 -171.875 1025
-93.75 429.688 1112
335.938 -7.8125 1223
281.25 101.562 1119
-304.688 -304.688 1241
93.75 -7.8125 1169
7.8125 -171.875 1349
-140.625 -39.0625 1141
-492.188 -328.125 984
125 39.0625 1153
-195.312 93.75 1001
-101.562 343.75 923
-468.75 46.875 896
210.938 -7.8125 1153
54.6875 421.875 1054
-54.6875 421.875 1101
117.188 -7.8125 1165
265.625 -156.25 1004
226.562 -23.4375 1134
429.688 164.062 1077
-101.562 437.5 1328
320.312 -156.25 2744
-367.188 -39.0625 901
-421.875 -31.25 920
273.438 -179.688 987
-78.125 351.562 918
304.688 398.438 906
-164.062 -85.9375 1019
-414.062 -62.5 906
-156.25 -23.4375 1097
250 -406.25 2789
-85.9375 429.688 1112
-500 101.562 856
7.8125 -156.25 1333
-367.188 -312.5 1245
-210.938 132.812 964
-359.375 -39.0625 906
-156.25 398.438 1105
-351.562 -7.8125 903
265.625 117.188 1105
78.125 -7.8125 1189
-296.875 -304.688 1241
7.8125 367.188 915
-492.188 -281.25 981
492.188 -281.25 2835
132.812 445.312 1070
-414.062 -234.375 1047
179.688 390.625 908
289.062 -234.375 940
117.188 382.812 910
-242.188 54.6875 903
101.562 203.125 1028
78.125 445.312 1101
289.062 -375 1019
85.9375 406.25 918
-164.062 335.938 923
85.9375 -15.625 1173
101.562 445.312 1084
117.188 -312.5 923
-468.75 -250 998
-289.062 -304.688 1241
273.438 -132.812 1028
281.25 -210.938 964
-125 -93.75 1197
390.625 -109.375 1333
-164.062 398.438 1115
23.4375 421.875 1013
117.188 -414.062 1047
-140.625 437.5 1370
-390.625 -46.875 901
-335.938 -15.625 935
-289.062 289.062 933
359.375 406.25 906
-421.875 39.0625 867
-398.438 125 847
-171.875 15.625 1090
-140.625 -218.75 1149
-320.312 140.625 843
-414.062 125 849
-117.188 -39.0625 1206
-187.5 109.375 1073
242.188 -23.4375 1126
-210.938 54.6875 948
-273.438 -304.688 1241
-179.688 -46.875 992
179.688 226.562 998
-140.625 -46.875 1161
-210.938 195.312 1010
-335.938 -7.8125 943
-171.875 -117.188 1047
-242.188 242.188 923
-414.062 31.25 885
-195.312 390.625 1115
437.5 390.625 918
-132.812 -70.3125 1138
15.625 429.688 1013
-257.812 335.938 943
195.312 390.625 910
109.375 445.312 1090
281.25 -203.125 970
62.5 445.312 1010
257.812 -125 1041
429.688 -281.25 2933
62.5 375 915
-460.938 -359.375 1073
-93.75 -164.062 1283
164.062 171.875 975
-437.5 -15.625 898
-171.875 23.4375 1067
-234.375 31.25 923
54.6875 437.5 1010
-218.75 156.25 962
-359.375 132.812 845
0 -125 1307
406.25 -54.6875 1278
-429.688 -31.25 923
-101.562 -156.25 1259
-218.75 70.3125 898
-351.562 132.812 845
-429.688 7.8125 898
-93.75 -156.25 1278
187.5 7.8125 1169
-117.188 -250 1189
242.188 -78.125 1080
0 -117.188 1292
-312.5 -23.4375 954
359.375 -15.625 1232
-117.188 -117.188 1223
312.5 398.438 906
15.625 367.188 918
-304.688 148.438 839
-140.625 429.688 1381
-218.75 -7.8125 951
-125 -109.375 1126
0 367.188 918
367.188 414.062 901
-304.688 312.5 933
257.812 -132.812 1031
-15.625 359.375 918
-93.75 -179.688 1268
-218.75 148.438 962
-210.938 -31.25 967
171.875 -7.8125 1153
-265.625 117.188 860
-226.562 15.625 935
125 453.125 1101
125 -304.688 925
156.25 -171.875 1013
-148.438 -23.4375 1126
-15.625 -179.688 1359
-210.938 187.5 967
140.625 -7.8125 1165
117.188 31.25 1165
250 -101.562 1063
-234.375 203.125 920
-281.25 148.438 839
-31.25 421.875 1022
132.812 -312.5 925
-421.875 -226.562 956
-320.312 328.125 1470
-492.188 -203.125 862
-195.312 132.812 1013
-468.75 -304.688 995
-343.75 140.625 843
148.438 445.312 1073
-445.312 117.188 854
-375 125 847
-117.188 187.5 1025
382.812 31.25 1189
31.25 -23.4375 1197
85.9375 445.312 1101
109.375 -320.312 930
-54.6875 382.812 928
-164.062 -140.625 1067
-437.5 39.0625 867
-15.625 429.688 1019
-148.438 -171.875 1097
390.625 -289.062 2933
437.5 -273.438 2933
-132.812 -203.125 1134
156.25 445.312 1067
-351.562 -70.3125 992
-171.875 54.6875 1077
-187.5 -93.75 1022
-375 -312.5 1255
-273.438 320.312 933
171.875 0 1165
-39.0625 359.375 920
273.438 -289.062 920
70.3125 375 918
-164.062 31.25 1090
414.062 406.25 906
398.438 406.25 906
281.25 -289.062 920
429.688 406.25 906
132.812 31.25 1165
-7.8125 359.375 918
0 429.688 1016
-226.562 179.688 925
-93.75 437.5 1328
-148.438 -46.875 1123
117.188 453.125 1101
-210.938 -375 3092
-226.562 242.188 923
23.4375 429.688 1013
-62.5 421.875 1108
-195.312 -296.875 1236
-429.688 289.062 954
-226.562 23.4375 930
-179.688 78.125 1031
-429.688 117.188 851
406.25 -70.3125 1297
210.938 -296.875 920
-453.125 273.438 946
101.562 382.812 913
242.188 421.875 913
-15.625 -320.312 3120
-132.812 -85.9375 1165
-289.062 -382.812 3092
-203.125 164.062 1034
-398.438 132.812 845
-125 437.5 1370
234.375 -54.6875 1105
-476.562 -289.062 995
-382.812 -31.25 908
-445.312 109.375 858
-171.875 62.5 1073
117.188 0 1185
-179.688 39.0625 1057
210.938 -7.8125 1157
-421.875 164.062 878
-101.562 -273.438 1219
-203.125 -54.6875 989
-148.438 -179.688 1105
296.875 -328.125 967
62.5 421.875 992
250 -406.25 2767
171.875 218.75 992
226.562 -296.875 920
23.4375 367.188 918
-296.875 148.438 839
187.5 390.625 913
414.062 414.062 901
-468.75 -210.938 995
-7.8125 117.188 1090
-179.688 -39.0625 1001
-429.688 -218.75 951
210.938 218.75 1025
484.375 -265.625 2859
39.0625 421.875 1010
-304.688 335.938 1464
-164.062 -132.812 1060
0 -109.375 1283
-218.75 210.938 943
-117.188 421.875 1090
-179.688 46.875 1016
218.75 -289.062 920
-445.312 -210.938 940
-445.312 15.625 894
296.875 -265.625 918
-46.875 -359.375 3092
-257.812 148.438 845
382.812 -109.375 1322
-492.188 101.562 860
0 -132.812 1312
-148.438 429.688 1381
-312.5 140.625 841
-398.438 -156.25 1016
453.125 46.875 2349
-195.312 85.9375 1013
296.875 -320.312 956
375 -289.062 2958
-234.375 242.188 923
406.25 406.25 906
281.25 -15.625 1227
359.375 -78.125 1297
-421.875 132.812 849
156.25 -164.062 1016
281.25 406.25 906
-406.25 78.125 878
-257.812 335.938 943
-179.688 85.9375 1034
85.9375 -7.8125 1189
-70.3125 351.562 920
93.75 398.438 923
257.812 -132.812 1031
-171.875 46.875 1087
-140.625 -203.125 1134
54.6875 -23.4375 1185
226.562 15.625 1189
-226.562 31.25 923
257.812 -289.062 920
78.125 -15.625 1181
-101.562 437.5 1333
78.125 -320.312 935
140.625 445.312 1080
-148.438 -15.625 1138
421.875 70.3125 1153
437.5 210.938 1041
-421.875 281.25 943
-359.375 -203.125 1119
125 -7.8125 1169
187.5 171.875 967
226.562 -31.25 1130
-148.438 -203.125 1134
164.062 -304.688 923
-328.125 156.25 839
351.562 -7.8125 1223
70.3125 437.5 1010
-117.188 -257.812 1197
265.625 398.438 908
-187.5 101.562 1001
281.25 -210.938 964
31.25 421.875 1010
-460.938 -210.938 940
-164.062 -62.5 1001
31.25 -31.25 1185
0 -125 1307
-484.375 273.438 954
250 -109.375 1054
-195.312 210.938 1001
70.3125 296.875 964
468.75 -273.438 2933
234.375 -31.25 1126
-171.875 -70.3125 1019
70.3125 445.312 1010
-156.25 -23.4375 1112
-203.125 156.25 981
-390.625 -15.625 903
218.75 -15.625 1149
70.3125 421.875 998
187.5 0 1161
23.4375 -132.812 1101
125 -187.5 1010
-117.188 -367.188 3092
-367.188 31.25 913
-390.625 0 901
-453.125 -31.25 948
-328.125 148.438 839
-132.812 414.062 1126
-125 -226.562 1161
-78.125 70.3125 1115
-148.438 335.938 925
54.6875 -328.125 943
117.188 445.312 1087
0 437.5 1016
148.438 -171.875 1016
359.375 -117.188 1328
0 -351.562 3092
-265.625 320.312 933
125 -164.062 1025
-101.562 -132.812 1259
-31.25 70.3125 1123
-125 414.062 1119
-429.688 15.625 896
-296.875 164.062 839
-484.375 -187.5 938
-132.812 -70.3125 1138
-375 132.812 845
195.312 226.562 1007
-203.125 109.375 995
-31.25 281.25 967
39.0625 437.5 1010
-179.688 78.125 1031
-148.438 -23.4375 1126
-109.375 -148.438 1227
-257.812 109.375 867
-140.625 -46.875 1161
-195.312 132.812 1013
46.875 -23.4375 1189
93.75 445.312 1094
-265.625 -304.688 1236
164.062 -210.938 981
-164.062 31.25 1090
242.188 156.25 1073
156.25 453.125 1090
140.625 0 1169
-179.688 93.75 1041
-320.312 -359.375 3120
-476.562 -39.0625 962
-343.75 0 940
156.25 -171.875 1013
273.438 -187.5 984
164.062 250 998
23.4375 -171.875 1067
281.25 -132.812 1022
-218.75 -343.75 3178
171.875 7.8125 1181
-203.125 23.4375 938
-109.375 406.25 1101
-39.0625 -359.375 3064
390.625 -7.8125 1227
-156.25 398.438 1112
-171.875 -39.0625 1022
-195.312 -375 3092
-125 -109.375 1126
250 -109.375 1054
-257.812 132.812 849
187.5 226.562 1001
0 -117.188 1292
398.438 0 1219
-234.375 46.875 910
125 -179.688 1016
242.188 7.8125 1202
-265.625 132.812 849
-23.4375 421.875 1016
179.688 171.875 967
-125 -93.75 1197
421.875 85.9375 1141
-171.875 54.6875 1077
-171.875 15.625 1090
-445.312 273.438 943
-109.375 -140.625 1236
187.5 -406.25 2835
-390.625 31.25 910
-125 -242.188 1177
-359.375 -7.8125 906
-281.25 140.625 841
0 265.625 981
7.8125 -148.438 1097
-164.062 -85.9375 1028
101.562 -312.5 930
-226.562 7.8125 940
156.25 -304.688 923
-390.625 7.8125 901
-164.062 -7.8125 1090
179.688 0 1165
85.9375 437.5 1010
-62.5 375 923
-242.188 234.375 920
140.625 453.125 1094
-296.875 312.5 930
140.625 -171.875 1019
-164.062 39.0625 1084
-140.625 429.688 1381
218.75 109.375 1112
-437.5 218.75 967
-304.688 312.5 933
140.625 -304.688 923
-85.9375 437.5 1333
-257.812 281.25 946
-46.875 429.688 1112
-23.4375 -320.312 3149
-226.562 218.75 935
15.625 -39.0625 1210
-484.375 375 1503
195.312 179.688 970
-132.812 -218.75 1149
-187.5 109.375 1073
-398.438 -54.6875 903
265.625 -164.062 1004
125 -187.5 1010
250 54.6875 1161
-15.625 320.312 943
289.062 -375 1028
140.625 -187.5 1004
-234.375 203.125 920
359.375 398.438 908
289.062 -234.375 946
-195.312 -62.5 995
203.125 -296.875 918
-101.562 132.812 1067
273.438 -132.812 1028
335.938 398.438 908
117.188 -187.5 1013
320.312 398.438 908
-195.312 140.625 1050
-148.438 398.438 1105
-335.938 140.625 843
320.312 -125 1338
140.625 46.875 1149
-164.062 398.438 1115
-171.875 -62.5 1001
31.25 -23.4375 1197
-460.938 -375 1080
343.75 398.438 908
-156.25 -164.062 1090
-460.938 -343.75 1067
-476.562 -281.25 995
7.8125 -164.062 1080
-296.875 171.875 843
-132.812 -226.562 1161
-46.875 -31.25 1206
375 31.25 1189
-242.188 250 923
-390.625 125 849
125 -171.875 1019
78.125 429.688 998
-500 257.812 946
-468.75 -382.812 1070
-179.688 -101.562 1031
-359.375 -312.5 1250
289.062 -242.188 938
-39.0625 429.688 1025
242.188 398.438 908
-210.938 210.938 998
-117.188 -125 1202
375 398.438 908
-7.8125 -179.688 1359
218.75 -7.8125 1157
242.188 -85.9375 1073
-164.062 23.4375 1097
-210.938 125 987
-210.938 375 1087
281.25 -218.75 959
429.688 203.125 1047
-187.5 62.5 1028
382.812 -289.062 2958
132.812 -179.688 1013
351.562 398.438 908
-242.188 132.812 885
195.312 0 1161
-195.312 78.125 1013
0 414.062 1013
-125 -101.562 1153
156.25 -179.688 1004
296.875 101.562 1123
132.812 -187.5 1007
-218.75 0 943
421.875 93.75 1134
156.25 156.25 978
-148.438 -187.5 1115
-359.375 0 903
-367.188 -23.4375 915
367.188 398.438 910
-46.875 421.875 1022
-218.75 148.438 962
140.625 -164.062 1025
-375 -62.5 903
39.0625 -15.625 1197
-31.25 359.375 918
-171.875 -125 1050
125 445.312 1084
-343.75 -7.8125 943
218.75 -15.625 1149
242.188 -78.125 1080
-179.688 -117.188 1044
-265.625 320.312 933
0 -125 1307
-367.188 148.438 845
-218.75 -15.625 959
179.688 -296.875 920
179.688 -296.875 920
132.812 -7.8125 1165
-226.562 320.312 930
375 -117.188 2680
-296.875 156.25 839
296.875 109.375 1115
-125 -234.375 1165
15.625 132.812 1077
242.188 62.5 1153
-226.562 242.188 923
328.125 -125 1338
78.125 398.438 923
132.812 382.812 913
234.375 -62.5 1097
-218.75 195.312 928
-203.125 156.25 981
-460.938 117.188 854
-148.438 -46.875 1123
-39.0625 421.875 1025
296.875 398.438 906
-476.562 101.562 862
-171.875 -46.875 1016
-218.75 320.312 928
0 -132.812 1312
-132.812 -78.125 1169
-78.125 421.875 1112
296.875 -273.438 920
101.562 445.312 1094
-54.6875 421.875 1108
-210.938 179.688 967
148.438 -7.8125 1165
-406.25 -23.4375 903
109.375 -7.8125 1169
-460.938 -39.0625 964
23.4375 289.062 967
-156.25 406.25 1119
164.062 453.125 1087
54.6875 421.875 1007
31.25 367.188 918
-171.875 429.688 1297
-367.188 125 847
117.188 -179.688 1019
-210.938 -23.4375 964
398.438 -203.125 2933
-453.125 125 854
-460.938 -195.312 933
390.625 406.25 903
0 -140.625 1317
-367.188 -15.625 915
-7.8125 -54.6875 1232
156.25 0 1169
382.812 23.4375 1202
7.8125 414.062 1013
-304.688 -382.812 3092
-476.562 15.625 920
335.938 -23.4375 1241
-437.5 109.375 856
-398.438 23.4375 896
437.5 -281.25 2908
-117.188 -132.812 1202
-187.5 54.6875 1028
85.9375 398.438 923
132.812 0 1169
-164.062 -164.062 1090
257.812 -140.625 1025
351.562 -296.875 2958
132.812 453.125 1097
265.625 148.438 1084
171.875 -304.688 920
-195.312 -78.125 1007
-484.375 -203.125 938
-187.5 -375 3092
39.0625 429.688 1010
-226.562 171.875 889
156.25 445.312 1067
-421.875 23.4375 891
390.625 414.062 898
-367.188 -312.5 1250
-335.938 304.688 940
296.875 -312.5 943
-304.688 335.938 1464
-7.8125 429.688 1016
-343.75 132.812 847
-468.75 117.188 856
226.562 -39.0625 1123
31.25 429.688 1010
125 -187.5 1010
148.438 445.312 1073
273.438 -179.688 992
-257.812 93.75 875
-281.25 140.625 841
125 382.812 913
78.125 421.875 1010
62.5 421.875 992
-132.812 429.688 1370
296.875 -320.312 956
-320.312 304.688 933
93.75 437.5 1013
-453.125 -210.938 940
125 31.25 1165
-148.438 -23.4375 1126
398.438 -289.062 2933
-140.625 -46.875 1161
-359.375 -78.125 998
382.812 398.438 908
-265.625 289.062 938
-187.5 -296.875 1232
-171.875 -140.625 1063
406.25 -39.0625 1268
148.438 218.75 992
-429.688 242.188 954
-62.5 351.562 920
-140.625 -70.3125 1138
-93.75 437.5 1328
-179.688 -375 3092
140.625 382.812 910
328.125 398.438 908
250 -109.375 1054
-187.5 101.562 1001
234.375 -289.062 920
-187.5 -101.562 1028
-164.062 -7.8125 1090
210.938 390.625 910
164.062 218.75 992
-7.8125 -46.875 1227
117.188 -187.5 1013
-31.25 -359.375 3037
132.812 445.312 1084
-312.5 140.625 841
359.375 -7.8125 1227
156.25 156.25 978
-429.688 -195.312 951
-460.938 -351.562 1070
-171.875 46.875 1087
7.8125 437.5 1013
-351.562 132.812 845
-210.938 187.5 967
-375 -39.0625 903
0 -132.812 1312
62.5 -23.4375 1181
125 -343.75 948
289.062 187.5 1057
242.188 -85.9375 1073
-289.062 312.5 933
164.062 382.812 913
0 -101.562 1145
-179.688 390.625 1105
-187.5 -78.125 1007
429.688 156.25 1084
343.75 -195.312 2908
7.8125 -46.875 1219
-179.688 -23.4375 989
210.938 7.8125 1177
-218.75 210.938 943
414.062 15.625 1206
7.8125 429.688 1013
-125 -250 1189
-179.688 -54.6875 995
203.125 -7.8125 1153
-171.875 -70.3125 1019
-125 406.25 1112
-406.25 -390.625 3092
-437.5 -218.75 951
-242.188 62.5 901
78.125 375 915
-296.875 312.5 930
156.25 218.75 992
-195.312 328.125 928
-140.625 406.25 1115
93.75 -15.625 1169
398.438 398.438 910
-140.625 -210.938 1141
15.625 289.062 967
375 406.25 906
-156.25 -31.25 1108
93.75 -437.5 2812
437.5 398.438 913
-156.25 7.8125 1112
-234.375 242.188 923
-320.312 156.25 839
-273.438 367.188 1489
-203.125 101.562 998
-453.125 140.625 862
140.625 -7.8125 1165
-164.062 -148.438 1077
-140.625 437.5 1370
421.875 101.562 1126
-132.812 -242.188 1177
-171.875 421.875 1365
148.438 0 1169
-429.688 132.812 849
-117.188 -265.625 1206
-148.438 398.438 1105
164.062 445.312 1063
476.562 -273.438 2933
375 23.4375 1197
15.625 429.688 1013
-328.125 140.625 843
171.875 445.312 1067
-31.25 429.688 1028
-179.688 78.125 1031
-289.062 148.438 839
-203.125 -31.25 967
226.562 226.562 1022
289.062 398.438 908
-328.125 304.688 938
-484.375 156.25 894
-500 -335.938 984
234.375 390.625 910
-125 -203.125 1134
289.062 -359.375 1004
-109.375 421.875 1087
-437.5 -23.4375 925
320.312 406.25 903
289.062 -250 930
-15.625 421.875 1016
-195.312 125 1010
-195.312 132.812 1013
-164.062 23.4375 1097
-187.5 -31.25 981
265.625 -164.062 1004
-406.25 23.4375 894
0 -85.9375 1149
140.625 445.312 1080
-328.125 320.312 943
406.25 -46.875 1273
-156.25 335.938 925
-406.25 421.875 1477
468.75 -15.625 2467
437.5 328.125 959
-62.5 343.75 923
281.25 -218.75 959
-39.0625 -359.375 3064
-476.562 109.375 856
250 -70.3125 1090
70.3125 445.312 1010
-421.875 0 894
-125 -265.625 1206
-210.938 -39.0625 975
187.5 382.812 915
85.9375 -15.625 1173
-70.3125 421.875 1112
-414.062 132.812 847
-492.188 101.562 860
-187.5 179.688 1025
-31.25 421.875 1022
-117.188 -125 1202
132.812 -164.062 1025
250 -23.4375 1227
-62.5 414.062 1094
70.3125 -125 1080
-164.062 -70.3125 1034
281.25 390.625 910
-179.688 414.062 1130
-7.8125 421.875 1016
-265.625 171.875 847
46.875 437.5 1010
0 -125 1307
304.688 421.875 903
140.625 453.125 1094
-70.3125 414.062 1094
125 -7.8125 1169
109.375 -312.5 928
85.9375 375 915
281.25 -132.812 1022
70.3125 437.5 1010
-445.312 -23.4375 928
234.375 -23.4375 1134
-210.938 125 987
257.812 -406.25 2789
148.438 453.125 1094
-203.125 -46.875 981
289.062 -93.75 1307
-7.8125 -70.3125 1245
-257.812 320.312 933
250 -117.188 1047
429.688 226.562 1031
-406.25 -140.625 1016
-78.125 437.5 1328
-195.312 -296.875 1236
7.8125 109.375 1094
-140.625 398.438 1101
-156.25 -140.625 1067
15.625 437.5 1013
-54.6875 351.562 920
-437.5 15.625 896
-109.375 406.25 1101
-273.438 132.812 849
-117.188 54.6875 1130
156.25 -7.8125 1165
-78.125 421.875 1112
429.688 -281.25 2933
242.188 -281.25 920
-234.375 23.4375 930
218.75 93.75 1126
335.938 406.25 901
414.062 23.4375 1197
234.375 -62.5 1097
-109.375 -148.438 1227
-125 -101.562 1153
-250 85.9375 885
-500 -281.25 981
-460.938 289.062 1616
-187.5 54.6875 1028
328.125 406.25 906
62.5 445.312 1010
-171.875 54.6875 1077
109.375 445.312 1090
156.25 -171.875 1013
429.688 195.312 1057
-125 -117.188 1134
-250 328.125 935
-281.25 179.688 849
-109.375 -367.188 3092
-242.188 242.188 923
-265.625 -304.688 1236
-93.75 -195.312 1255
156.25 179.688 973
-140.625 -54.6875 1123
-179.688 31.25 1050
-421.875 117.188 854
-234.375 39.0625 915
-117.188 429.688 1090
125 -187.5 1010
-406.25 -7.8125 896
-492.188 109.375 858
-445.312 31.25 878
-382.812 125 847
39.0625 367.188 918
-148.438 -31.25 1115
-265.625 335.938 943
-351.562 -31.25 928
-171.875 -148.438 1077
273.438 -187.5 984
421.875 406.25 906
-148.438 -210.938 1141
-273.438 -304.688 1241
-132.812 -93.75 1161
132.812 -171.875 1019
-171.875 46.875 1087
-195.312 78.125 1013
78.125 -289.062 951
-273.438 -382.812 3092
148.438 15.625 1177
-460.938 -320.312 1073
-390.625 -23.4375 906
265.625 -312.5 938
-359.375 15.625 901
-164.062 -109.375 1044
148.438 -312.5 923
125 -179.688 1016
-468.75 265.625 948
85.9375 -437.5 2812
-398.438 117.188 854
460.938 -273.438 2933
-187.5 93.75 1041
-468.75 23.4375 873
-203.125 156.25 981
-171.875 421.875 1365
-187.5 -23.4375 975
312.5 414.062 901
210.938 0 1169
226.562 148.438 1080
210.938 15.625 1185
-453.125 109.375 856
-242.188 -296.875 1241
-78.125 -218.75 1255
-210.938 179.688 967
-187.5 -85.9375 1016
406.25 0 1219
273.438 15.625 1197
242.188 93.75 1126
-398.438 -210.938 967
242.188 109.375 1112
273.438 179.688 1063
140.625 -312.5 925
164.062 0 1169
-46.875 312.5 943
15.625 414.062 1010
187.5 -296.875 918
156.25 15.625 1177
218.75 -125 1041
-320.312 132.812 847
70.3125 421.875 998
-375 -62.5 903
289.062 445.312 1022
414.062 -281.25 2933
-476.562 265.625 948
257.812 -140.625 1025
-453.125 -210.938 940
265.625 -171.875 998
-437.5 273.438 943
-156.25 0 1112
296.875 429.688 906
281.25 39.0625 1173
273.438 -195.312 975
242.188 -85.9375 1073
171.875 445.312 1067
101.562 -320.312 933
-242.188 226.562 913
109.375 -187.5 1013
-7.8125 -320.312 3120
-140.625 -226.562 1161
156.25 -179.688 1004
-132.812 -78.125 1169
23.4375 437.5 1013
195.312 210.938 1001
226.562 -7.8125 1157
62.5 -31.25 1169
-242.188 281.25 948
242.188 -31.25 1126
242.188 -406.25 2767
210.938 -7.8125 1157
367.188 -187.5 2883
23.4375 187.5 1038
-437.5 -218.75 951
-250 148.438 851
187.5 85.9375 1123
-343.75 -39.0625 938
23.4375 429.688 1013
250 -15.625 1223
195.312 -7.8125 1153
148.438 445.312 1073
101.562 -7.8125 1169
140.625 -171.875 1019
78.125 -437.5 2835
-187.5 101.562 1001
-359.375 125 849
382.812 -117.188 2680
429.688 210.938 1041
-476.562 -273.438 995
117.188 -7.8125 1169
-140.625 -203.125 1134
187.5 -7.8125 1153
39.0625 -23.4375 1193
-203.125 101.562 998
-132.812 429.688 1370
-414.062 -242.188 1031
101.562 375 915
-218.75 203.125 938
-156.25 -187.5 1115
367.188 -296.875 2958
-125 -242.188 1177
78.125 -328.125 935
382.812 -15.625 1236
23.4375 414.062 1013
-7.8125 -78.125 1250
-156.25 -171.875 1101
125 -328.125 933
203.125 7.8125 1169
46.875 429.688 1010
187.5 -304.688 918
62.5 -7.8125 1193
-187.5 -296.875 1232
-218.75 218.75 935
164.062 -7.8125 1157
-226.562 234.375 923
-7.8125 -85.9375 1259
-382.812 -414.062 3010
281.25 -296.875 925
0 414.062 1013
-304.688 140.625 843
0 -132.812 1312
-445.312 -31.25 920
-179.688 70.3125 1028
0 429.688 1016
-164.062 429.688 1376
-93.75 343.75 925
-343.75 -31.25 935
0 359.375 918
-273.438 148.438 843
-484.375 101.562 860
-351.562 148.438 843
-500 -132.812 908
-125 437.5 1370
296.875 -132.812 2744
171.875 -15.625 1145
-289.062 312.5 933
-320.312 148.438 839
132.812 -312.5 925
289.062 437.5 1013
-109.375 -273.438 1219
242.188 -93.75 1067
-70.3125 -171.875 1349
-132.812 -226.562 1161
-101.562 -367.188 3064
-195.312 125 1010
93.75 375 915
-171.875 -93.75 1025
-156.25 -31.25 1108
218.75 390.625 910
-429.688 109.375 856
-476.562 -296.875 992
187.5 210.938 995
179.688 -304.688 920
-320.312 328.125 1470
-195.312 -70.3125 1001
148.438 -7.8125 1165
296.875 -312.5 943
-15.625 406.25 1016
-156.25 -7.8125 1112
-46.875 421.875 1022
-148.438 429.688 1381
187.5 -406.25 2835
-117.188 -117.188 1223
-164.062 -171.875 1097
-296.875 281.25 940
-242.188 46.875 910
203.125 210.938 1007
-148.438 -187.5 1115
-335.938 156.25 841
-171.875 -78.125 1019
390.625 -15.625 1232
-492.188 257.812 946
171.875 382.812 915
0 -140.625 1317
46.875 367.188 918
62.5 -15.625 1189
-445.312 -39.0625 918
-54.6875 375 928
-281.25 -382.812 3092
226.562 -39.0625 1123
-203.125 148.438 975
-148.438 -31.25 1115
226.562 390.625 910
-296.875 335.938 1464
-335.938 -31.25 940
-343.75 132.812 847
-125 -367.188 3092
-85.9375 437.5 1333
-179.688 -54.6875 995
-132.812 -250 1189
234.375 -54.6875 1105
101.562 437.5 1070
414.062 31.25 1189
-93.75 437.5 1328
-54.6875 414.062 1022
-406.25 -46.875 906
-218.75 210.938 943
-500 312.5 1333
132.812 375 915
0 -156.25 1338
-421.875 -359.375 3178
-406.25 132.812 847
117.188 375 915
296.875 -281.25 920
421.875 414.062 903
-7.8125 421.875 1016
-70.3125 421.875 1112
-218.75 7.8125 938
281.25 -226.562 951
218.75 -23.4375 1141
-148.438 406.25 1115
-390.625 117.188 854
-492.188 -382.812 989
390.625 398.438 908
-500 -304.688 978
70.3125 -23.4375 1177
320.312 398.438 908
-125 -117.188 1134
-414.062 117.188 854
-109.375 -156.25 1223
265.625 -23.4375 1236
-203.125 -62.5 995
281.25 -304.688 935
-257.812 312.5 930
78.125 445.312 1013
-312.5 132.812 845
85.9375 445.312 1101
210.938 109.375 1108
0 421.875 1013
-164.062 421.875 1376
-15.625 359.375 918
-156.25 398.438 1112
-351.562 140.625 843
-179.688 -109.375 1038
-179.688 390.625 1105
-125 -109.375 1126
-195.312 117.188 1004
148.438 -171.875 1016
-109.375 421.875 1087
-375 140.625 843
-273.438 156.25 839
-382.812 140.625 847
195.312 -406.25 2835
-164.062 -15.625 1090
-429.688 -226.562 951
304.688 -15.625 1227
257.812 -148.438 1016
-195.312 109.375 995
-164.062 23.4375 1097
234.375 -70.3125 1090
-257.812 109.375 867
-421.875 125 849
-476.562 -210.938 998
140.625 -187.5 1004
-31.25 -359.375 3037
-460.938 -328.125 1073
156.25 -171.875 1013
-468.75 -312.5 995
-250 328.125 935
-312.5 -382.812 3092
-117.188 437.5 1370
156.25 382.812 913
-218.75 0 943
250 -148.438 1016
31.25 -39.0625 1181
-117.188 -125 1202
-132.812 406.25 1112
78.125 437.5 1013
289.062 -250 930
-187.5 -39.0625 987
-148.438 -54.6875 1123
-140.625 -210.938 1141
-171.875 -125 1050
-171.875 390.625 1105
-476.562 -390.625 1054
-484.375 -390.625 1044
-265.625 335.938 943
-171.875 -132.812 1060
-93.75 -195.312 1255
-218.75 187.5 925
195.312 23.4375 1181
-234.375 195.312 889
195.312 -304.688 918
179.688 -7.8125 1153
-140.625 -54.6875 1123
0 -148.438 1328
421.875 421.875 901
-250 70.3125 891
-7.8125 109.375 1094
7.8125 429.688 1013
-210.938 117.188 987
-226.562 15.625 935
-93.75 -367.188 3064
-164.062 15.625 1101
328.125 398.438 908
-171.875 15.625 1090
-218.75 140.625 959
242.188 -93.75 1067
375 -117.188 2680
289.062 -351.562 992
-484.375 281.25 954
-125 -250 1189
-7.8125 -70.3125 1245
-382.812 -31.25 908
117.188 445.312 1087
-140.625 -78.125 1138
-54.6875 -39.0625 1210
187.5 93.75 1119
15.625 -31.25 1206
-476.562 -179.688 940
-484.375 -234.375 995
156.25 -312.5 925
-421.875 -234.375 1047
257.812 -406.25 2789
-398.438 7.8125 896
273.438 -203.125 970
140.625 7.8125 1185
-281.25 148.438 839
125 445.312 1084
-257.812 320.312 933
101.562 -15.625 1165
-343.75 140.625 843
-437.5 320.312 1579
-328.125 -23.4375 935
23.4375 -31.25 1197
140.625 -171.875 1019
-7.8125 -93.75 1268
54.6875 0 1185
-140.625 398.438 1101
70.3125 -15.625 1185
-23.4375 421.875 1016
148.438 -171.875 1016
-187.5 -31.25 981
-156.25 -39.0625 1112
250 -101.562 1063
-265.625 125 856
0 -93.75 1145
296.875 390.625 913
429.688 398.438 913
-132.812 335.938 925
78.125 -437.5 2835
-250 78.125 887
54.6875 429.688 1001
-46.875 -39.0625 1210
203.125 0 1165
-328.125 132.812 847
-367.188 132.812 845
156.25 445.312 1067
304.688 398.438 906
140.625 375 915
304.688 -273.438 920
-109.375 429.688 1087
-101.562 406.25 1094
-476.562 398.438 1477
250 -125 1041
-257.812 203.125 875
-210.938 179.688 967
250 -117.188 1047
187.5 445.312 1057
-164.062 -85.9375 1028
-476.562 -281.25 995
265.625 -171.875 998
289.062 -359.375 1004
414.062 -289.062 2933
117.188 437.5 1067
-257.812 101.562 871
-367.188 23.4375 903
-265.625 -304.688 1236
257.812 390.625 913
-500 -343.75 981
93.75 445.312 1094
-148.438 -195.312 1123
-171.875 46.875 1087
31.25 414.062 1010
-242.188 312.5 933
335.938 398.438 908
195.312 445.312 1057
406.25 23.4375 1197
-7.8125 -78.125 1250
289.062 -257.812 928
351.562 -23.4375 1241
-179.688 70.3125 1028
23.4375 -39.0625 1189
-375 125 847
281.25 445.312 1025
-453.125 -328.125 1087
-164.062 -156.25 1084
125 -312.5 925
-335.938 132.812 847
250 390.625 910
-320.312 304.688 933
31.25 429.688 1010
-203.125 148.438 975
-171.875 -375 3092
-23.4375 429.688 1022
445.312 -281.25 2933
156.25 453.125 1090
-187.5 46.875 1016
-132.812 398.438 1097
-132.812 -78.125 1169
-492.188 -203.125 862
148.438 -242.188 962
-164.062 70.3125 1115
-250 320.312 933
54.6875 367.188 918
-179.688 -375 3092
179.688 382.812 915
-117.188 -140.625 1157
289.062 -312.5 940
226.562 -46.875 1115
-23.4375 -359.375 3037
-156.25 -7.8125 1112
-156.25 -195.312 1123
-296.875 140.625 843
-132.812 -93.75 1161
242.188 414.062 913
-437.5 -250 1038
-195.312 -296.875 1236
-179.688 39.0625 1057
226.562 -296.875 920
-351.562 125 849
359.375 -296.875 2958
7.8125 414.062 1013
351.562 -125 2723
-164.062 -15.625 1090
-70.3125 54.6875 1130
-187.5 93.75 1041
-304.688 335.938 1464
-85.9375 -195.312 1278
-257.812 289.062 938
-117.188 -218.75 1157
109.375 -195.312 1004
289.062 -296.875 928
-179.688 31.25 1050
242.188 -406.25 2767
171.875 -7.8125 1153
187.5 15.625 1185
-265.625 -382.812 3064
-62.5 421.875 1108
109.375 -320.312 930
-226.562 171.875 889
-85.9375 414.062 1105
-343.75 226.562 933
171.875 164.062 970
-234.375 203.125 920
-132.812 -85.9375 1165
-7.8125 -62.5 1236
-93.75 226.562 1001
62.5 -367.188 978
-359.375 -31.25 920
-203.125 93.75 1001
210.938 -15.625 1138
78.125 -359.375 962
-375 289.062 938
-468.75 312.5 1586
-320.312 312.5 940
-148.438 -54.6875 1123
-132.812 437.5 1370
-296.875 335.938 1464
218.75 -23.4375 1141
156.25 -7.8125 1165
304.688 39.0625 1181
-140.625 -234.375 1169
-390.625 242.188 956
-226.562 23.4375 930
-242.188 226.562 913
-210.938 203.125 1001
460.938 367.188 1863
-226.562 164.062 885
390.625 -117.188 2680
-281.25 312.5 930
125 437.5 1067
-187.5 -23.4375 975
484.375 -273.438 2859
156.25 46.875 1153
-195.312 70.3125 1013
-156.25 421.875 1376
187.5 -304.688 918
132.812 -281.25 935
-179.688 -31.25 989
109.375 375 915
398.438 -289.062 2933
242.188 -101.562 1060
-195.312 125 1010
7.8125 421.875 1013
-250 62.5 901
-382.812 -390.625 3092
468.75 -273.438 2933
164.062 -179.688 1004
-414.062 23.4375 891
234.375 -70.3125 1090
-109.375 -148.438 1227
-437.5 -31.25 920
-125 -109.375 1126
257.812 -328.125 954
-390.625 -429.688 2984
265.625 -289.062 920
-179.688 -132.812 1060
-429.688 328.125 1564
-437.5 39.0625 867
-273.438 179.688 849
437.5 -281.25 2908
-382.812 -70.3125 903
-70.3125 414.062 1094
-437.5 273.438 943
-210.938 -23.4375 964
-273.438 359.375 1489
132.812 -195.312 998
-375 -70.3125 908
242.188 15.625 1193
109.375 -15.625 1165
0 -164.062 1349
-484.375 -312.5 978
-335.938 -23.4375 938
226.562 -15.625 1149
-312.5 304.688 933
-304.688 250 956
-187.5 -70.3125 1001
-390.625 -390.625 3092
-250 242.188 923
-445.312 -218.75 1047
101.562 414.062 1028
-125 -85.9375 1193
-468.75 -242.188 1010
-15.625 421.875 1016
-460.938 -210.938 940
281.25 109.375 1115
-476.562 273.438 951
-117.188 -132.812 1202
-187.5 101.562 1001
195.312 -7.8125 1153
15.625 414.062 1010
132.812 343.75 935
0 421.875 1013
-351.562 -7.8125 903
132.812 -179.688 1013
-210.938 335.938 933
250 -125 1041
-226.562 0 943
-140.625 -62.5 1173
265.625 101.562 1123
265.625 -179.688 992
-109.375 406.25 1101
-46.875 414.062 1022
273.438 -195.312 975
62.5 367.188 918
-140.625 -15.625 1138
-406.25 140.625 847
-164.062 15.625 1101
148.438 -179.688 1010
296.875 -132.812 2744
-414.062 351.562 1536
242.188 390.625 910
-351.562 132.812 845
93.75 -7.8125 1177
195.312 -343.75 959
-171.875 -78.125 1019
-148.438 406.25 1115
101.562 445.312 1094
70.3125 429.688 998
-210.938 250 970
289.062 -265.625 918
-437.5 -46.875 918
-125 -273.438 1214
78.125 -23.4375 1177
-460.938 7.8125 925
-445.312 109.375 858
-250 -304.688 1245
-460.938 46.875 875
242.188 -296.875 920
-335.938 140.625 843
304.688 -265.625 920
-398.438 -390.625 3092
171.875 210.938 992
-164.062 421.875 1376
-289.062 289.062 933
-429.688 -390.625 3092
148.438 -312.5 923
-101.562 437.5 1333
351.562 398.438 908
367.188 398.438 910
-101.562 421.875 1105
-140.625 429.688 1381
-7.8125 -85.9375 1259
187.5 203.125 992
-437.5 0 903
156.25 156.25 978
-148.438 -31.25 1115
-359.375 -54.6875 908
-359.375 -390.625 3092
-156.25 -39.0625 1112
203.125 -304.688 920
-500 -312.5 970
-445.312 46.875 869
-406.25 -359.375 3178
-414.062 -390.625 3092
203.125 445.312 1054
281.25 15.625 1197
-125 437.5 1370
398.438 -15.625 1236
-289.062 335.938 1477
15.625 328.125 940
179.688 0 1165
93.75 437.5 1013
-210.938 359.375 1063
117.188 -320.312 928
-242.188 218.75 898
-179.688 -62.5 998
-125 406.25 1112
210.938 445.312 1054
-132.812 -234.375 1165
-476.562 101.562 862
453.125 -281.25 2908
-390.625 -54.6875 901
-85.9375 -367.188 3037
-406.25 117.188 854
359.375 398.438 908
-367.188 -70.3125 910
-257.812 85.9375 885
-140.625 -46.875 1161
-187.5 46.875 1016
-39.0625 421.875 1025
-437.5 70.3125 882
234.375 -296.875 920
-15.625 429.688 1019
398.438 -85.9375 1317
-101.562 -39.0625 1206
-148.438 -39.0625 1115
421.875 109.375 1119
-203.125 -54.6875 989
140.625 437.5 1057
242.188 218.75 1028
273.438 -203.125 970
-242.188 343.75 943
-414.062 -46.875 920
46.875 0 1185
-171.875 -46.875 1016
-210.938 171.875 973
-195.312 171.875 1028
-171.875 -54.6875 1016
-187.5 -39.0625 987
-492.188 289.062 1317
257.812 -148.438 1016
-250 281.25 946
-398.438 15.625 896
70.3125 437.5 1010
-171.875 390.625 1105
-15.625 351.562 923
85.9375 390.625 918
-117.188 429.688 1090
70.3125 390.625 920
-281.25 335.938 1489
7.8125 -54.6875 1181
-343.75 148.438 843
242.188 -101.562 1060
54.6875 -31.25 1169
289.062 148.438 1084
-117.188 -273.438 1214
140.625 -187.5 1004
-156.25 -54.6875 1115
375 398.438 908
-117.188 -265.625 1206
265.625 -101.562 1063
-312.5 140.625 841
148.438 -187.5 1004
-156.25 429.688 1381
-179.688 23.4375 992
-132.812 398.438 1097
195.312 125 1094
101.562 437.5 1070
304.688 -132.812 2744
-460.938 -335.938 1070
-210.938 -46.875 981
-164.062 -375 3092
-312.5 156.25 839
-367.188 -320.312 1250
-421.875 31.25 875
164.062 445.312 1063
-132.812 -85.9375 1165
-414.062 125 849
54.6875 414.062 1007
-148.438 398.438 1105
-101.562 132.812 1067
-460.938 265.625 943
-164.062 -78.125 1028
-101.562 -367.188 3064
-445.312 343.75 1557
-195.312 -70.3125 1001
-117.188 -54.6875 1227
-265.625 320.312 933
-250 320.312 933
-367.188 7.8125 901
-351.562 -78.125 998
-210.938 320.312 930
0 -156.25 1338
414.062 398.438 913
-468.75 7.8125 925
-187.5 320.312 930
-304.688 132.812 845
39.0625 437.5 1010
-250 -382.812 3064
-289.062 140.625 841
-156.25 -375 3092
-156.25 -15.625 1119
-406.25 281.25 940
-421.875 7.8125 894
7.8125 359.375 918
117.188 -15.625 1165
-468.75 101.562 860
-445.312 -281.25 1028
-195.312 70.3125 1013
257.812 93.75 1126
257.812 -156.25 1007
-351.562 -390.625 3092
-367.188 125 847
46.875 -31.25 1181
-429.688 125 849
31.25 -31.25 1185
-359.375 -320.312 1250
-320.312 257.812 954
-156.25 -179.688 1105
148.438 -328.125 933
179.688 -7.8125 1153
-296.875 164.062 839
-234.375 15.625 933
195.312 382.812 915
-187.5 93.75 1041
-390.625 -15.625 903
281.25 -234.375 946
-15.625 -359.375 3064
-15.625 -359.375 3064
-328.125 132.812 847
-210.938 117.188 987
-93.75 437.5 1328
250 -132.812 1034
-140.625 -218.75 1149
-179.688 328.125 925
335.938 -304.688 2958
-460.938 -218.75 995
-250 140.625 854
289.062 -351.562 992
-156.25 421.875 1376
382.812 0 1219
351.562 -125 2723
273.438 -296.875 925
-125 -257.812 1197
62.5 -23.4375 1181
-171.875 -85.9375 1022
-406.25 -62.5 913
171.875 -414.062 2835
-171.875 39.0625 1084
-273.438 140.625 843
-453.125 312.5 1586
-304.688 156.25 839
164.062 -7.8125 1157
187.5 156.25 967
7.8125 421.875 1013
-273.438 125 856
-15.625 421.875 1016
78.125 421.875 1010
-93.75 421.875 1112
-445.312 -218.75 1047
-164.062 406.25 1123
171.875 0 1165
-125 -125 1134
-429.688 46.875 864
-203.125 148.438 975
117.188 -179.688 1019
-390.625 289.062 940
492.188 -273.438 2859
-148.438 -62.5 1134
-265.625 101.562 871
273.438 390.625 910
