ply
format ascii 1.0
comment Created by Open3D
element vertex 2416
property double x
property double y
property double z
end_header
-46.875 125 1050
156.25 101.562 940
70.3125 70.3125 1283
-375 7.8125 3010
398.438 0 1004
125 31.25 1119
54.6875 -70.3125 1312
31.25 242.188 913
46.875 296.875 869
460.938 -125 3468
484.375 -234.375 1427
414.062 7.8125 1016
476.562 320.312 943
328.125 -289.062 3269
218.75 -132.812 1108
-445.312 15.625 2908
421.875 398.438 1536
179.688 -54.6875 1161
195.312 -109.375 1115
39.0625 148.438 1025
-109.375 281.25 964
460.938 -164.062 3333
375 -54.6875 962
210.938 -54.6875 1149
-101.562 -15.625 3269
156.25 -39.0625 1189
-140.625 125 938
-281.25 0 3120
140.625 328.125 843
187.5 -210.938 1138
179.688 -226.562 1149
-187.5 -7.8125 3208
234.375 335.938 923
453.125 -210.938 3503
179.688 -187.5 1123
304.688 -226.562 3365
281.25 15.625 1004
46.875 0 1328
54.6875 46.875 1328
-7.8125 -23.4375 3365
187.5 -125 1112
-93.75 -15.625 3300
429.688 -226.562 3433
234.375 -289.062 3208
367.188 -46.875 962
-109.375 -46.875 3238
398.438 -335.938 3238
289.062 -289.062 3238
125 -93.75 1169
453.125 -250 3433
460.938 -132.812 3468
382.812 31.25 1013
140.625 -70.3125 1173
-414.062 46.875 1264
23.4375 140.625 1034
257.812 406.25 862
-406.25 46.875 1268
351.562 -117.188 978
320.312 93.75 1004
117.188 15.625 1134
-468.75 15.625 2883
-476.562 15.625 2883
343.75 -132.812 1141
117.188 -93.75 1181
-85.9375 289.062 943
-453.125 15.625 2883
179.688 85.9375 1022
93.75 -93.75 1197
-257.812 0 3149
93.75 -23.4375 1210
70.3125 -54.6875 1278
281.25 -156.25 1138
-7.8125 62.5 1041
359.375 -31.25 967
85.9375 156.25 880
-54.6875 164.062 889
-93.75 46.875 1044
78.125 78.125 987
-109.375 289.062 959
-289.062 0 3120
375 -7.8125 989
-453.125 85.9375 1214
-335.938 7.8125 3064
46.875 -15.625 1328
406.25 46.875 1034
-460.938 78.125 1227
-140.625 70.3125 1001
70.3125 -7.8125 1259
156.25 -140.625 1123
-62.5 132.812 1041
46.875 85.9375 1013
445.312 -46.875 1084
-367.188 7.8125 3010
-164.062 109.375 954
351.562 -148.438 1138
-78.125 203.125 938
46.875 54.6875 1349
7.8125 62.5 1034
312.5 -93.75 956
398.438 62.5 1038
328.125 62.5 995
460.938 -171.875 3365
296.875 -101.562 967
382.812 -382.812 3120
171.875 320.312 851
-421.875 46.875 1268
195.312 101.562 998
54.6875 -23.4375 1302
406.25 -421.875 3120
164.062 101.562 933
367.188 23.4375 1001
242.188 164.062 915
-187.5 187.5 1087
343.75 46.875 995
54.6875 -54.6875 1292
-203.125 -7.8125 3208
-85.9375 195.312 940
265.625 -140.625 1123
179.688 78.125 1028
54.6875 156.25 1016
203.125 304.688 869
-125 226.562 956
-210.938 -7.8125 3208
140.625 171.875 875
109.375 0 1165
-382.812 7.8125 3010
164.062 -140.625 1123
148.438 -39.0625 1250
351.562 62.5 1013
171.875 70.3125 1041
-351.562 7.8125 3010
-78.125 46.875 1050
54.6875 85.9375 1004
-460.938 85.9375 1214
289.062 -46.875 987
140.625 -85.9375 1153
93.75 320.312 849
203.125 109.375 987
148.438 195.312 867
46.875 23.4375 1343
484.375 -218.75 1433
46.875 195.312 835
273.438 203.125 869
7.8125 250 918
-484.375 15.625 2883
132.812 101.562 954
-39.0625 257.812 948
62.5 242.188 871
62.5 54.6875 1302
54.6875 62.5 1019
437.5 -7.8125 1115
101.562 -93.75 1197
23.4375 320.312 869
296.875 -93.75 967
85.9375 -93.75 1365
164.062 -54.6875 1165
164.062 312.5 847
0 281.25 928
39.0625 78.125 1016
-109.375 -15.625 3269
-62.5 304.688 943
-140.625 218.75 987
-93.75 257.812 938
429.688 -70.3125 978
70.3125 -31.25 1264
273.438 70.3125 1031
234.375 312.5 935
312.5 85.9375 992
-117.188 -15.625 3269
492.188 -85.9375 1370
-296.875 0 3120
-117.188 125 930
-210.938 0 3208
164.062 62.5 1054
406.25 -164.062 3468
195.312 109.375 998
171.875 -171.875 1123
148.438 39.0625 1090
-125 125 935
109.375 351.562 849
-7.8125 132.812 1050
62.5 -62.5 1292
226.562 -109.375 1105
-453.125 390.625 805
7.8125 132.812 1044
-398.438 7.8125 2984
187.5 93.75 1010
148.438 -164.062 1138
250 335.938 908
-304.688 0 3092
187.5 210.938 903
-78.125 296.875 948
406.25 0 1001
140.625 -125 1138
226.562 140.625 938
289.062 -39.0625 984
-101.562 140.625 915
85.9375 -39.0625 1241
78.125 -39.0625 1250
359.375 -132.812 1134
210.938 242.188 889
250 -54.6875 1145
234.375 -187.5 1119
359.375 -382.812 3120
414.062 -421.875 3120
-218.75 -7.8125 3208
445.312 -148.438 3539
109.375 78.125 1189
460.938 -117.188 3468
-31.25 -23.4375 3300
-78.125 304.688 943
125 -93.75 1169
195.312 304.688 860
250 171.875 901
-101.562 289.062 956
78.125 78.125 989
-15.625 31.25 1398
70.3125 164.062 869
-132.812 140.625 954
203.125 -179.688 1112
453.125 -179.688 3503
437.5 -414.062 3178
460.938 -250 3433
-125 164.062 956
421.875 -414.062 3149
39.0625 203.125 835
242.188 -140.625 1105
-62.5 46.875 1050
328.125 -429.688 3037
273.438 46.875 1025
-46.875 250 946
-476.562 23.4375 2883
421.875 406.25 1543
156.25 46.875 1080
281.25 78.125 1019
312.5 218.75 847
281.25 23.4375 1004
-85.9375 203.125 973
375 -15.625 970
93.75 187.5 841
85.9375 375 841
39.0625 281.25 885
-23.4375 289.062 967
492.188 -320.312 3300
367.188 -117.188 978
281.25 210.938 854
375 210.938 862
218.75 -148.438 1105
429.688 -62.5 984
-23.4375 46.875 1054
429.688 -273.438 3333
351.562 23.4375 978
289.062 54.6875 1004
132.812 85.9375 954
62.5 -78.125 1333
125 -101.562 1165
171.875 -15.625 1197
492.188 -195.312 1445
351.562 210.938 858
437.5 -312.5 3300
335.938 -382.812 3120
476.562 -414.062 3208
23.4375 70.3125 1025
335.938 39.0625 978
382.812 -414.062 3092
398.438 -421.875 3120
226.562 320.312 938
101.562 -15.625 1197
195.312 -156.25 1108
-195.312 31.25 1370
-406.25 7.8125 2984
-15.625 117.188 1063
398.438 31.25 1013
132.812 -85.9375 1165
492.188 -187.5 1445
-164.062 -7.8125 3238
320.312 -31.25 946
375 -140.625 1130
-23.4375 39.0625 1054
164.062 -31.25 1232
-312.5 0 3092
140.625 -210.938 1153
-500 15.625 2701
234.375 -203.125 1130
375 -132.812 1130
7.8125 242.188 898
390.625 31.25 1004
445.312 -164.062 3539
109.375 226.562 843
156.25 -125 1123
-101.562 132.812 918
-203.125 31.25 1370
195.312 -54.6875 1149
296.875 -429.688 3037
-101.562 187.5 951
210.938 250 885
-226.562 -7.8125 3208
218.75 312.5 862
54.6875 62.5 1328
187.5 -132.812 1108
296.875 -93.75 964
140.625 70.3125 1101
210.938 -234.375 1126
351.562 -117.188 981
-140.625 125 940
-78.125 46.875 1047
140.625 265.625 845
62.5 54.6875 1312
-39.0625 -23.4375 3300
398.438 54.6875 1022
125 23.4375 1123
-187.5 39.0625 1354
70.3125 0 1273
-320.312 0 3064
179.688 -242.188 1157
0 62.5 1041
484.375 -226.562 1445
-93.75 203.125 975
70.3125 62.5 1288
39.0625 242.188 915
-93.75 289.062 951
-210.938 -7.8125 3208
187.5 -46.875 1157
-492.188 15.625 2701
-187.5 31.25 1365
-125 -15.625 3238
-7.8125 54.6875 1044
367.188 -109.375 978
171.875 -23.4375 1210
406.25 54.6875 1028
179.688 78.125 1028
148.438 -148.438 1130
296.875 210.938 851
148.438 320.312 843
148.438 226.562 849
-109.375 210.938 943
-117.188 54.6875 1025
-7.8125 46.875 1050
-93.75 140.625 913
-117.188 265.625 959
234.375 148.438 928
62.5 296.875 860
156.25 -31.25 1227
257.812 179.688 889
250 179.688 898
289.062 -93.75 970
-23.4375 234.375 908
70.3125 -39.0625 1268
281.25 -171.875 1141
273.438 -179.688 1134
70.3125 210.938 862
-31.25 46.875 1060
250 -15.625 1206
-195.312 -7.8125 3208
140.625 -117.188 1138
-375 7.8125 3010
54.6875 7.8125 1328
78.125 250 862
343.75 -132.812 1138
-421.875 7.8125 2958
148.438 85.9375 1090
359.375 -46.875 948
-15.625 132.812 1050
-117.188 218.75 943
85.9375 312.5 845
62.5 382.812 862
93.75 -31.25 1223
-148.438 117.188 946
226.562 -148.438 1105
140.625 31.25 1105
226.562 -195.312 1119
62.5 -31.25 1288
-429.688 7.8125 2933
-70.3125 46.875 1050
250 -46.875 1165
-109.375 250 943
-39.0625 257.812 948
-218.75 31.25 1365
492.188 -85.9375 1370
289.062 -31.25 987
210.938 117.188 973
117.188 93.75 962
-164.062 109.375 954
-132.812 140.625 954
421.875 226.562 896
117.188 46.875 1153
-429.688 15.625 2958
62.5 312.5 847
54.6875 39.0625 1338
132.812 -85.9375 1165
148.438 171.875 882
429.688 -85.9375 973
-328.125 0 3064
15.625 312.5 940
492.188 -218.75 1439
-109.375 281.25 962
-250 0 3178
132.812 328.125 841
281.25 15.625 1004
218.75 250 885
421.875 -85.9375 970
0 242.188 898
-148.438 109.375 946
179.688 -171.875 1119
390.625 -78.125 954
164.062 54.6875 1063
164.062 -140.625 1119
476.562 -171.875 3333
414.062 0 1004
445.312 -78.125 975
304.688 -70.3125 954
-31.25 273.438 946
351.562 -171.875 3433
-85.9375 203.125 973
164.062 -109.375 1123
-273.438 0 3120
265.625 -179.688 1126
-132.812 -15.625 3238
132.812 320.312 841
-70.3125 210.938 938
46.875 46.875 1354
242.188 -203.125 1134
15.625 140.625 1038
351.562 -101.562 970
125 -93.75 1169
164.062 -125 1119
-414.062 7.8125 2958
78.125 304.688 851
-70.3125 156.25 896
179.688 -179.688 1123
117.188 39.0625 1153
39.0625 39.0625 1381
195.312 210.938 903
-39.0625 15.625 1404
31.25 148.438 1025
429.688 -62.5 984
289.062 -62.5 978
140.625 -140.625 1138
328.125 78.125 995
453.125 -382.812 3238
-15.625 -23.4375 3365
312.5 -62.5 946
375 -109.375 978
203.125 -390.625 3037
343.75 54.6875 992
-85.9375 -15.625 3300
-203.125 -7.8125 3208
468.75 -171.875 3365
484.375 -179.688 1452
15.625 132.812 1038
-46.875 218.75 918
132.812 -109.375 1149
140.625 109.375 946
7.8125 62.5 1038
-62.5 218.75 948
78.125 -54.6875 1273
218.75 -203.125 1123
210.938 273.438 880
-54.6875 -23.4375 3300
70.3125 -70.3125 1307
203.125 -171.875 1108
218.75 273.438 894
468.75 -250 3433
367.188 226.562 869
109.375 179.688 847
-85.9375 140.625 910
125 23.4375 1123
140.625 -78.125 1161
-406.25 7.8125 2984
421.875 -148.438 3503
312.5 -70.3125 946
85.9375 203.125 856
273.438 -148.438 1119
39.0625 296.875 878
343.75 -140.625 1134
406.25 62.5 1038
46.875 78.125 1013
453.125 -398.438 3208
429.688 -148.438 3539
265.625 -421.875 3010
-101.562 54.6875 1034
468.75 -195.312 3468
-23.4375 265.625 946
15.625 289.062 918
187.5 85.9375 1016
390.625 -406.25 3120
296.875 -85.9375 964
-31.25 140.625 1038
46.875 335.938 854
468.75 -445.312 3208
46.875 -46.875 1333
171.875 117.188 923
117.188 7.8125 1153
-234.375 -7.8125 3178
-242.188 -7.8125 3178
-125 156.25 959
171.875 -171.875 1123
70.3125 62.5 1288
-15.625 117.188 1063
-140.625 -15.625 3238
484.375 -171.875 1452
62.5 195.312 835
445.312 -7.8125 1115
468.75 -437.5 3208
70.3125 218.75 889
78.125 -46.875 1268
-109.375 132.812 923
15.625 179.688 843
62.5 70.3125 1007
281.25 70.3125 1019
-335.938 0 3037
164.062 -39.0625 1185
195.312 -62.5 1138
320.312 -54.6875 940
-148.438 -15.625 3238
0 453.125 798
39.0625 375 871
421.875 -15.625 998
156.25 46.875 1080
148.438 -70.3125 1157
-62.5 210.938 928
7.8125 54.6875 1038
46.875 148.438 1022
281.25 31.25 1007
429.688 -54.6875 987
187.5 -187.5 1123
148.438 39.0625 1090
218.75 -46.875 1153
-140.625 109.375 943
195.312 -187.5 1123
132.812 31.25 1112
-93.75 203.125 975
398.438 23.4375 1007
-117.188 265.625 959
-437.5 7.8125 2933
-343.75 0 3037
203.125 -31.25 1210
-101.562 46.875 1038
-125 250 954
421.875 -7.8125 1004
54.6875 39.0625 1338
-429.688 7.8125 2933
-117.188 171.875 956
351.562 437.5 1663
445.312 -15.625 1077
-218.75 31.25 1365
54.6875 -31.25 1307
164.062 -62.5 1153
453.125 -31.25 1073
-320.312 0 3064
70.3125 382.812 864
140.625 101.562 951
406.25 382.812 901
-93.75 257.812 935
-70.3125 117.188 1038
281.25 23.4375 1004
234.375 148.438 928
203.125 109.375 987
31.25 70.3125 1022
15.625 62.5 1038
31.25 296.875 908
210.938 117.188 973
-351.562 0 3010
132.812 70.3125 1115
0 125 1050
-304.688 0 3092
367.188 -62.5 946
-62.5 -23.4375 3269
-70.3125 210.938 938
203.125 -218.75 1130
-500 70.3125 2028
39.0625 445.312 807
-70.3125 -23.4375 3269
296.875 -85.9375 964
132.812 265.625 845
335.938 31.25 975
70.3125 -7.8125 1273
398.438 39.0625 1016
351.562 -101.562 970
398.438 312.5 943
-78.125 148.438 901
-218.75 -7.8125 3208
-31.25 226.562 910
-445.312 7.8125 2908
101.562 -15.625 1197
-421.875 7.8125 2958
234.375 156.25 925
492.188 -85.9375 1370
62.5 -46.875 1288
226.562 -156.25 1105
31.25 140.625 1028
179.688 -125 1112
85.9375 -46.875 1264
-250 -7.8125 3178
54.6875 54.6875 1333
-312.5 0 3092
242.188 320.312 918
125 46.875 1134
46.875 46.875 1354
460.938 -140.625 3433
445.312 -140.625 3576
187.5 -140.625 1108
62.5 156.25 1010
-492.188 31.25 2701
-62.5 156.25 894
171.875 -54.6875 1161
296.875 93.75 1004
-46.875 125 1047
78.125 187.5 837
-31.25 117.188 1063
179.688 125 918
156.25 156.25 887
156.25 -46.875 1185
-289.062 0 3120
210.938 320.312 862
117.188 351.562 851
484.375 406.25 1328
7.8125 132.812 1044
273.438 -78.125 1138
78.125 70.3125 1264
242.188 210.938 913
31.25 -250 3120
46.875 296.875 867
0 171.875 854
296.875 -78.125 964
148.438 -171.875 1138
367.188 62.5 1010
117.188 195.312 862
-203.125 31.25 1370
437.5 -78.125 975
101.562 335.938 845
46.875 31.25 1354
-101.562 257.812 948
195.312 -78.125 1123
-109.375 242.188 943
109.375 -7.8125 1181
70.3125 -39.0625 1268
-125 117.188 938
-453.125 7.8125 2883
-54.6875 226.562 946
195.312 -226.562 1134
-23.4375 54.6875 1054
468.75 -187.5 3503
23.4375 242.188 898
93.75 -31.25 1223
351.562 -125 1134
-85.9375 54.6875 1041
437.5 -101.562 1165
421.875 -156.25 3503
62.5 46.875 1307
15.625 132.812 1038
156.25 93.75 940
148.438 31.25 1101
-54.6875 312.5 930
-70.3125 203.125 933
492.188 -203.125 1445
-54.6875 234.375 943
492.188 -218.75 1439
109.375 -343.75 3037
-78.125 296.875 948
406.25 296.875 930
-156.25 23.4375 1370
101.562 -23.4375 1210
250 335.938 908
62.5 296.875 860
218.75 281.25 878
382.812 429.688 1639
-70.3125 296.875 951
62.5 -70.3125 1307
359.375 -140.625 1134
93.75 179.688 845
-54.6875 125 1047
437.5 -187.5 3433
164.062 296.875 845
335.938 46.875 981
140.625 -78.125 1161
289.062 -23.4375 987
-125 250 954
-109.375 179.688 956
-109.375 210.938 943
179.688 140.625 908
210.938 -203.125 1123
-78.125 -23.4375 3269
117.188 7.8125 1153
-70.3125 218.75 946
54.6875 156.25 1016
117.188 39.0625 1153
-78.125 289.062 938
242.188 156.25 918
-23.4375 46.875 1054
203.125 -93.75 1112
-359.375 0 3010
0 132.812 1047
343.75 39.0625 981
406.25 -70.3125 964
296.875 -85.9375 964
70.3125 78.125 992
414.062 335.938 920
46.875 23.4375 1354
-93.75 289.062 951
-101.562 281.25 956
273.438 -171.875 1123
-164.062 23.4375 1370
171.875 62.5 1050
93.75 320.312 845
-367.188 0 3010
476.562 406.25 1421
375 -101.562 962
437.5 -93.75 975
-164.062 101.562 956
70.3125 -62.5 1292
367.188 -125 1134
398.438 -78.125 956
-195.312 31.25 1370
164.062 -156.25 1123
-148.438 117.188 946
125 93.75 959
-242.188 -7.8125 3178
226.562 -101.562 1105
289.062 -39.0625 984
-7.8125 273.438 925
54.6875 54.6875 1333
210.938 296.875 873
320.312 -93.75 954
390.625 39.0625 1013
218.75 125 959
0 54.6875 1041
54.6875 335.938 851
492.188 -171.875 1452
-265.625 -7.8125 3149
195.312 93.75 1007
-156.25 -7.8125 3238
-164.062 -15.625 3208
-117.188 125 930
414.062 31.25 1019
-132.812 62.5 1013
54.6875 328.125 847
164.062 -31.25 1232
-460.938 7.8125 2883
62.5 -54.6875 1288
-85.9375 265.625 935
468.75 -132.812 3433
281.25 226.562 851
171.875 -39.0625 1214
54.6875 312.5 847
164.062 54.6875 1063
78.125 70.3125 1264
148.438 171.875 882
132.812 93.75 954
62.5 -39.0625 1288
-179.688 171.875 1112
437.5 -85.9375 973
-468.75 7.8125 2883
-31.25 39.0625 1067
-226.562 -7.8125 3208
-328.125 296.875 918
164.062 -148.438 1123
-398.438 7.8125 2984
367.188 -109.375 978
-7.8125 453.125 796
304.688 93.75 1001
257.812 179.688 889
132.812 31.25 1112
132.812 -156.25 1149
-171.875 171.875 1112
-23.4375 -23.4375 3333
-132.812 117.188 938
187.5 85.9375 1016
62.5 70.3125 1007
445.312 -179.688 3503
351.562 -93.75 954
171.875 70.3125 1044
-328.125 0 3064
62.5 85.9375 1001
-7.8125 242.188 898
281.25 31.25 1007
-15.625 39.0625 1050
-39.0625 15.625 1404
-125 156.25 959
226.562 -125 1105
46.875 -31.25 1333
7.8125 -31.25 3333
296.875 -78.125 964
78.125 -62.5 1288
-273.438 -7.8125 3120
398.438 -62.5 959
-15.625 46.875 1050
125 265.625 845
140.625 70.3125 1101
117.188 187.5 854
46.875 -15.625 1338
375 46.875 1007
179.688 -23.4375 1210
-54.6875 -23.4375 3300
46.875 164.062 1013
-171.875 -15.625 3208
117.188 -148.438 1169
312.5 -70.3125 946
289.062 -125 1130
140.625 85.9375 951
257.812 187.5 887
164.062 -125 1119
85.9375 187.5 839
-101.562 257.812 948
148.438 101.562 943
367.188 -54.6875 948
101.562 226.562 845
-125 226.562 987
-343.75 -54.6875 2984
-476.562 7.8125 2859
187.5 -156.25 1108
-85.9375 203.125 973
78.125 304.688 851
62.5 46.875 1307
-367.188 15.625 3010
-265.625 31.25 1338
406.25 62.5 1038
-132.812 140.625 954
-148.438 109.375 946
109.375 93.75 962
226.562 296.875 951
31.25 195.312 835
-78.125 -7.8125 3333
257.812 -15.625 1202
242.188 203.125 910
273.438 -179.688 1134
429.688 -46.875 989
-179.688 23.4375 1365
171.875 132.812 918
-62.5 218.75 948
382.812 23.4375 1001
226.562 -46.875 1153
-31.25 -23.4375 3300
46.875 39.0625 1359
492.188 429.688 1328
-312.5 23.4375 3120
-85.9375 289.062 948
46.875 0 1343
296.875 -93.75 964
375 54.6875 1013
132.812 -93.75 1153
234.375 273.438 930
-70.3125 -23.4375 3269
492.188 -210.938 1439
-46.875 39.0625 1054
414.062 39.0625 1022
187.5 -179.688 1119
117.188 31.25 1153
-70.3125 -15.625 3300
101.562 242.188 843
203.125 -85.9375 1115
70.3125 54.6875 1283
468.75 -179.688 3433
54.6875 54.6875 1333
132.812 257.812 847
289.062 -31.25 987
-46.875 250 946
-39.0625 39.0625 1060
429.688 -39.0625 989
46.875 15.625 1354
31.25 140.625 1028
109.375 39.0625 1177
-164.062 85.9375 978
-7.8125 39.0625 1050
125 15.625 1134
117.188 -117.188 1169
343.75 -31.25 948
39.0625 367.188 873
445.312 -125 3576
335.938 -78.125 935
-187.5 -15.625 3208
296.875 -70.3125 964
476.562 -195.312 3468
281.25 39.0625 1013
-46.875 210.938 918
70.3125 78.125 992
359.375 -117.188 978
476.562 -382.812 3269
460.938 -296.875 3300
-101.562 281.25 956
101.562 -23.4375 1210
62.5 62.5 1307
-117.188 265.625 959
234.375 171.875 925
250 -445.312 2984
390.625 -453.125 3037
375 -445.312 3037
429.688 -281.25 3333
468.75 -140.625 3433
125 46.875 1134
320.312 -351.562 3120
351.562 -132.812 1134
289.062 -148.438 1134
78.125 218.75 854
140.625 78.125 1105
-375 0 2984
-85.9375 234.375 933
468.75 171.875 894
62.5 -7.8125 1292
476.562 -210.938 3503
445.312 -375 3238
281.25 46.875 1013
-54.6875 273.438 935
343.75 -359.375 3120
234.375 -218.75 1130
164.062 335.938 849
70.3125 -15.625 1264
-414.062 7.8125 2958
156.25 39.0625 1087
468.75 -148.438 3433
-437.5 70.3125 1245
-85.9375 -23.4375 3269
85.9375 78.125 987
85.9375 78.125 981
-125 218.75 987
179.688 -54.6875 1165
-468.75 7.8125 2883
-179.688 -15.625 3238
62.5 -54.6875 1292
187.5 -218.75 1138
390.625 -15.625 973
-117.188 31.25 1365
54.6875 195.312 829
-78.125 -23.4375 3269
-250 -7.8125 3178
-281.25 -7.8125 3120
453.125 -78.125 1067
437.5 -93.75 967
-7.8125 15.625 1421
-367.188 0 3010
250 -187.5 1112
156.25 -39.0625 1236
437.5 210.938 889
93.75 -39.0625 1232
-39.0625 117.188 1054
-7.8125 117.188 1057
320.312 85.9375 989
-46.875 242.188 946
281.25 -179.688 1134
226.562 -234.375 1119
359.375 -343.75 3149
85.9375 85.9375 981
-445.312 7.8125 2908
-484.375 7.8125 2883
0 -31.25 3333
46.875 -23.4375 1343
23.4375 -31.25 3333
-437.5 7.8125 2908
218.75 -218.75 1123
46.875 39.0625 1359
-132.812 132.812 951
320.312 -62.5 938
31.25 296.875 880
148.438 -132.812 1130
375 -70.3125 940
-7.8125 -31.25 3333
-500 15.625 1981
437.5 -85.9375 967
312.5 -39.0625 956
-54.6875 210.938 923
-289.062 -7.8125 3120
-101.562 -23.4375 3238
-78.125 203.125 956
140.625 -85.9375 1161
-117.188 164.062 956
-31.25 257.812 946
-93.75 187.5 946
70.3125 -78.125 1307
-101.562 46.875 1028
117.188 0 1153
-453.125 7.8125 2908
15.625 54.6875 1031
257.812 -148.438 1105
460.938 -70.3125 1067
242.188 156.25 915
289.062 -156.25 1123
-492.188 7.8125 1981
-93.75 -23.4375 3238
117.188 273.438 843
-296.875 -7.8125 3120
-85.9375 46.875 1041
-109.375 273.438 967
7.8125 281.25 923
46.875 78.125 1007
-132.812 101.562 930
-101.562 132.812 918
-93.75 140.625 910
-15.625 39.0625 1050
445.312 -39.0625 1073
226.562 140.625 938
-109.375 125 923
-23.4375 164.062 869
39.0625 335.938 862
296.875 -78.125 962
-484.375 31.25 2883
70.3125 -46.875 1268
-140.625 85.9375 978
-359.375 0 3010
-281.25 0 3120
15.625 -31.25 3333
289.062 -15.625 989
62.5 62.5 1001
-156.25 109.375 946
125 15.625 1138
-78.125 0 3333
70.3125 85.9375 992
304.688 -62.5 962
101.562 187.5 839
-54.6875 226.562 940
-101.562 187.5 954
195.312 -171.875 1108
367.188 -62.5 938
46.875 375 867
390.625 -46.875 956
-195.312 -15.625 3208
-156.25 23.4375 1370
-156.25 -15.625 3238
226.562 132.812 946
62.5 7.8125 1307
-85.9375 195.312 946
164.062 101.562 935
-265.625 -7.8125 3149
179.688 70.3125 1034
179.688 70.3125 1034
-390.625 0 2984
70.3125 54.6875 1297
78.125 -31.25 1250
265.625 187.5 878
23.4375 140.625 1028
-31.25 218.75 910
187.5 -23.4375 1197
-476.562 7.8125 2883
203.125 -70.3125 1126
15.625 187.5 843
117.188 31.25 1161
234.375 -117.188 1101
468.75 -85.9375 1101
351.562 78.125 1004
-101.562 242.188 935
171.875 62.5 1047
-62.5 203.125 925
367.188 -54.6875 943
210.938 296.875 869
429.688 -78.125 967
-148.438 101.562 946
273.438 203.125 864
343.75 -78.125 928
492.188 406.25 1333
359.375 -148.438 1123
304.688 -70.3125 959
39.0625 257.812 887
-390.625 7.8125 3010
132.812 -93.75 1165
-359.375 7.8125 3037
312.5 -62.5 946
85.9375 78.125 981
296.875 -62.5 970
-31.25 39.0625 1060
351.562 -250 3300
148.438 31.25 1094
-203.125 -15.625 3149
460.938 414.062 1464
359.375 -117.188 967
-500 39.0625 2005
429.688 -70.3125 967
453.125 -148.438 3539
-164.062 101.562 956
289.062 -117.188 1119
296.875 -132.812 1126
-382.812 0 2984
492.188 -179.688 3365
195.312 -226.562 1134
-85.9375 250 930
15.625 304.688 862
203.125 101.562 987
367.188 -132.812 1126
62.5 382.812 862
-125 250 962
226.562 320.312 930
187.5 -226.562 1138
234.375 -187.5 1108
218.75 -242.188 1119
164.062 -78.125 1138
390.625 -421.875 3037
156.25 -140.625 1123
375 23.4375 987
117.188 46.875 1161
78.125 210.938 854
203.125 -148.438 1101
335.938 -234.375 3269
-101.562 218.75 940
-148.438 23.4375 1370
164.062 -210.938 1141
375 -39.0625 954
54.6875 226.562 878
93.75 367.188 843
476.562 -132.812 3433
164.062 179.688 873
390.625 429.688 1624
328.125 -85.9375 933
398.438 -101.562 964
-93.75 -101.562 3149
406.25 -70.3125 959
460.938 -429.688 3178
-109.375 -23.4375 3269
218.75 281.25 878
156.25 -171.875 1130
460.938 -179.688 3468
210.938 234.375 889
429.688 -382.812 3178
-132.812 109.375 930
31.25 257.812 903
-140.625 117.188 938
195.312 -148.438 1105
-78.125 195.312 935
484.375 281.25 956
296.875 85.9375 1004
242.188 -93.75 1108
-500 7.8125 1981
343.75 -148.438 1134
195.312 93.75 1001
406.25 -140.625 3503
7.8125 125 1044
476.562 -179.688 3365
-445.312 78.125 1214
226.562 -179.688 1105
109.375 -15.625 1185
375 -117.188 970
39.0625 140.625 1022
218.75 125 956
429.688 -195.312 3433
54.6875 46.875 1338
179.688 -203.125 1134
351.562 -132.812 1134
429.688 -437.5 3064
-85.9375 39.0625 1044
-210.938 -15.625 3149
195.312 -15.625 1193
125 -101.562 1177
109.375 109.375 964
117.188 -101.562 1189
375 -257.812 3269
-398.438 0 2984
-414.062 0 2958
23.4375 132.812 1034
-39.0625 117.188 1054
70.3125 70.3125 995
476.562 -257.812 3365
54.6875 78.125 1001
-7.8125 -31.25 3333
414.062 39.0625 1013
203.125 -31.25 1206
437.5 -101.562 967
117.188 54.6875 1169
-93.75 46.875 1034
-125 148.438 959
453.125 -54.6875 1070
62.5 39.0625 1317
39.0625 70.3125 1016
46.875 335.938 858
15.625 242.188 898
-101.562 -23.4375 3238
164.062 46.875 1073
234.375 -179.688 1108
140.625 62.5 1108
117.188 0 1153
-304.688 -7.8125 3092
85.9375 -54.6875 1259
-320.312 -7.8125 3037
15.625 62.5 1028
257.812 -39.0625 1157
242.188 -218.75 1123
70.3125 46.875 1292
54.6875 -31.25 1322
140.625 -93.75 1153
203.125 218.75 896
-101.562 203.125 943
226.562 -117.188 1101
179.688 -195.312 1126
-289.062 -7.8125 3120
54.6875 -7.8125 1333
429.688 -31.25 989
-23.4375 39.0625 1054
54.6875 31.25 1338
289.062 -171.875 1138
148.438 -117.188 1130
328.125 -226.562 3333
437.5 -78.125 973
289.062 -101.562 959
54.6875 351.562 862
-85.9375 140.625 906
-210.938 140.625 1145
460.938 -218.75 3433
281.25 46.875 1016
414.062 -210.938 3365
-500 46.875 2016
226.562 -140.625 1097
437.5 -70.3125 970
78.125 -54.6875 1264
-140.625 109.375 935
-117.188 54.6875 1013
78.125 62.5 1278
140.625 -85.9375 1161
226.562 -70.3125 1123
289.062 62.5 1010
453.125 -23.4375 1057
78.125 78.125 987
-15.625 453.125 796
-218.75 -15.625 3149
70.3125 -15.625 1278
-23.4375 453.125 796
7.8125 281.25 923
-132.812 15.625 1370
250 328.125 906
148.438 -78.125 1157
-273.438 -7.8125 3120
-54.6875 39.0625 1050
-406.25 0 2984
-132.812 132.812 951
351.562 46.875 987
0 46.875 1050
-117.188 -23.4375 3238
453.125 289.062 946
101.562 328.125 843
-85.9375 289.062 951
70.3125 -62.5 1283
156.25 62.5 1073
156.25 -70.3125 1157
117.188 39.0625 1161
-296.875 -7.8125 3120
-257.812 -7.8125 3149
-39.0625 218.75 913
31.25 70.3125 1019
406.25 54.6875 1025
156.25 -132.812 1123
187.5 -195.312 1123
148.438 -171.875 1138
179.688 -164.062 1112
-7.8125 117.188 1057
375 -70.3125 940
-484.375 7.8125 2883
-31.25 257.812 946
31.25 140.625 1028
132.812 195.312 858
54.6875 -39.0625 1322
-101.562 281.25 959
414.062 31.25 1013
101.562 85.9375 967
54.6875 382.812 862
-62.5 -23.4375 3300
54.6875 148.438 1016
210.938 265.625 882
85.9375 70.3125 1255
156.25 39.0625 1080
-156.25 23.4375 1370
-109.375 226.562 943
-421.875 0 2958
304.688 -414.062 3010
296.875 -54.6875 973
476.562 -140.625 3399
453.125 -351.562 3238
54.6875 46.875 1338
101.562 -31.25 1210
23.4375 62.5 1025
492.188 -203.125 3300
445.312 -265.625 3300
164.062 -148.438 1119
453.125 -140.625 3539
62.5 62.5 1001
156.25 -125 1123
289.062 -7.8125 992
-445.312 179.688 1050
210.938 -148.438 1097
117.188 -125 1173
453.125 398.438 1477
62.5 39.0625 1317
343.75 31.25 975
-62.5 125 1038
62.5 -78.125 1317
140.625 85.9375 946
-500 7.8125 1981
195.312 -31.25 1210
296.875 -62.5 970
437.5 -109.375 1161
289.062 78.125 1010
210.938 -31.25 1210
203.125 -140.625 1101
343.75 -250 3269
250 -140.625 1105
46.875 320.312 851
-78.125 203.125 956
320.312 -46.875 943
226.562 132.812 946
46.875 39.0625 1359
203.125 -109.375 1108
210.938 296.875 869
-492.188 7.8125 1981
304.688 -46.875 962
54.6875 -23.4375 1322
437.5 -335.938 3269
78.125 195.312 835
-23.4375 -31.25 3300
210.938 109.375 975
476.562 -125 3433
281.25 70.3125 1019
234.375 -101.562 1105
-164.062 93.75 967
289.062 0 992
-15.625 234.375 903
164.062 -171.875 1123
273.438 -70.3125 1138
445.312 -156.25 3503
375 -101.562 956
234.375 304.688 933
273.438 -140.625 1108
-109.375 273.438 967
476.562 -78.125 1080
195.312 -218.75 1134
226.562 -218.75 1123
250 164.062 906
-62.5 -359.375 2859
148.438 273.438 841
367.188 390.625 889
-101.562 242.188 935
-117.188 117.188 928
375 -437.5 3010
-171.875 179.688 1090
93.75 39.0625 1232
273.438 -179.688 1119
-117.188 179.688 984
429.688 242.188 901
281.25 54.6875 1016
375 351.562 898
-320.312 281.25 933
453.125 -195.312 3468
414.062 46.875 1016
-109.375 250 954
-242.188 406.25 811
484.375 -218.75 3333
117.188 31.25 1161
15.625 179.688 843
179.688 -31.25 1206
476.562 -304.688 3300
414.062 -148.438 3503
62.5 -62.5 1292
-7.8125 31.25 1392
-320.312 -7.8125 3037
-125 15.625 1370
-15.625 265.625 940
437.5 359.375 908
7.8125 242.188 898
351.562 -31.25 948
54.6875 335.938 851
476.562 -148.438 3399
320.312 -70.3125 938
70.3125 156.25 871
70.3125 -70.3125 1292
437.5 -78.125 973
62.5 -85.9375 1333
-312.5 -7.8125 3092
437.5 -85.9375 967
218.75 304.688 869
-70.3125 140.625 898
78.125 62.5 1278
359.375 -101.562 956
-429.688 0 2933
187.5 78.125 1019
359.375 62.5 1001
-39.0625 -31.25 3269
62.5 -15.625 1302
70.3125 242.188 864
382.812 -15.625 970
78.125 -39.0625 1250
70.3125 -85.9375 1333
234.375 -125 1097
-46.875 242.188 946
289.062 -164.062 1130
70.3125 70.3125 995
-70.3125 289.062 954
406.25 -78.125 954
234.375 140.625 930
-375 0 3010
-414.062 0 2958
-15.625 15.625 1410
156.25 -85.9375 1141
-23.4375 226.562 908
-390.625 0 2984
351.562 -140.625 1126
78.125 312.5 845
-125 234.375 959
218.75 281.25 878
-226.562 -15.625 3178
132.812 23.4375 1108
-7.8125 281.25 925
476.562 -234.375 3399
-125 117.188 933
-117.188 125 928
140.625 -164.062 1141
78.125 -70.3125 1292
296.875 -46.875 975
484.375 -109.375 1452
39.0625 156.25 1010
-335.938 -7.8125 3037
-132.812 -23.4375 3238
-93.75 250 935
-15.625 117.188 1060
78.125 -7.8125 1255
62.5 54.6875 1322
390.625 39.0625 1004
-125 -23.4375 3238
250 -156.25 1105
179.688 70.3125 1034
492.188 -226.562 3365
-492.188 15.625 1981
148.438 101.562 943
460.938 -54.6875 1070
406.25 15.625 1001
62.5 156.25 862
-406.25 0 2984
-15.625 109.375 1060
203.125 -226.562 1130
-31.25 -31.25 3300
-15.625 -31.25 3333
265.625 187.5 878
-125 148.438 959
250 -132.812 1101
-117.188 164.062 956
187.5 187.5 878
-62.5 39.0625 1050
-445.312 0 2883
-437.5 0 2883
93.75 -39.0625 1232
351.562 31.25 975
-132.812 250 998
132.812 304.688 839
-421.875 0 2958
234.375 -109.375 1101
234.375 -39.0625 1169
359.375 -125 1130
125 93.75 956
195.312 -218.75 1134
-351.562 0 3037
-328.125 -7.8125 3037
-7.8125 39.0625 1047
62.5 -31.25 1307
-7.8125 46.875 1047
296.875 -54.6875 973
46.875 343.75 864
85.9375 70.3125 1255
70.3125 46.875 1292
187.5 -226.562 1138
62.5 351.562 856
-234.375 -15.625 3178
-304.688 125 1157
171.875 -210.938 1145
132.812 -171.875 1157
-187.5 -15.625 3208
210.938 351.562 898
132.812 46.875 1119
281.25 -171.875 1126
390.625 -15.625 973
-101.562 179.688 951
234.375 -171.875 1105
484.375 171.875 891
250 -54.6875 1145
-218.75 -15.625 3149
437.5 -70.3125 970
7.8125 125 1044
125 7.8125 1138
70.3125 195.312 831
210.938 -46.875 1153
148.438 31.25 1094
289.062 7.8125 995
39.0625 140.625 1022
-195.312 -15.625 3208
54.6875 31.25 1338
70.3125 -54.6875 1273
-281.25 -7.8125 3120
-125 242.188 959
171.875 117.188 918
39.0625 195.312 829
375 -54.6875 946
0 171.875 851
460.938 -226.562 3433
375 -125 1130
429.688 -109.375 973
54.6875 -54.6875 1312
7.8125 -31.25 3365
210.938 109.375 975
39.0625 265.625 887
281.25 265.625 862
226.562 -187.5 1112
437.5 -62.5 970
78.125 187.5 835
367.188 -140.625 1123
164.062 -39.0625 1236
54.6875 375 864
289.062 398.438 862
226.562 -39.0625 1169
414.062 -437.5 3064
-382.812 0 2984
476.562 -164.062 3399
93.75 -46.875 1245
156.25 85.9375 940
7.8125 54.6875 1038
-398.438 0 2984
-117.188 109.375 928
140.625 -117.188 1138
-304.688 -7.8125 3092
101.562 210.938 845
203.125 -164.062 1101
54.6875 445.312 811
156.25 -23.4375 1202
-62.5 203.125 925
296.875 -46.875 975
476.562 335.938 923
414.062 -304.688 3238
273.438 78.125 1022
-429.688 0 2933
132.812 23.4375 1108
281.25 62.5 1019
468.75 -203.125 3433
-117.188 171.875 956
54.6875 148.438 1016
0 23.4375 1404
484.375 -203.125 3300
250 -210.938 1126
429.688 -23.4375 992
-23.4375 31.25 1054
0 242.188 898
-15.625 281.25 970
-359.375 -7.8125 3010
367.188 23.4375 981
203.125 -140.625 1101
54.6875 -15.625 1328
484.375 164.062 894
164.062 46.875 1073
-140.625 125 940
-109.375 179.688 956
70.3125 -39.0625 1278
148.438 -78.125 1157
460.938 -328.125 3269
-70.3125 281.25 935
-85.9375 187.5 940
85.9375 70.3125 1255
132.812 -101.562 1153
-343.75 -7.8125 3010
296.875 -93.75 959
148.438 -171.875 1138
437.5 -31.25 989
437.5 -31.25 989
328.125 -54.6875 933
62.5 54.6875 1322
-148.438 -23.4375 3208
78.125 -46.875 1259
-109.375 -23.4375 3269
250 164.062 906
109.375 -15.625 1185
117.188 -7.8125 1165
242.188 335.938 915
421.875 304.688 940
304.688 -101.562 956
78.125 78.125 987
62.5 0 1297
195.312 -7.8125 1169
289.062 46.875 1004
140.625 78.125 1112
445.312 -101.562 1145
429.688 -15.625 992
164.062 -132.812 1123
195.312 85.9375 1010
414.062 -15.625 992
62.5 15.625 1312
234.375 328.125 920
367.188 -398.438 3037
23.4375 289.062 908
-15.625 265.625 940
117.188 125 918
304.688 -93.75 954
-140.625 -23.4375 3208
453.125 171.875 885
171.875 54.6875 1054
-171.875 171.875 1105
195.312 210.938 898
70.3125 296.875 854
-148.438 109.375 946
-445.312 0 2908
-46.875 234.375 943
31.25 351.562 875
234.375 140.625 928
164.062 -117.188 1123
125 39.0625 1149
414.062 39.0625 1007
-351.562 -7.8125 3037
414.062 54.6875 1019
359.375 -101.562 948
-15.625 226.562 901
132.812 93.75 946
70.3125 -15.625 1288
125 226.562 837
93.75 85.9375 973
296.875 -140.625 1115
117.188 226.562 837
78.125 -62.5 1268
-148.438 -15.625 3238
367.188 -70.3125 933
257.812 -70.3125 1126
101.562 -31.25 1202
-46.875 -31.25 3269
117.188 31.25 1169
-70.3125 148.438 896
70.3125 46.875 1307
156.25 117.188 918
367.188 31.25 981
367.188 320.312 923
54.6875 39.0625 1349
-23.4375 39.0625 1057
148.438 78.125 946
437.5 -109.375 930
156.25 109.375 928
226.562 -132.812 1090
78.125 -15.625 1264
62.5 -39.0625 1312
-242.188 -15.625 3208
-93.75 257.812 943
437.5 -62.5 967
93.75 257.812 851
210.938 -242.188 1126
335.938 62.5 981
109.375 -23.4375 1185
-54.6875 -31.25 3300
328.125 -93.75 935
-335.938 -7.8125 3037
-156.25 101.562 951
171.875 -31.25 1202
-484.375 15.625 2883
460.938 171.875 880
437.5 23.4375 1108
195.312 -226.562 1134
-39.0625 320.312 920
156.25 -62.5 1177
85.9375 -62.5 1259
289.062 23.4375 1001
-46.875 453.125 790
-476.562 15.625 2908
234.375 421.875 856
304.688 -93.75 956
-93.75 250 938
437.5 -54.6875 975
429.688 -54.6875 973
218.75 -171.875 1097
140.625 273.438 839
-148.438 101.562 946
289.062 15.625 1001
156.25 -46.875 1241
320.312 -31.25 946
140.625 70.3125 1115
210.938 -7.8125 1161
125 7.8125 1134
421.875 179.688 873
273.438 195.312 862
-62.5 210.938 948
421.875 0 992
296.875 -31.25 981
484.375 -195.312 3333
382.812 -148.438 1119
-39.0625 -31.25 3269
289.062 -93.75 959
-78.125 140.625 901
-93.75 -23.4375 3269
171.875 -187.5 1119
445.312 -226.562 3365
273.438 -187.5 1112
-132.812 132.812 956
187.5 -195.312 1115
7.8125 -23.4375 3365
70.3125 -54.6875 1278
218.75 281.25 871
78.125 -46.875 1255
429.688 -171.875 3399
117.188 265.625 841
210.938 -23.4375 1185
492.188 -421.875 3064
0 54.6875 1041
406.25 281.25 910
492.188 -203.125 3300
414.062 -203.125 3365
320.312 -70.3125 938
179.688 -148.438 1108
179.688 -70.3125 1138
-46.875 257.812 940
460.938 -367.188 3208
210.938 -78.125 1119
85.9375 70.3125 981
187.5 -164.062 1105
445.312 171.875 878
476.562 -437.5 3178
39.0625 148.438 1013
289.062 -85.9375 959
-109.375 125 923
289.062 -367.188 3064
484.375 -132.812 1464
445.312 -367.188 3178
148.438 -54.6875 1250
484.375 -210.938 3300
351.562 -148.438 1119
445.312 179.688 873
148.438 -164.062 1134
-39.0625 250 948
-15.625 109.375 1060
23.4375 335.938 869
289.062 -140.625 1108
242.188 320.312 908
367.188 382.812 882
414.062 -289.062 3238
351.562 -375 3037
367.188 -117.188 962
476.562 -171.875 3365
390.625 31.25 992
382.812 -54.6875 943
171.875 -117.188 1115
460.938 289.062 943
140.625 -93.75 1157
304.688 -85.9375 951
375 437.5 1464
312.5 -398.438 3010
367.188 -429.688 3037
476.562 -429.688 3178
164.062 304.688 843
476.562 -296.875 3300
54.6875 15.625 1354
54.6875 -31.25 1333
460.938 -210.938 3399
156.25 39.0625 1077
445.312 -93.75 959
328.125 -31.25 938
148.438 -46.875 1236
-125 242.188 962
250 -101.562 1101
-85.9375 250 933
367.188 -312.5 3208
54.6875 39.0625 1349
54.6875 46.875 1338
320.312 -304.688 3178
0 117.188 1050
140.625 -187.5 1153
367.188 367.188 882
23.4375 320.312 869
304.688 -93.75 956
398.438 375 896
70.3125 -39.0625 1288
390.625 -335.938 3149
-101.562 125 915
54.6875 7.8125 1354
-320.312 -7.8125 3092
-125 226.562 956
304.688 -39.0625 964
-359.375 -7.8125 3010
164.062 226.562 887
414.062 62.5 1031
23.4375 54.6875 1025
398.438 -304.688 3208
414.062 31.25 1010
78.125 -31.25 1259
210.938 296.875 869
250 -148.438 1094
351.562 -31.25 943
54.6875 -39.0625 1333
429.688 -7.8125 992
-460.938 0 2883
265.625 -62.5 1141
70.3125 62.5 1307
445.312 289.062 938
218.75 265.625 889
414.062 367.188 898
195.312 218.75 889
54.6875 -7.8125 1338
164.062 93.75 930
296.875 -125 1112
70.3125 -46.875 1283
375 -62.5 938
375 195.312 856
62.5 31.25 1333
101.562 -39.0625 1214
70.3125 39.0625 1307
421.875 31.25 1013
382.812 54.6875 1001
132.812 218.75 839
445.312 -54.6875 975
429.688 351.562 901
-132.812 -23.4375 3238
-367.188 -7.8125 3010
289.062 31.25 1001
242.188 195.312 913
117.188 -7.8125 1157
359.375 -31.25 946
179.688 62.5 1038
-250 -15.625 3178
-234.375 -15.625 3149
-117.188 164.062 956
359.375 -132.812 1123
195.312 85.9375 1004
187.5 78.125 1016
195.312 -132.812 1105
93.75 179.688 837
-23.4375 109.375 1063
367.188 250 875
414.062 46.875 1007
-148.438 109.375 940
445.312 -101.562 959
125 31.25 1149
445.312 -93.75 959
-132.812 125 933
242.188 445.312 925
93.75 78.125 978
179.688 242.188 864
203.125 304.688 860
281.25 -78.125 1134
171.875 -164.062 1112
265.625 -15.625 1181
218.75 117.188 956
-148.438 -23.4375 3238
304.688 -78.125 956
437.5 -46.875 981
54.6875 -23.4375 1338
85.9375 -31.25 1241
484.375 343.75 918
-125 234.375 956
375 -39.0625 948
85.9375 62.5 1259
-468.75 0 2883
187.5 132.812 898
23.4375 343.75 896
109.375 312.5 843
406.25 23.4375 1004
-46.875 304.688 930
0 -31.25 3333
242.188 312.5 915
-109.375 265.625 962
210.938 312.5 860
437.5 7.8125 1001
125 109.375 943
-257.812 -15.625 3178
62.5 -85.9375 1322
-101.562 -15.625 3269
148.438 -85.9375 1153
398.438 70.3125 1022
-437.5 0 2933
281.25 273.438 862
210.938 -93.75 1105
-140.625 101.562 938
210.938 -85.9375 1112
78.125 54.6875 1292
250 328.125 906
453.125 179.688 873
437.5 296.875 940
-265.625 -15.625 3149
140.625 328.125 839
-156.25 -23.4375 3238
242.188 -117.188 1097
421.875 187.5 867
351.562 195.312 854
484.375 -171.875 3365
117.188 31.25 1169
-46.875 234.375 943
-54.6875 125 1038
46.875 343.75 862
484.375 -179.688 3365
296.875 335.938 903
257.812 -54.6875 1149
85.9375 -23.4375 1245
289.062 23.4375 1001
140.625 78.125 946
390.625 -78.125 940
156.25 31.25 1087
156.25 -171.875 1126
476.562 171.875 885
289.062 -179.688 1123
-375 -7.8125 3010
195.312 304.688 858
109.375 -7.8125 1169
312.5 -62.5 951
203.125 -250 1115
367.188 -109.375 959
39.0625 273.438 882
367.188 -117.188 962
304.688 -93.75 956
62.5 -39.0625 1312
-460.938 15.625 2908
343.75 390.625 878
398.438 -62.5 948
210.938 -148.438 1094
437.5 -54.6875 975
250 335.938 906
460.938 179.688 878
-164.062 -23.4375 3238
140.625 62.5 1115
445.312 195.312 873
78.125 210.938 854
-312.5 281.25 933
468.75 281.25 940
296.875 -39.0625 978
-125 140.625 956
62.5 -23.4375 1312
296.875 -31.25 981
54.6875 -46.875 1333
406.25 39.0625 1010
62.5 46.875 1333
367.188 203.125 854
390.625 187.5 864
414.062 -70.3125 959
398.438 -101.562 954
226.562 445.312 918
-54.6875 218.75 946
375 -101.562 948
453.125 171.875 880
140.625 93.75 946
304.688 218.75 839
359.375 195.312 854
289.062 -187.5 1134
109.375 187.5 837
484.375 -164.062 3399
382.812 437.5 1470
-101.562 179.688 954
398.438 195.312 864
218.75 -242.188 1115
304.688 39.0625 978
375 382.812 887
304.688 -78.125 956
62.5 -54.6875 1297
328.125 -62.5 930
484.375 -117.188 1458
265.625 -46.875 1149
203.125 -15.625 1173
125 -101.562 1181
-476.562 0 2883
468.75 335.938 918
-23.4375 -218.75 3064
54.6875 31.25 1354
460.938 -437.5 3178
265.625 -195.312 1115
70.3125 -7.8125 1302
164.062 39.0625 1070
-101.562 226.562 935
-117.188 257.812 964
39.0625 367.188 871
460.938 171.875 880
281.25 429.688 1496
304.688 -85.9375 951
70.3125 70.3125 992
210.938 226.562 889
-31.25 226.562 940
-93.75 187.5 978
-62.5 -31.25 3269
351.562 -148.438 1119
460.938 -257.812 3365
468.75 351.562 913
93.75 78.125 978
15.625 125 1041
429.688 -250 3365
257.812 -171.875 1101
257.812 -117.188 1094
54.6875 15.625 1354
335.938 -257.812 3269
437.5 289.062 930
171.875 54.6875 1050
445.312 -250 3365
382.812 -7.8125 970
-85.9375 273.438 943
-125 179.688 978
-31.25 218.75 908
-54.6875 -31.25 3300
171.875 -375 3010
421.875 296.875 930
23.4375 375 864
242.188 -46.875 1153
335.938 210.938 845
406.25 -62.5 956
70.3125 39.0625 1307
257.812 -218.75 1126
-445.312 54.6875 1255
492.188 -273.438 3333
-125 242.188 962
421.875 -7.8125 992
148.438 117.188 925
-453.125 109.375 1153
312.5 -140.625 1141
304.688 -78.125 956
257.812 171.875 889
70.3125 -62.5 1278
484.375 164.062 889
164.062 -70.3125 1157
140.625 -93.75 1157
382.812 -70.3125 938
460.938 -46.875 1067
375 -62.5 938
85.9375 -70.3125 1278
296.875 -23.4375 981
187.5 -218.75 1134
171.875 -39.0625 1219
-15.625 125 1047
445.312 -85.9375 959
484.375 -156.25 1477
62.5 218.75 880
382.812 -117.188 970
125 0 1141
-382.812 -7.8125 3010
54.6875 0 1343
-93.75 250 938
-453.125 117.188 1145
390.625 -7.8125 975
54.6875 70.3125 1001
156.25 -78.125 1157
390.625 312.5 930
421.875 39.0625 1013
70.3125 62.5 1307
281.25 70.3125 1019
31.25 132.812 1028
437.5 -78.125 964
70.3125 -78.125 1297
242.188 -187.5 1105
460.938 -62.5 1063
476.562 -85.9375 1084
-351.562 -7.8125 3037
140.625 -164.062 1141
54.6875 -7.8125 1338
406.25 70.3125 1025
421.875 359.375 898
85.9375 -39.0625 1241
85.9375 -39.0625 1241
304.688 -70.3125 956
78.125 -85.9375 1328
85.9375 62.5 1259
429.688 -15.625 989
-101.562 250 954
132.812 46.875 1126
109.375 46.875 1197
390.625 62.5 1010
429.688 187.5 871
312.5 210.938 841
15.625 132.812 1038
187.5 203.125 864
-367.188 140.625 1115
62.5 46.875 1333
-93.75 281.25 951
289.062 31.25 1001
273.438 304.688 878
117.188 -15.625 1169
484.375 -406.25 3120
-171.875 -23.4375 3208
203.125 -226.562 1126
484.375 281.25 948
-429.688 62.5 1236
-39.0625 -23.4375 3300
210.938 -109.375 1097
351.562 -31.25 943
484.375 171.875 887
148.438 195.312 854
296.875 390.625 862
406.25 46.875 1013
234.375 -171.875 1094
62.5 -31.25 1312
-70.3125 203.125 951
-62.5 210.938 948
335.938 328.125 913
437.5 -39.0625 981
-453.125 0 2883
320.312 437.5 1477
-226.562 -15.625 3149
234.375 140.625 928
-335.938 0 3064
203.125 93.75 992
437.5 -70.3125 967
156.25 -117.188 1126
-85.9375 140.625 906
-500 7.8125 1993
359.375 -101.562 948
-343.75 7.8125 3064
70.3125 -93.75 1338
195.312 218.75 889
187.5 234.375 871
-109.375 273.438 964
31.25 187.5 829
492.188 164.062 887
46.875 242.188 873
148.438 78.125 946
398.438 -367.188 3092
171.875 -148.438 1112
-93.75 289.062 948
492.188 171.875 887
179.688 -164.062 1108
437.5 -109.375 930
359.375 320.312 918
195.312 -195.312 1115
398.438 -54.6875 951
-101.562 234.375 935
140.625 -187.5 1153
312.5 -70.3125 946
429.688 179.688 875
39.0625 70.3125 1010
54.6875 31.25 1354
429.688 -296.875 3238
296.875 -15.625 981
101.562 218.75 841
226.562 289.062 871
-125 140.625 956
-39.0625 210.938 915
85.9375 -54.6875 1250
367.188 -109.375 959
421.875 367.188 901
-500 31.25 2005
242.188 148.438 918
351.562 390.625 882
257.812 -203.125 1115
281.25 -179.688 1115
-148.438 109.375 940
23.4375 62.5 1022
-500 93.75 2078
-359.375 -7.8125 3010
179.688 -31.25 1197
398.438 -328.125 3149
46.875 335.938 860
195.312 -23.4375 1185
62.5 -46.875 1307
296.875 -46.875 973
328.125 -62.5 930
367.188 -125 962
375 -101.562 948
203.125 -101.562 1108
445.312 -78.125 964
304.688 -78.125 956
265.625 -78.125 1123
257.812 -78.125 1119
210.938 -70.3125 1126
304.688 -70.3125 956
140.625 -85.9375 1169
148.438 -85.9375 1153
-7.8125 -226.562 3092
468.75 -234.375 3399
421.875 -234.375 3365
484.375 -234.375 3333
343.75 -242.188 3269
398.438 -242.188 3300
476.562 -250 3333
398.438 -250 3269
421.875 -218.75 3333
257.812 -210.938 1123
335.938 -203.125 3333
476.562 -203.125 3399
429.688 -203.125 3399
343.75 -203.125 3333
492.188 -195.312 3333
250 -195.312 1108
0 -195.312 3120
359.375 -132.812 1123
148.438 -132.812 1130
359.375 -140.625 1119
351.562 -140.625 1123
210.938 -140.625 1094
390.625 -148.438 1119
148.438 -148.438 1130
-54.6875 -156.25 3120
460.938 -156.25 3503
132.812 -156.25 1149
203.125 -156.25 1097
351.562 -179.688 3365
257.812 -179.688 1105
492.188 -187.5 3365
320.312 -187.5 3333
281.25 -171.875 1112
437.5 -429.688 3092
187.5 -429.688 2933
335.938 -437.5 2984
15.625 -437.5 2835
-164.062 -437.5 2680
421.875 -421.875 3092
328.125 -421.875 2984
281.25 -421.875 2984
-281.25 -421.875 2618
492.188 -382.812 3149
351.562 -382.812 3037
-148.438 -382.812 2744
328.125 -390.625 3037
218.75 -398.438 3010
406.25 -398.438 3037
468.75 -406.25 3178
460.938 -406.25 3178
101.562 -406.25 2933
7.8125 -476.562 2767
453.125 -445.312 3149
359.375 -445.312 2984
281.25 -445.312 2933
-171.875 -445.312 2659
359.375 -453.125 2984
265.625 -453.125 2933
-109.375 -453.125 2701
-250 -453.125 2598
-195.312 -453.125 2639
70.3125 -468.75 2812
-132.812 -468.75 2639
-328.125 -468.75 2522
250 -460.938 2908
62.5 -460.938 2835
453.125 -359.375 3208
421.875 -359.375 3178
304.688 -359.375 3092
203.125 -359.375 3037
195.312 -359.375 3037
31.25 -359.375 2933
398.438 -351.562 3120
382.812 -351.562 3120
203.125 -351.562 3037
23.4375 -351.562 2933
-117.188 -351.562 2812
453.125 -375 3178
-54.6875 -375 2835
-117.188 -375 2789
-78.125 -375 2812
-304.688 -375 2639
375 -375 3092
390.625 -367.188 3092
335.938 -335.938 3120
273.438 -335.938 3120
445.312 -335.938 3208
-46.875 -343.75 2883
-93.75 -343.75 2835
273.438 -343.75 3092
375 -343.75 3120
250 -328.125 3092
-117.188 -328.125 2835
304.688 -320.312 3120
484.375 -320.312 3300
375 -320.312 3178
367.188 -273.438 3238
328.125 -273.438 3238
468.75 -273.438 3333
-23.4375 -273.438 2984
406.25 -281.25 3238
273.438 -281.25 3178
-85.9375 -281.25 2933
382.812 -265.625 3238
289.062 -265.625 3208
-54.6875 -265.625 2984
359.375 -296.875 3208
304.688 -296.875 3149
382.812 -296.875 3208
421.875 -296.875 3269
-15.625 -296.875 2984
335.938 -289.062 3238
-46.875 -289.062 2958
476.562 -312.5 3269
453.125 -312.5 3269
296.875 -312.5 3149
359.375 -312.5 3178
-273.438 -304.688 2744
265.625 39.0625 1077
289.062 39.0625 1004
398.438 39.0625 1004
54.6875 39.0625 1349
117.188 39.0625 1169
-148.438 31.25 1354
-179.688 31.25 1343
328.125 54.6875 973
296.875 54.6875 995
375 54.6875 998
203.125 54.6875 1044
-148.438 54.6875 992
343.75 46.875 978
7.8125 15.625 1410
0 15.625 1410
132.812 15.625 1115
343.75 23.4375 964
7.8125 23.4375 1398
-62.5 23.4375 1044
-70.3125 23.4375 1044
93.75 0 1227
289.062 7.8125 992
54.6875 7.8125 1354
125 70.3125 959
210.938 70.3125 1022
296.875 70.3125 998
265.625 70.3125 1025
375 62.5 1004
210.938 62.5 1038
54.6875 62.5 1001
281.25 78.125 1010
-156.25 78.125 967
312.5 93.75 989
-445.312 101.562 1165
218.75 101.562 978
476.562 117.188 954
0 117.188 1050
492.188 109.375 962
-421.875 109.375 1153
-257.812 109.375 1189
-125 109.375 933
328.125 187.5 860
304.688 187.5 862
187.5 187.5 875
171.875 187.5 867
78.125 187.5 835
367.188 195.312 854
359.375 195.312 854
398.438 195.312 864
-140.625 195.312 981
-93.75 195.312 978
-429.688 195.312 1025
-351.562 195.312 1034
492.188 210.938 906
296.875 210.938 843
242.188 210.938 913
335.938 203.125 849
367.188 203.125 854
296.875 203.125 847
-437.5 203.125 1013
39.0625 242.188 910
-93.75 242.188 935
-46.875 234.375 943
-375 234.375 978
-93.75 218.75 935
-125 226.562 956
421.875 171.875 882
179.688 171.875 885
-367.188 171.875 1067
-351.562 171.875 1070
-328.125 171.875 1073
351.562 179.688 875
421.875 179.688 873
164.062 179.688 869
-195.312 179.688 1084
-304.688 179.688 1067
414.062 156.25 898
421.875 156.25 901
468.75 156.25 901
-117.188 156.25 954
367.188 164.062 889
453.125 140.625 920
460.938 140.625 920
46.875 140.625 1019
-242.188 140.625 1138
-23.4375 140.625 1025
-359.375 140.625 1115
421.875 148.438 910
437.5 148.438 908
-125 148.438 962
492.188 132.812 928
179.688 132.812 898
-351.562 132.812 1130
-85.9375 132.812 906
-140.625 132.812 956
484.375 125 943
210.938 406.25 845
-250 406.25 809
-226.562 406.25 811
-468.75 414.062 774
-132.812 414.062 811
15.625 429.688 809
-296.875 429.688 785
-468.75 429.688 761
250 421.875 860
62.5 421.875 819
390.625 375 891
351.562 375 878
-250 375 839
-460.938 375 813
-343.75 375 827
328.125 382.812 871
242.188 382.812 862
-453.125 382.812 807
-296.875 382.812 825
289.062 390.625 862
-367.188 390.625 811
-390.625 390.625 811
171.875 398.438 845
-23.4375 398.438 837
226.562 437.5 913
-257.812 437.5 780
-140.625 445.312 783
-414.062 273.438 925
-421.875 273.438 925
-281.25 273.438 946
-312.5 273.438 938
-117.188 273.438 964
-109.375 265.625 962
171.875 250 856
0 250 920
-335.938 250 964
296.875 257.812 854
171.875 257.812 849
218.75 257.812 889
406.25 289.062 918
218.75 289.062 871
0 289.062 956
78.125 289.062 851
-421.875 289.062 908
-289.062 281.25 935
-390.625 281.25 923
-281.25 304.688 906
289.062 304.688 875
23.4375 304.688 869
-54.6875 304.688 930
-70.3125 304.688 930
-70.3125 296.875 940
-93.75 296.875 938
-265.625 296.875 920
437.5 343.75 908
414.062 343.75 906
429.688 343.75 906
382.812 343.75 903
242.188 343.75 903
54.6875 343.75 860
-281.25 343.75 867
62.5 351.562 851
414.062 359.375 898
382.812 359.375 891
390.625 359.375 891
