ply
format ascii 1.0
comment Created by Open3D
element vertex 2325
property double x
property double y
property double z
end_header
328.125 -132.812 1130
164.062 93.75 1177
-304.688 281.25 1483
93.75 437.5 1439
-414.062 93.75 1189
-70.3125 15.625 1177
281.25 54.6875 1126
-359.375 -140.625 1193
-46.875 -203.125 1273
234.375 437.5 1503
265.625 -132.812 1126
203.125 -101.562 1138
-62.5 -203.125 1273
320.312 421.875 1292
-367.188 -85.9375 1268
460.938 351.562 1477
375 234.375 1210
414.062 375 1349
367.188 -31.25 1161
343.75 265.625 1241
-296.875 328.125 1387
390.625 296.875 1387
-179.688 367.188 1292
453.125 226.562 1206
140.625 351.562 1579
351.562 7.8125 1161
-250 7.8125 1232
367.188 406.25 1365
164.062 101.562 1189
31.25 328.125 2226
265.625 367.188 1496
-351.562 -54.6875 1189
-234.375 359.375 1322
-39.0625 -335.938 1489
-320.312 328.125 1376
-304.688 328.125 1376
-164.062 359.375 1302
-218.75 312.5 1433
-265.625 -39.0625 1177
-23.4375 312.5 1883
-281.25 -164.062 1410
-375 335.938 1343
148.438 382.812 1439
335.938 -132.812 1130
406.25 78.125 1157
-210.938 343.75 1365
382.812 101.562 1173
421.875 31.25 1149
343.75 382.812 1381
421.875 78.125 1161
460.938 367.188 1433
359.375 406.25 1359
-31.25 -250 1264
171.875 382.812 1452
351.562 -132.812 1126
125 375 1439
437.5 328.125 1376
-109.375 335.938 1813
85.9375 0 1165
-109.375 351.562 1338
429.688 78.125 1157
-328.125 304.688 1445
-242.188 359.375 1328
-210.938 257.812 1241
-414.062 -351.562 3178
109.375 289.062 1873
-265.625 289.062 1496
-414.062 -312.5 3208
-390.625 31.25 1145
-203.125 -54.6875 1165
-250 296.875 1483
-7.8125 -265.625 1268
-351.562 234.375 1232
-242.188 -54.6875 1197
7.8125 15.625 1173
-359.375 -15.625 1177
351.562 -7.8125 1157
-234.375 304.688 1433
-312.5 -109.375 1189
187.5 7.8125 1165
-328.125 234.375 1232
359.375 210.938 1206
-187.5 187.5 1219
-250 -85.9375 1206
125 85.9375 1169
-421.875 -85.9375 1663
-78.125 15.625 1177
-148.438 7.8125 1181
-31.25 -265.625 1259
265.625 23.4375 1181
234.375 -7.8125 1157
-31.25 15.625 1185
-304.688 210.938 1219
-265.625 281.25 1509
125 421.875 1421
359.375 54.6875 1126
351.562 382.812 1370
421.875 -335.938 1439
484.375 335.938 1452
-484.375 -31.25 1338
-203.125 257.812 1236
203.125 -148.438 1173
-382.812 335.938 1349
-179.688 351.562 1283
359.375 234.375 1210
-70.3125 343.75 1766
-179.688 132.812 1210
-281.25 242.188 1232
476.562 351.562 1458
7.8125 328.125 1804
54.6875 257.812 1863
-460.938 187.5 1223
359.375 7.8125 1157
-132.812 15.625 1181
179.688 382.812 1452
460.938 320.312 1464
406.25 375 1328
414.062 -70.3125 1516
-140.625 7.8125 1181
54.6875 0 1161
117.188 46.875 1123
164.062 -140.625 1145
-429.688 296.875 1398
164.062 382.812 1445
367.188 210.938 1202
-289.062 54.6875 1145
203.125 -140.625 1138
-234.375 78.125 1189
484.375 343.75 1452
406.25 -335.938 1421
218.75 -7.8125 1157
320.312 78.125 1173
-265.625 320.312 1410
468.75 -226.562 1452
93.75 273.438 1863
-437.5 304.688 1404
-203.125 148.438 1202
-429.688 320.312 1381
46.875 328.125 1794
-203.125 15.625 1189
-421.875 296.875 1439
-445.312 70.3125 1185
312.5 93.75 1181
328.125 7.8125 1169
382.812 234.375 1206
-351.562 7.8125 1185
-226.562 0 1259
-226.562 78.125 1185
-328.125 -46.875 1173
-101.562 -109.375 1145
-265.625 351.562 1333
-85.9375 15.625 1181
-398.438 148.438 1202
359.375 0 1157
-257.812 351.562 1338
-203.125 351.562 1343
-390.625 328.125 1376
359.375 375 1359
-15.625 -132.812 1145
140.625 93.75 1177
382.812 296.875 1387
-335.938 257.812 1227
-343.75 289.062 1483
-328.125 351.562 1338
171.875 421.875 1452
-187.5 281.25 1264
-320.312 0 1177
-78.125 351.562 1757
125 0 1161
-304.688 7.8125 1232
-39.0625 -156.25 1288
-171.875 421.875 1312
-250 78.125 1185
-210.938 351.562 1328
-164.062 7.8125 1181
476.562 -226.562 1439
312.5 7.8125 1157
-226.562 -7.8125 1181
320.312 54.6875 1130
-296.875 -117.188 1189
414.062 382.812 1359
-226.562 351.562 1333
187.5 93.75 1181
382.812 78.125 1161
-312.5 -117.188 1189
-195.312 78.125 1185
-171.875 406.25 1307
234.375 -203.125 3365
265.625 -195.312 3365
-226.562 328.125 1398
15.625 -304.688 1439
-421.875 -156.25 3269
-218.75 320.312 1410
-382.812 31.25 1145
484.375 -335.938 3178
-265.625 335.938 1370
-500 351.562 1278
-117.188 437.5 1343
-429.688 226.562 1232
-15.625 -257.812 1268
-156.25 93.75 1197
-242.188 78.125 1185
257.812 54.6875 1126
-148.438 15.625 1181
148.438 218.75 1833
-492.188 250 1241
0 15.625 1177
335.938 7.8125 1169
-125 437.5 1343
-265.625 54.6875 1145
156.25 382.812 1445
-257.812 242.188 1227
210.938 -7.8125 1161
289.062 218.75 1376
-203.125 328.125 1278
-382.812 242.188 1236
-234.375 343.75 1365
-375 148.438 1197
-109.375 15.625 1181
-335.938 351.562 1333
445.312 -70.3125 1503
-78.125 7.8125 1173
7.8125 -195.312 1283
-289.062 7.8125 1236
312.5 54.6875 1126
-281.25 273.438 1509
-390.625 148.438 1202
-23.4375 -250 1264
-39.0625 -234.375 1268
70.3125 46.875 1126
-273.438 242.188 1227
109.375 39.0625 1134
171.875 -148.438 1189
-15.625 15.625 1181
-359.375 -148.438 1193
429.688 281.25 1516
31.25 15.625 1173
-62.5 -273.438 1255
-445.312 226.562 1236
-210.938 312.5 1427
359.375 390.625 1370
-179.688 375 1297
-257.812 -15.625 1193
445.312 320.312 1392
-39.0625 -250 1264
-164.062 7.8125 1181
-414.062 328.125 1370
-375 -23.4375 1197
343.75 7.8125 1161
-351.562 289.062 1483
-85.9375 -304.688 1250
281.25 7.8125 1157
-398.438 312.5 1404
296.875 7.8125 1157
367.188 -62.5 1141
351.562 398.438 1376
359.375 398.438 1376
15.625 -289.062 1250
164.062 304.688 1883
179.688 437.5 1427
382.812 375 1322
382.812 -78.125 1145
445.312 31.25 1141
-328.125 296.875 1458
23.4375 -281.25 1421
-132.812 7.8125 1181
-250 335.938 1370
484.375 390.625 1365
15.625 296.875 1894
-382.812 -140.625 1250
-234.375 296.875 1470
460.938 226.562 1202
289.062 54.6875 1126
-421.875 367.188 1624
351.562 375 1370
226.562 -7.8125 1161
-109.375 273.438 1863
-281.25 -93.75 1189
-250 265.625 1550
-257.812 335.938 1370
171.875 -140.625 1138
-195.312 335.938 1283
-335.938 171.875 1210
460.938 382.812 1404
437.5 289.062 1496
-351.562 -101.562 1245
-460.938 406.25 1427
195.312 406.25 1452
453.125 328.125 1381
117.188 289.062 1883
375 -132.812 1126
-210.938 335.938 1376
-398.438 -70.3125 1317
-203.125 335.938 1283
320.312 7.8125 1169
210.938 -132.812 1134
-125 -109.375 1145
-39.0625 -281.25 1259
-46.875 -242.188 1264
476.562 375 1410
476.562 343.75 1458
-492.188 328.125 1268
-218.75 78.125 1185
-437.5 70.3125 1189
-414.062 -296.875 3178
367.188 -39.0625 1157
468.75 359.375 1433
195.312 429.688 1445
23.4375 382.812 1663
156.25 117.188 1197
187.5 -140.625 1130
-132.812 -109.375 1145
-359.375 31.25 1149
-320.312 335.938 1370
-359.375 -7.8125 1181
156.25 296.875 1894
-179.688 -62.5 1161
-125 7.8125 1181
-289.062 265.625 1509
23.4375 328.125 1794
218.75 93.75 1181
-296.875 343.75 1338
-226.562 296.875 1477
453.125 70.3125 1141
-46.875 23.4375 1185
-195.312 54.6875 1145
-320.312 296.875 1458
-359.375 78.125 1189
281.25 382.812 1392
-23.4375 304.688 1894
132.812 93.75 1173
492.188 328.125 1421
453.125 -335.938 1421
-414.062 -320.312 3178
-171.875 289.062 1268
367.188 375 1343
-250 281.25 1509
179.688 335.938 1586
242.188 -7.8125 1157
406.25 390.625 1365
93.75 312.5 1883
367.188 148.438 1189
-164.062 -125 1153
-343.75 328.125 1376
273.438 7.8125 1157
-367.188 -109.375 1250
-203.125 -62.5 1161
-218.75 281.25 1509
187.5 328.125 1813
-359.375 343.75 1333
328.125 140.625 1214
78.125 15.625 1165
375 375 1333
460.938 -242.188 1439
132.812 7.8125 1161
-203.125 320.312 1278
343.75 382.812 1381
234.375 406.25 1529
-304.688 343.75 1343
476.562 382.812 1410
429.688 367.188 1370
-281.25 54.6875 1145
-359.375 140.625 1206
343.75 398.438 1370
390.625 54.6875 1126
375 -62.5 1141
468.75 375 1404
304.688 7.8125 1157
210.938 -109.375 1134
-351.562 -23.4375 1177
39.0625 296.875 1894
-195.312 320.312 1278
78.125 289.062 1883
-414.062 -367.188 3178
-250 -101.562 1250
250 -7.8125 1157
-335.938 304.688 1445
171.875 382.812 1452
-343.75 343.75 1333
-179.688 15.625 1185
-328.125 -148.438 1197
-343.75 78.125 1185
304.688 54.6875 1126
-195.312 351.562 1283
70.3125 0 1165
328.125 -7.8125 1161
-218.75 304.688 1458
445.312 70.3125 1130
39.0625 39.0625 1138
-429.688 -343.75 3178
-492.188 46.875 1149
-164.062 335.938 1307
-93.75 -265.625 1255
-414.062 -421.875 3120
437.5 335.938 1365
226.562 -164.062 1232
343.75 406.25 1365
429.688 -335.938 1439
-125 15.625 1181
-195.312 328.125 1278
-31.25 -156.25 1288
-343.75 234.375 1227
398.438 382.812 1322
-359.375 234.375 1232
-218.75 343.75 1365
351.562 -15.625 1157
171.875 -39.0625 1153
46.875 0 1165
-179.688 187.5 1219
-414.062 -304.688 3208
-445.312 328.125 1354
-367.188 -23.4375 1197
-320.312 -78.125 1173
453.125 257.812 1210
-218.75 335.938 1370
-125 93.75 1193
-257.812 320.312 1404
367.188 -23.4375 1161
78.125 0 1165
-406.25 203.125 1223
-195.312 257.812 1241
281.25 78.125 1157
335.938 367.188 1273
367.188 234.375 1210
-414.062 -289.062 3178
39.0625 -265.625 1354
0 328.125 1804
-210.938 320.312 1410
-203.125 351.562 1343
210.938 -7.8125 1161
250 -203.125 3333
-226.562 359.375 1328
-218.75 351.562 1328
-312.5 78.125 1189
460.938 375 1404
46.875 15.625 1177
-187.5 351.562 1283
-187.5 335.938 1283
414.062 367.188 1349
-382.812 148.438 1197
460.938 -70.3125 1503
406.25 382.812 1328
250 7.8125 1161
23.4375 304.688 1883
468.75 367.188 1439
-289.062 312.5 1410
468.75 -242.188 1439
-382.812 320.312 1392
-328.125 335.938 1376
23.4375 296.875 1883
-203.125 171.875 1210
-148.438 93.75 1197
398.438 390.625 1359
156.25 320.312 1579
218.75 -7.8125 1157
-453.125 312.5 1387
-78.125 23.4375 1185
23.4375 15.625 1173
476.562 390.625 1370
-273.438 -93.75 1189
-195.312 7.8125 1181
39.0625 289.062 1883
226.562 23.4375 1177
476.562 367.188 1433
203.125 140.625 1813
429.688 429.688 1338
-117.188 93.75 1193
-210.938 78.125 1185
-265.625 -125 1210
-351.562 -117.188 1241
351.562 234.375 1210
414.062 31.25 1149
-398.438 -62.5 1312
62.5 -117.188 1134
132.812 273.438 1853
265.625 7.8125 1153
-46.875 -296.875 1250
492.188 -70.3125 1496
-289.062 -7.8125 1169
-125 382.812 1333
390.625 -70.3125 1523
476.562 328.125 1458
-398.438 304.688 1421
437.5 -335.938 1433
179.688 -140.625 1130
93.75 414.062 1427
62.5 296.875 1883
-15.625 -312.5 1259
-109.375 429.688 1343
-296.875 -132.812 1210
-335.938 234.375 1227
-460.938 -250 3365
-296.875 312.5 1427
-414.062 -453.125 3064
-39.0625 -156.25 1288
414.062 -335.938 1433
328.125 367.188 1273
335.938 171.875 1206
359.375 7.8125 1157
390.625 31.25 1157
343.75 390.625 1381
-46.875 -250 1264
289.062 7.8125 1157
468.75 335.938 1464
-421.875 70.3125 1181
109.375 46.875 1123
-390.625 257.812 1557
234.375 54.6875 1126
460.938 289.062 1458
421.875 398.438 1365
-250 320.312 1404
-117.188 179.688 1843
-312.5 328.125 1376
390.625 398.438 1365
-203.125 312.5 1278
429.688 70.3125 1130
312.5 7.8125 1157
-296.875 210.938 1219
421.875 54.6875 1126
-7.8125 -156.25 1292
-148.438 7.8125 1181
437.5 70.3125 1130
-70.3125 -281.25 1250
-242.188 289.062 1477
-390.625 -62.5 1307
-179.688 7.8125 1181
390.625 312.5 1381
-203.125 218.75 1227
375 -70.3125 1141
-171.875 7.8125 1181
-31.25 -187.5 1278
421.875 367.188 1359
335.938 382.812 1278
406.25 375 1328
-429.688 -101.562 1739
-429.688 7.8125 1185
-367.188 335.938 1343
-164.062 7.8125 1181
-203.125 -46.875 1165
-320.312 -101.562 1189
-312.5 343.75 1338
101.562 -179.688 1370
-187.5 164.062 1214
62.5 0 1161
15.625 328.125 1794
117.188 367.188 1470
54.6875 0 1161
-210.938 351.562 1328
31.25 328.125 2226
-304.688 328.125 1376
-234.375 -101.562 1149
-218.75 -85.9375 1157
171.875 93.75 1177
-304.688 -148.438 1202
-226.562 304.688 1439
31.25 0 1165
429.688 398.438 1376
-85.9375 -343.75 1483
335.938 390.625 1381
-359.375 312.5 1410
-421.875 31.25 1141
445.312 226.562 1202
328.125 7.8125 1169
265.625 328.125 1458
-171.875 406.25 1307
-132.812 93.75 1193
-218.75 7.8125 1181
476.562 -70.3125 1503
0 -187.5 1288
-218.75 296.875 1477
359.375 93.75 1173
-257.812 7.8125 1232
93.75 0 1165
-109.375 93.75 1193
164.062 382.812 1445
460.938 46.875 1119
-312.5 335.938 1370
-250 351.562 1338
-414.062 -101.562 1722
-257.812 281.25 1509
-218.75 312.5 1433
-226.562 312.5 1433
-312.5 7.8125 1223
-359.375 281.25 1489
-296.875 78.125 1189
-390.625 78.125 1185
85.9375 15.625 1165
-242.188 -15.625 1202
-484.375 46.875 1149
-382.812 -15.625 1312
296.875 359.375 1328
281.25 7.8125 1157
39.0625 -304.688 1439
-46.875 -210.938 1273
-257.812 351.562 1338
335.938 281.25 1241
-140.625 23.4375 1189
-406.25 -132.812 1354
343.75 0 1161
93.75 85.9375 1169
468.75 -226.562 1452
-406.25 281.25 1477
-101.562 -117.188 1145
-31.25 179.688 1833
-500 195.312 1223
-250 312.5 1427
54.6875 382.812 1523
-460.938 -93.75 1713
187.5 54.6875 1126
242.188 7.8125 1165
-78.125 -304.688 1250
-492.188 -203.125 2522
429.688 -70.3125 1509
23.4375 367.188 1705
-62.5 15.625 1177
-54.6875 -296.875 1250
-320.312 -93.75 1193
195.312 -148.438 1181
-421.875 320.312 1381
39.0625 328.125 2241
-242.188 335.938 1370
-390.625 320.312 1381
203.125 -7.8125 1165
78.125 304.688 1833
-93.75 15.625 1181
-46.875 312.5 1863
335.938 312.5 1259
-15.625 367.188 1731
335.938 398.438 1370
-62.5 343.75 1776
375 -39.0625 1157
-187.5 273.438 1264
-78.125 -257.812 1259
70.3125 15.625 1169
-234.375 359.375 1322
-23.4375 -132.812 1149
-218.75 0 1181
-210.938 23.4375 1169
335.938 359.375 1268
-320.312 320.312 1404
-406.25 -125 1343
289.062 23.4375 1181
39.0625 70.3125 1134
-445.312 203.125 1227
375 406.25 1376
296.875 -117.188 1126
-367.188 31.25 1145
-164.062 343.75 1302
210.938 -7.8125 1161
-390.625 -31.25 1312
-46.875 15.625 1181
140.625 351.562 1579
-382.812 -23.4375 1312
140.625 78.125 1165
-429.688 -453.125 3149
-234.375 328.125 1404
125 320.312 1586
-164.062 351.562 1292
289.062 -187.5 3333
460.938 -226.562 1452
203.125 335.938 1785
492.188 -23.4375 1273
351.562 390.625 1376
125 351.562 1572
-156.25 429.688 1317
85.9375 312.5 1833
-187.5 15.625 1185
-296.875 250 1236
453.125 257.812 1210
-195.312 351.562 1283
-117.188 15.625 1181
39.0625 23.4375 1181
226.562 -203.125 1255
460.938 351.562 1477
-382.812 39.0625 1138
406.25 -335.938 1421
-218.75 15.625 1210
-421.875 -101.562 1722
-7.8125 -312.5 1259
-156.25 7.8125 1181
-320.312 351.562 1338
468.75 390.625 1370
-304.688 -117.188 1189
390.625 359.375 1349
-296.875 -15.625 1173
-101.562 7.8125 1177
109.375 289.062 1873
-203.125 320.312 1278
195.312 -7.8125 1161
367.188 375 1343
265.625 -7.8125 1157
335.938 351.562 1268
164.062 -140.625 1145
429.688 234.375 1206
414.062 382.812 1359
-46.875 -335.938 1483
-421.875 335.938 1343
-210.938 281.25 1288
476.562 46.875 1119
453.125 367.188 1433
-242.188 359.375 1328
-70.3125 -164.062 1288
54.6875 304.688 1883
-203.125 335.938 1283
78.125 -164.062 1370
-312.5 -78.125 1169
414.062 234.375 1206
-390.625 343.75 1333
-140.625 7.8125 1181
-39.0625 -132.812 1149
445.312 250 1210
242.188 226.562 1671
-398.438 257.812 1557
250 -132.812 1134
460.938 390.625 1376
164.062 93.75 1177
-179.688 226.562 1236
437.5 398.438 1370
-210.938 312.5 1427
62.5 15.625 1173
-273.438 -140.625 1223
-23.4375 -156.25 1292
-234.375 -23.4375 1206
-203.125 187.5 1214
343.75 257.812 1232
117.188 0 1161
-250 242.188 1227
437.5 226.562 1202
-62.5 23.4375 1181
-62.5 -335.938 1477
-492.188 195.312 1232
31.25 296.875 1894
-101.562 -257.812 1259
-343.75 15.625 1189
390.625 335.938 1349
-328.125 304.688 1445
-210.938 343.75 1365
492.188 -218.75 1445
39.0625 15.625 1173
-62.5 -289.062 1250
343.75 7.8125 1161
-210.938 328.125 1404
-414.062 -414.062 3120
-398.438 343.75 1333
-289.062 304.688 1445
421.875 70.3125 1130
-445.312 242.188 1236
-164.062 15.625 1181
-70.3125 343.75 1766
-375 273.438 1470
-23.4375 -210.938 1283
-164.062 195.312 1283
414.062 390.625 1365
-312.5 312.5 1421
-375 31.25 1149
187.5 -7.8125 1161
-335.938 250 1227
351.562 398.438 1376
203.125 31.25 1161
179.688 -148.438 1189
-234.375 296.875 1470
-320.312 304.688 1439
-101.562 -171.875 1283
429.688 -46.875 1464
296.875 7.8125 1157
289.062 -125 1126
-195.312 335.938 1283
-15.625 -156.25 1292
335.938 7.8125 1169
-203.125 140.625 1202
210.938 -156.25 1165
-156.25 289.062 1312
257.812 7.8125 1153
-187.5 343.75 1283
406.25 31.25 1153
195.312 343.75 1564
-351.562 304.688 1445
-78.125 15.625 1177
-242.188 -93.75 1219
54.6875 -265.625 1343
-250 257.812 1227
-296.875 -93.75 1255
-187.5 7.8125 1181
-492.188 -257.812 3238
-218.75 -93.75 1153
-187.5 328.125 1278
-312.5 289.062 1477
335.938 320.312 1259
-265.625 359.375 1328
-359.375 242.188 1232
-289.062 343.75 1338
78.125 429.688 1452
312.5 -7.8125 1157
468.75 351.562 1464
15.625 15.625 1173
-281.25 -109.375 1202
-335.938 289.062 1489
-31.25 15.625 1185
312.5 23.4375 1181
-23.4375 359.375 1739
382.812 -70.3125 1141
421.875 -335.938 1439
-257.812 -140.625 1245
-250 -140.625 1245
-78.125 -179.688 1278
359.375 406.25 1359
-351.562 7.8125 1185
54.6875 -164.062 1376
-257.812 -148.438 1245
359.375 31.25 1157
-476.562 -164.062 2859
46.875 304.688 1883
390.625 78.125 1161
-429.688 304.688 1398
-429.688 70.3125 1181
-210.938 15.625 1197
335.938 367.188 1273
-31.25 -265.625 1259
-125 359.375 1343
156.25 0 1161
-460.938 0 1250
320.312 7.8125 1169
23.4375 0 1165
-132.812 15.625 1181
132.812 23.4375 1177
460.938 382.812 1404
-23.4375 -265.625 1264
-343.75 140.625 1202
367.188 -54.6875 1145
31.25 -265.625 1421
-367.188 -148.438 1206
-210.938 85.9375 1189
-226.562 140.625 1197
-187.5 335.938 1283
-140.625 421.875 1349
54.6875 -273.438 1445
187.5 359.375 1550
-304.688 78.125 1189
273.438 7.8125 1157
398.438 -335.938 1427
117.188 367.188 1470
-203.125 351.562 1343
367.188 406.25 1365
-289.062 15.625 1197
-125 343.75 1349
-328.125 210.938 1223
-328.125 -101.562 1197
-195.312 328.125 1278
171.875 437.5 1427
171.875 0 1165
-242.188 320.312 1404
-320.312 210.938 1223
468.75 101.562 1165
-7.8125 328.125 1813
-500 -257.812 3120
-195.312 343.75 1283
85.9375 0 1165
218.75 7.8125 1161
414.062 398.438 1365
171.875 23.4375 1181
203.125 7.8125 1165
-343.75 343.75 1333
-93.75 -304.688 1250
398.438 296.875 1387
414.062 70.3125 1130
-375 335.938 1343
-453.125 328.125 1349
242.188 -203.125 3333
382.812 78.125 1161
-304.688 312.5 1421
-351.562 312.5 1410
-39.0625 -203.125 1278
-7.8125 -203.125 1288
218.75 -7.8125 1157
-203.125 343.75 1365
445.312 367.188 1433
437.5 242.188 1206
-39.0625 -296.875 1255
-234.375 257.812 1227
-187.5 148.438 1223
492.188 148.438 1177
-273.438 -54.6875 1177
-54.6875 -132.812 1141
-429.688 -320.312 3208
414.062 -46.875 1427
421.875 148.438 1181
39.0625 414.062 1543
-54.6875 -265.625 1255
-343.75 304.688 1404
-460.938 335.938 1338
-460.938 -109.375 2744
-203.125 312.5 1278
179.688 382.812 1452
-320.312 -132.812 1223
-351.562 328.125 1370
-335.938 -54.6875 1185
-117.188 -218.75 1241
-39.0625 375 1663
70.3125 0 1165
-414.062 -343.75 3178
-203.125 179.688 1210
-242.188 265.625 1564
492.188 273.438 1439
15.625 398.438 1639
226.562 7.8125 1161
-218.75 359.375 1328
-328.125 -46.875 1173
-304.688 335.938 1370
375 289.062 1404
-226.562 7.8125 1232
304.688 7.8125 1157
-296.875 328.125 1387
-273.438 -46.875 1177
242.188 -125 1130
-234.375 242.188 1227
7.8125 265.625 1873
289.062 7.8125 1157
-359.375 -93.75 1255
-164.062 23.4375 1185
421.875 304.688 1398
-351.562 281.25 1496
54.6875 296.875 1883
-414.062 -375 3149
-265.625 343.75 1343
445.312 -343.75 3178
-250 -148.438 1245
367.188 390.625 1365
367.188 -125 1126
-382.812 320.312 1392
-390.625 335.938 1343
-367.188 -46.875 1193
-343.75 101.562 1193
62.5 296.875 1883
445.312 93.75 1165
-187.5 351.562 1283
367.188 -70.3125 1141
-335.938 15.625 1193
304.688 15.625 1193
-242.188 351.562 1338
-70.3125 -210.938 1273
421.875 273.438 1427
-421.875 101.562 1189
406.25 390.625 1365
-203.125 281.25 1288
343.75 382.812 1381
-125 -226.562 1483
-359.375 320.312 1398
-320.312 7.8125 1214
265.625 7.8125 1153
-328.125 7.8125 1185
46.875 0 1165
-46.875 -132.812 1145
242.188 7.8125 1165
406.25 398.438 1365
210.938 7.8125 1161
-281.25 7.8125 1193
-289.062 250 1236
-148.438 15.625 1181
343.75 375 1381
453.125 -70.3125 1503
484.375 328.125 1452
-23.4375 -234.375 1273
-179.688 343.75 1283
414.062 304.688 1398
-414.062 -281.25 3178
406.25 -54.6875 1509
421.875 226.562 1206
-359.375 -7.8125 1181
-328.125 351.562 1338
117.188 281.25 1873
-250 -39.0625 1189
-250 335.938 1370
-15.625 -265.625 1268
203.125 54.6875 1126
335.938 398.438 1370
109.375 0 1161
398.438 375 1322
-195.312 281.25 1268
-31.25 -132.812 1153
296.875 93.75 1189
-281.25 250 1232
-234.375 281.25 1470
460.938 335.938 1470
171.875 -125 1134
-164.062 54.6875 1145
-289.062 328.125 1381
-289.062 -93.75 1259
-406.25 -187.5 3333
-398.438 304.688 1421
234.375 328.125 1688
-421.875 226.562 1232
-273.438 -39.0625 1177
-273.438 328.125 1387
218.75 23.4375 1177
351.562 234.375 1210
-70.3125 54.6875 1134
70.3125 23.4375 1181
-203.125 -70.3125 1161
-312.5 -109.375 1189
-265.625 15.625 1161
-171.875 398.438 1302
140.625 414.062 1445
250 -39.0625 1153
218.75 445.312 1458
117.188 289.062 1883
335.938 -15.625 1157
-31.25 23.4375 1185
156.25 109.375 1197
125 429.688 1421
-460.938 156.25 1214
-195.312 312.5 1278
234.375 7.8125 1161
445.312 -70.3125 1503
195.312 351.562 1543
-195.312 7.8125 1181
-304.688 328.125 1376
93.75 312.5 1883
281.25 7.8125 1157
273.438 -195.312 3365
-210.938 296.875 1288
445.312 46.875 1119
328.125 382.812 1278
406.25 70.3125 1134
140.625 398.438 1445
-429.688 -460.938 3092
406.25 273.438 1427
335.938 382.812 1278
406.25 289.062 1392
-304.688 7.8125 1232
-382.812 265.625 1523
-343.75 328.125 1376
-179.688 7.8125 1181
-468.75 -15.625 1312
-210.938 93.75 1193
-101.562 -273.438 1250
367.188 93.75 1173
437.5 -140.625 1483
-414.062 -312.5 3208
132.812 375 1536
-414.062 -273.438 3178
-414.062 -382.812 3120
437.5 296.875 1392
382.812 390.625 1359
328.125 359.375 1268
-54.6875 -156.25 1288
-101.562 429.688 1349
78.125 320.312 1833
-218.75 15.625 1210
-39.0625 15.625 1181
-328.125 -62.5 1177
218.75 -210.938 1255
398.438 390.625 1359
-117.188 7.8125 1181
-132.812 296.875 1550
-218.75 -101.562 1149
453.125 375 1410
476.562 101.562 1165
195.312 15.625 1189
203.125 23.4375 1185
335.938 390.625 1381
-281.25 -101.562 1268
335.938 406.25 1370
-429.688 273.438 1496
-312.5 351.562 1333
-171.875 15.625 1181
476.562 70.3125 1134
-460.938 320.312 1376
343.75 406.25 1365
15.625 -296.875 1439
-484.375 -250 3300
492.188 375 1387
492.188 70.3125 1130
39.0625 0 1165
-23.4375 -312.5 1477
132.812 320.312 1586
-382.812 -101.562 1322
468.75 46.875 1119
468.75 343.75 1464
70.3125 -250 1333
-210.938 351.562 1328
445.312 117.188 1169
468.75 328.125 1458
367.188 117.188 1177
-351.562 31.25 1149
-437.5 226.562 1236
31.25 0 1165
148.438 15.625 1181
484.375 -23.4375 1273
-421.875 210.938 1223
445.312 -46.875 1415
164.062 -7.8125 1161
-429.688 -359.375 3208
46.875 296.875 1883
62.5 -359.375 3269
164.062 296.875 1894
460.938 343.75 1470
-437.5 -265.625 3333
-7.8125 296.875 1894
-421.875 78.125 1185
-93.75 54.6875 1138
-203.125 164.062 1210
375 31.25 1157
-171.875 406.25 1307
-335.938 210.938 1223
-218.75 328.125 1404
-429.688 -406.25 3120
-234.375 0 1259
375 54.6875 1126
7.8125 -171.875 1292
429.688 -54.6875 1464
-406.25 -140.625 1365
460.938 -242.188 1439
23.4375 -281.25 1421
-296.875 343.75 1338
-234.375 -39.0625 1197
23.4375 296.875 1883
-195.312 351.562 1283
-460.938 273.438 1496
343.75 265.625 1241
390.625 -343.75 3178
-484.375 265.625 1439
148.438 437.5 1421
343.75 296.875 1245
210.938 -218.75 3365
179.688 7.8125 1165
-375 296.875 1421
-156.25 351.562 1292
-367.188 -101.562 1259
-203.125 -62.5 1161
367.188 -46.875 1153
-359.375 273.438 1523
320.312 -15.625 1153
-250 351.562 1338
398.438 70.3125 1130
-281.25 -93.75 1189
15.625 0 1169
468.75 -242.188 1439
-23.4375 320.312 1813
-109.375 15.625 1181
390.625 70.3125 1130
-226.562 359.375 1328
453.125 351.562 1464
203.125 359.375 1523
171.875 -7.8125 1165
0 296.875 1894
-273.438 -125 1206
257.812 7.8125 1153
414.062 78.125 1157
414.062 70.3125 1130
-15.625 -132.812 1145
421.875 -343.75 3178
328.125 398.438 1278
195.312 -195.312 1255
-203.125 132.812 1197
-429.688 -242.188 3269
125 273.438 1863
484.375 320.312 1445
-273.438 85.9375 1185
179.688 -7.8125 1161
-218.75 304.688 1458
-187.5 312.5 1278
-351.562 -39.0625 1181
-226.562 -54.6875 1161
-164.062 7.8125 1181
195.312 7.8125 1161
-460.938 132.812 1206
-70.3125 -132.812 1145
-429.688 -265.625 3238
-351.562 78.125 1189
-78.125 -265.625 1255
-46.875 -296.875 1250
367.188 156.25 1189
-39.0625 312.5 1873
-234.375 289.062 1470
-390.625 -31.25 1312
15.625 -304.688 1439
218.75 7.8125 1161
93.75 304.688 1883
406.25 367.188 1338
31.25 242.188 1853
-312.5 -54.6875 1173
-23.4375 304.688 1894
421.875 101.562 1169
-429.688 -328.125 3178
-382.812 304.688 1415
23.4375 -265.625 1255
156.25 390.625 1445
-414.062 -445.312 3120
-351.562 -23.4375 1177
-281.25 85.9375 1185
437.5 -54.6875 1458
-85.9375 -320.312 1464
-476.562 -125 2812
-70.3125 15.625 1177
31.25 398.438 1579
15.625 296.875 1894
328.125 7.8125 1169
-429.688 -390.625 3092
-406.25 -171.875 3300
148.438 7.8125 1161
-117.188 54.6875 1138
187.5 335.938 1564
-218.75 -7.8125 1181
492.188 359.375 1427
-195.312 304.688 1268
-156.25 421.875 1322
-429.688 -398.438 3092
273.438 -109.375 1130
-187.5 320.312 1278
429.688 226.562 1202
-187.5 328.125 1278
-171.875 281.25 1268
-273.438 -164.062 1410
7.8125 -289.062 1250
320.312 -125 1126
-429.688 203.125 1223
484.375 250 1197
437.5 -70.3125 1503
171.875 7.8125 1165
7.8125 289.062 1883
-250 -101.562 1250
85.9375 445.312 1477
117.188 218.75 1843
93.75 15.625 1165
-250 328.125 1392
414.062 -93.75 1509
-101.562 -289.062 1250
-187.5 351.562 1283
-242.188 335.938 1370
-289.062 289.062 1483
-304.688 296.875 1464
-312.5 359.375 1333
-304.688 320.312 1410
-210.938 359.375 1322
312.5 7.8125 1157
125 54.6875 1126
125 421.875 1421
39.0625 -265.625 1354
-414.062 -351.562 3178
406.25 382.812 1328
-468.75 70.3125 1189
109.375 7.8125 1161
-382.812 312.5 1404
-101.562 54.6875 1138
-335.938 328.125 1381
-445.312 312.5 1392
156.25 7.8125 1165
335.938 15.625 1193
-257.812 -125 1210
273.438 7.8125 1157
445.312 367.188 1433
-414.062 289.062 1477
-304.688 234.375 1227
-375 335.938 1343
250 7.8125 1161
203.125 7.8125 1165
31.25 296.875 1894
-296.875 296.875 1477
476.562 -242.188 1439
117.188 367.188 1470
-281.25 210.938 1223
-187.5 265.625 1264
-375 304.688 1421
328.125 375 1278
164.062 54.6875 1130
-85.9375 54.6875 1134
-15.625 406.25 1609
460.938 390.625 1376
-304.688 343.75 1343
375 70.3125 1134
-414.062 226.562 1232
-312.5 -148.438 1202
140.625 54.6875 1123
-54.6875 54.6875 1134
195.312 359.375 1536
429.688 31.25 1145
296.875 7.8125 1157
187.5 -7.8125 1161
156.25 -7.8125 1161
-171.875 273.438 1268
-15.625 -312.5 1259
-312.5 343.75 1338
359.375 367.188 1359
-398.438 242.188 1232
-242.188 281.25 1509
-203.125 -78.125 1157
-187.5 335.938 1283
468.75 85.9375 1161
70.3125 7.8125 1165
-281.25 328.125 1381
-312.5 234.375 1227
-234.375 320.312 1410
-320.312 234.375 1227
-218.75 289.062 1483
382.812 -343.75 3092
-312.5 -132.812 1214
140.625 289.062 1883
148.438 226.562 1843
-390.625 328.125 1376
-351.562 -148.438 1193
226.562 7.8125 1161
-93.75 414.062 1359
-46.875 -320.312 1464
-320.312 335.938 1370
-179.688 351.562 1283
-453.125 -101.562 2744
-46.875 343.75 1776
-312.5 296.875 1477
-203.125 359.375 1333
-484.375 -257.812 3333
195.312 -7.8125 1161
-195.312 210.938 1223
-429.688 -335.938 3178
289.062 -187.5 3333
-335.938 343.75 1338
453.125 335.938 1381
-85.9375 -164.062 1283
78.125 -250 1328
-414.062 156.25 1177
23.4375 0 1165
-492.188 -187.5 2541
-132.812 437.5 1343
-250 78.125 1185
-429.688 -421.875 3092
-328.125 -31.25 1173
-382.812 343.75 1333
351.562 257.812 1232
-242.188 93.75 1189
-250 -140.625 1245
492.188 -335.938 3178
-54.6875 23.4375 1185
-367.188 320.312 1404
-296.875 23.4375 1169
-250 273.438 1529
-296.875 289.062 1477
-234.375 -109.375 1141
-414.062 70.3125 1185
-234.375 265.625 1278
-414.062 -101.562 1722
0 -226.562 1273
375 -85.9375 1141
39.0625 437.5 1529
-296.875 -93.75 1255
367.188 328.125 1365
304.688 85.9375 1169
328.125 390.625 1278
-31.25 -312.5 1464
234.375 15.625 1189
-132.812 54.6875 1138
-421.875 -101.562 1722
-15.625 351.562 1757
-265.625 15.625 1161
-406.25 -132.812 1354
-328.125 -54.6875 1177
-218.75 265.625 1550
-414.062 -117.188 3120
-85.9375 -312.5 1458
367.188 281.25 1415
382.812 70.3125 1134
-171.875 398.438 1302
-335.938 -148.438 1193
460.938 375 1404
-132.812 429.688 1343
-421.875 281.25 1477
164.062 7.8125 1165
187.5 328.125 1813
-343.75 343.75 1333
234.375 429.688 1503
-117.188 414.062 1338
453.125 359.375 1452
-406.25 343.75 1338
-265.625 78.125 1185
453.125 101.562 1165
203.125 -7.8125 1165
210.938 7.8125 1161
-78.125 15.625 1177
453.125 390.625 1376
-226.562 335.938 1370
125 398.438 1445
-62.5 343.75 1776
-429.688 -218.75 3300
0 -234.375 1273
7.8125 0 1169
-414.062 -296.875 3178
335.938 398.438 1370
140.625 101.562 1189
-335.938 140.625 1202
-312.5 304.688 1445
-500 382.812 1288
-406.25 70.3125 1185
398.438 203.125 1197
-265.625 -125 1210
312.5 -15.625 1153
-296.875 328.125 1387
-312.5 335.938 1370
-226.562 -15.625 1206
-187.5 343.75 1283
414.062 226.562 1206
-125 382.812 1333
304.688 -15.625 1153
421.875 226.562 1206
398.438 382.812 1322
132.812 54.6875 1126
-429.688 -132.812 3064
-31.25 -296.875 1255
328.125 -15.625 1157
-62.5 -132.812 1145
-382.812 -23.4375 1312
195.312 -156.25 1177
-343.75 31.25 1153
367.188 -31.25 1161
-187.5 7.8125 1181
-187.5 78.125 1185
-398.438 312.5 1404
429.688 -343.75 3178
101.562 54.6875 1123
492.188 218.75 1197
-273.438 210.938 1219
-125 15.625 1181
-62.5 -156.25 1288
179.688 7.8125 1165
-179.688 328.125 1278
-23.4375 -289.062 1255
-226.562 -164.062 3433
-359.375 -70.3125 1278
-39.0625 -320.312 1470
-226.562 242.188 1227
-289.062 78.125 1185
375 -93.75 1141
-46.875 -132.812 1145
0 0 1169
-179.688 15.625 1185
421.875 -70.3125 1509
109.375 359.375 1550
-367.188 304.688 1433
445.312 375 1410
-296.875 -148.438 1214
390.625 312.5 1381
421.875 46.875 1126
-70.3125 -351.562 1477
-406.25 -117.188 1338
445.312 390.625 1370
-445.312 328.125 1354
-304.688 210.938 1219
-328.125 7.8125 1185
265.625 7.8125 1153
-257.812 -140.625 1245
-7.8125 0 1169
-296.875 335.938 1376
-351.562 -46.875 1189
398.438 -93.75 1516
437.5 382.812 1398
-171.875 265.625 1268
7.8125 -242.188 1273
-39.0625 -132.812 1149
-203.125 -93.75 1149
-281.25 -164.062 1410
-320.312 351.562 1338
-250 312.5 1427
484.375 70.3125 1134
-281.25 257.812 1232
-39.0625 312.5 1873
-289.062 328.125 1381
296.875 -15.625 1157
-7.8125 39.0625 1145
-484.375 328.125 1338
367.188 -39.0625 1157
203.125 -171.875 1169
484.375 46.875 1119
-390.625 312.5 1404
-476.562 226.562 1236
-218.75 359.375 1328
-351.562 273.438 1523
492.188 382.812 1376
367.188 125 1181
-203.125 304.688 1268
132.812 414.062 1452
-421.875 -156.25 3269
-210.938 242.188 1227
406.25 226.562 1206
-148.438 7.8125 1181
93.75 7.8125 1165
289.062 7.8125 1157
85.9375 54.6875 1130
-273.438 -148.438 1241
-367.188 335.938 1343
453.125 70.3125 1141
-304.688 312.5 1421
406.25 -343.75 3178
-117.188 359.375 1343
-179.688 343.75 1283
-234.375 351.562 1333
-484.375 -195.312 2744
-453.125 312.5 1387
-343.75 39.0625 1141
-273.438 265.625 1509
-218.75 281.25 1509
-226.562 320.312 1410
-414.062 335.938 1343
289.062 304.688 1343
39.0625 -179.688 1387
437.5 367.188 1370
390.625 -78.125 1523
85.9375 273.438 1863
453.125 -335.938 1421
15.625 0 1169
445.312 351.562 1458
-390.625 242.188 1236
382.812 289.062 1392
398.438 289.062 1387
414.062 328.125 1359
-242.188 -101.562 1232
-265.625 -70.3125 1189
-398.438 -15.625 1312
-218.75 335.938 1370
-375 -85.9375 1273
234.375 7.8125 1161
-328.125 234.375 1232
-414.062 320.312 1376
-429.688 -351.562 3178
382.812 -85.9375 1141
54.6875 15.625 1177
335.938 0 1161
117.188 343.75 1572
398.438 398.438 1365
156.25 343.75 1586
250 39.0625 1138
-226.562 281.25 1516
-23.4375 320.312 1813
390.625 70.3125 1130
-46.875 -265.625 1255
-46.875 -343.75 1483
-46.875 -343.75 1483
54.6875 0 1161
-54.6875 -281.25 1250
-210.938 117.188 1197
-171.875 390.625 1302
375 390.625 1365
-85.9375 -304.688 1250
-382.812 328.125 1376
328.125 398.438 1278
-171.875 250 1268
-304.688 -70.3125 1173
-429.688 -437.5 3092
93.75 54.6875 1126
-320.312 -109.375 1189
101.562 414.062 1427
-382.812 320.312 1392
-421.875 203.125 1223
351.562 31.25 1157
-210.938 265.625 1241
-398.438 203.125 1219
23.4375 -257.812 1255
-375 265.625 1523
468.75 328.125 1458
351.562 117.188 1177
-195.312 23.4375 1189
125 281.25 1863
125 7.8125 1161
210.938 -125 1134
-39.0625 351.562 1705
-187.5 351.562 1283
70.3125 296.875 1883
-312.5 15.625 1202
460.938 390.625 1376
-320.312 304.688 1439
7.8125 -187.5 1283
171.875 7.8125 1165
-15.625 15.625 1181
-273.438 250 1232
-375 320.312 1392
226.562 15.625 1189
335.938 390.625 1381
-195.312 0 1181
-289.062 343.75 1338
-414.062 -406.25 3120
-39.0625 -156.25 1288
-39.0625 -296.875 1255
-273.438 -109.375 1206
-31.25 -156.25 1288
156.25 421.875 1452
-85.9375 -132.812 1149
-304.688 328.125 1376
-414.062 -109.375 3149
445.312 359.375 1387
164.062 343.75 1579
-375 335.938 1343
-250 359.375 1338
203.125 210.938 1843
-93.75 -156.25 1288
-195.312 359.375 1328
343.75 406.25 1365
210.938 343.75 1766
-320.312 320.312 1404
-7.8125 -234.375 1278
242.188 7.8125 1165
-453.125 132.812 1206
-453.125 320.312 1376
-437.5 328.125 1365
312.5 85.9375 1169
-398.438 70.3125 1185
-429.688 -304.688 3238
-304.688 335.938 1370
148.438 23.4375 1181
-390.625 343.75 1333
117.188 -125 1134
351.562 -15.625 1157
140.625 375 1543
-187.5 312.5 1278
304.688 -15.625 1153
-179.688 335.938 1283
265.625 359.375 1503
320.312 -15.625 1153
-328.125 343.75 1343
-257.812 -132.812 1223
-359.375 335.938 1343
-296.875 343.75 1338
-257.812 328.125 1392
195.312 7.8125 1161
-289.062 265.625 1509
54.6875 296.875 1883
-414.062 -320.312 3178
179.688 335.938 1586
-351.562 -78.125 1259
351.562 7.8125 1161
7.8125 0 1169
390.625 382.812 1322
-210.938 296.875 1288
-304.688 -93.75 1245
304.688 7.8125 1157
-203.125 156.25 1202
-492.188 359.375 1278
-210.938 289.062 1288
-500 218.75 1232
-406.25 226.562 1232
453.125 156.25 1181
382.812 390.625 1359
-7.8125 351.562 1757
367.188 140.625 1185
-109.375 23.4375 1185
-54.6875 -296.875 1250
187.5 7.8125 1165
492.188 140.625 1177
-7.8125 -312.5 1259
-70.3125 -132.812 1145
-218.75 242.188 1227
-335.938 289.062 1489
-242.188 -23.4375 1197
-429.688 -296.875 3238
-132.812 7.8125 1181
476.562 390.625 1370
398.438 226.562 1206
476.562 31.25 1145
-429.688 -320.312 3208
-320.312 -148.438 1197
-195.312 296.875 1268
-273.438 78.125 1189
-257.812 273.438 1536
-195.312 7.8125 1181
-445.312 320.312 1381
-289.062 -46.875 1173
-15.625 0 1169
156.25 -7.8125 1161
390.625 328.125 1359
335.938 359.375 1268
-226.562 15.625 1210
281.25 7.8125 1157
-320.312 15.625 1197
-242.188 242.188 1227
-203.125 -70.3125 1161
-320.312 296.875 1458
0 296.875 1894
164.062 -140.625 1145
-62.5 -148.438 1273
289.062 -15.625 1157
93.75 414.062 1427
-359.375 -15.625 1177
-343.75 7.8125 1181
15.625 390.625 1647
-281.25 78.125 1185
-281.25 343.75 1338
-210.938 7.8125 1181
-140.625 414.062 1354
351.562 -7.8125 1157
343.75 15.625 1193
-367.188 -23.4375 1197
320.312 15.625 1189
-210.938 -78.125 1161
375 70.3125 1134
-257.812 -85.9375 1193
-187.5 359.375 1297
-218.75 343.75 1365
46.875 390.625 1509
117.188 7.8125 1161
-171.875 398.438 1302
-390.625 -78.125 1333
-304.688 234.375 1227
-429.688 -453.125 3149
406.25 398.438 1365
101.562 -273.438 3269
-328.125 -117.188 1197
148.438 7.8125 1161
156.25 7.8125 1165
-414.062 148.438 1202
445.312 375 1410
-70.3125 -156.25 1288
203.125 7.8125 1165
164.062 289.062 1873
-101.562 -234.375 1264
-203.125 343.75 1365
-429.688 -101.562 1739
257.812 -203.125 3365
492.188 46.875 1115
-296.875 328.125 1387
453.125 15.625 1197
109.375 359.375 1550
78.125 312.5 1833
-15.625 406.25 1609
-171.875 195.312 1283
-234.375 -156.25 1278
15.625 23.4375 1193
-187.5 328.125 1278
-289.062 312.5 1410
492.188 343.75 1433
492.188 218.75 1197
-382.812 304.688 1415
-15.625 -171.875 1288
359.375 -7.8125 1157
-335.938 281.25 1503
-460.938 46.875 1145
117.188 85.9375 1169
390.625 390.625 1354
-265.625 265.625 1550
-257.812 210.938 1223
-414.062 -289.062 3178
-281.25 -140.625 1223
-226.562 289.062 1477
-289.062 234.375 1227
257.812 398.438 1458
203.125 429.688 1445
-351.562 335.938 1349
-187.5 257.812 1245
-296.875 312.5 1427
445.312 343.75 1365
-226.562 78.125 1185
-242.188 367.188 1328
-101.562 -250 1264
93.75 -273.438 3300
-101.562 -250 1264
-101.562 -250 1264
-320.312 289.062 1477
7.8125 -296.875 1250
-39.0625 359.375 1705
101.562 7.8125 1161
-273.438 -125 1206
117.188 289.062 1883
15.625 289.062 1883
31.25 406.25 1557
171.875 335.938 1586
-210.938 359.375 1322
453.125 343.75 1477
-343.75 -148.438 1193
-179.688 328.125 1278
398.438 312.5 1381
-101.562 -304.688 1250
-234.375 242.188 1227
-7.8125 -296.875 1255
-195.312 203.125 1219
-148.438 406.25 1312
7.8125 296.875 1894
-257.812 0 1193
-257.812 -46.875 1185
-390.625 -31.25 1312
-398.438 -54.6875 1312
85.9375 46.875 1130
-54.6875 -156.25 1288
-406.25 289.062 1470
31.25 -117.188 1138
-437.5 -70.3125 1609
-335.938 312.5 1410
-312.5 -46.875 1169
429.688 -335.938 1439
289.062 -125 1126
-195.312 351.562 1283
-398.438 343.75 1333
-335.938 -54.6875 1185
-390.625 304.688 1433
210.938 -7.8125 1161
265.625 -132.812 1126
398.438 31.25 1153
-289.062 -125 1202
-31.25 -242.188 1264
492.188 367.188 1392
-351.562 289.062 1483
273.438 -132.812 1138
-351.562 15.625 1185
15.625 296.875 1894
39.0625 -304.688 1439
414.062 101.562 1169
-46.875 -312.5 1458
-296.875 234.375 1227
187.5 -156.25 1185
210.938 7.8125 1161
-414.062 -359.375 3208
164.062 335.938 1579
375 265.625 1214
-210.938 281.25 1288
-179.688 226.562 1236
390.625 289.062 1387
-179.688 351.562 1283
-351.562 320.312 1398
484.375 78.125 1165
-273.438 320.312 1410
414.062 -343.75 3178
390.625 398.438 1365
78.125 7.8125 1165
382.812 351.562 1343
-414.062 -242.188 3238
-382.812 101.562 1189
-289.062 -93.75 1259
-23.4375 -164.062 1292
-296.875 351.562 1333
-328.125 -31.25 1173
-304.688 -46.875 1169
328.125 -171.875 3269
-429.688 -367.188 3208
390.625 226.562 1206
468.75 -23.4375 1312
78.125 -23.4375 1157
-421.875 -31.25 1349
54.6875 7.8125 1169
398.438 -78.125 1516
-429.688 -429.688 3092
-320.312 -23.4375 1173
85.9375 7.8125 1165
296.875 -15.625 1157
-7.8125 296.875 1894
-460.938 296.875 1410
-328.125 328.125 1381
-179.688 359.375 1288
-195.312 242.188 1232
382.812 375 1322
-414.062 -250 3238
-23.4375 0 1169
445.312 -23.4375 1354
-328.125 -101.562 1197
-101.562 437.5 1349
-101.562 -250 1264
-242.188 273.438 1536
-164.062 335.938 1307
460.938 328.125 1464
62.5 445.312 1483
375 367.188 1338
445.312 335.938 1381
429.688 93.75 1169
-414.062 281.25 1489
-398.438 250 1232
-312.5 304.688 1445
-265.625 250 1227
460.938 -70.3125 1503
-257.812 78.125 1185
484.375 -70.3125 1503
375 398.438 1370
195.312 23.4375 1181
-23.4375 -289.062 1255
-289.062 -132.812 1202
-39.0625 -234.375 1268
335.938 406.25 1370
265.625 85.9375 1169
-367.188 335.938 1343
-203.125 117.188 1197
437.5 -328.125 1433
-203.125 78.125 1189
390.625 375 1322
-156.25 398.438 1328
187.5 351.562 1557
-273.438 304.688 1445
-304.688 -148.438 1202
-39.0625 -265.625 1259
-203.125 265.625 1268
-328.125 -39.0625 1173
-429.688 -375 3149
226.562 7.8125 1161
-15.625 -195.312 1288
-203.125 0 1181
453.125 -242.188 1445
250 -132.812 1134
-195.312 367.188 1328
0 0 1169
-101.562 -148.438 1145
210.938 445.312 1452
-218.75 351.562 1328
320.312 0 1157
-31.25 -296.875 1255
-226.562 -23.4375 1214
0 406.25 1616
-281.25 15.625 1193
-289.062 328.125 1381
-304.688 320.312 1410
476.562 -70.3125 1503
23.4375 15.625 1173
7.8125 406.25 1609
-335.938 343.75 1338
93.75 296.875 1883
70.3125 -171.875 1370
-257.812 320.312 1404
140.625 7.8125 1161
-406.25 -140.625 1365
367.188 367.188 1349
-281.25 -148.438 1223
0 351.562 1757
492.188 125 1169
187.5 429.688 1439
-195.312 210.938 1223
140.625 421.875 1452
-250 -140.625 1245
125 15.625 1193
445.312 250 1210
-39.0625 343.75 1766
46.875 0 1165
484.375 218.75 1206
-203.125 281.25 1288
-328.125 289.062 1477
-109.375 -390.625 3238
-359.375 -148.438 1193
414.062 265.625 1427
421.875 296.875 1410
468.75 -70.3125 1503
-210.938 -15.625 1177
414.062 226.562 1206
-289.062 296.875 1477
476.562 39.0625 1130
-304.688 304.688 1445
-109.375 -320.312 1503
492.188 328.125 1421
-281.25 289.062 1483
-289.062 31.25 1149
437.5 70.3125 1130
-328.125 -148.438 1197
-171.875 257.812 1268
-304.688 250 1227
46.875 273.438 1883
-31.25 0 1169
46.875 7.8125 1169
328.125 390.625 1278
-250 195.312 1214
148.438 -7.8125 1157
375 390.625 1365
-429.688 -226.562 3300
-296.875 335.938 1376
-7.8125 406.25 1609
453.125 226.562 1206
-351.562 0 1177
-203.125 296.875 1288
-132.812 429.688 1343
281.25 -15.625 1157
-23.4375 -312.5 1477
-242.188 78.125 1185
-195.312 0 1181
-195.312 85.9375 1189
406.25 -78.125 1523
437.5 375 1404
-187.5 320.312 1278
437.5 31.25 1149
242.188 -140.625 1130
15.625 0 1169
-335.938 7.8125 1185
-117.188 140.625 1705
-281.25 328.125 1381
62.5 54.6875 1130
171.875 -156.25 1185
148.438 429.688 1427
-375 203.125 1223
93.75 304.688 1883
-484.375 125 1206
117.188 281.25 1873
273.438 -15.625 1157
46.875 54.6875 1134
375 289.062 1404
-46.875 343.75 1776
-23.4375 406.25 1609
-203.125 242.188 1232
406.25 226.562 1206
437.5 351.562 1359
-390.625 70.3125 1185
-93.75 -132.812 1138
187.5 -7.8125 1161
-171.875 187.5 1288
179.688 7.8125 1165
39.0625 296.875 1894
250 7.8125 1161
195.312 351.562 1543
23.4375 -304.688 1439
-117.188 -257.812 1264
148.438 281.25 1883
-265.625 -140.625 1241
-429.688 226.562 1232
62.5 226.562 1843
-171.875 390.625 1302
351.562 -15.625 1157
273.438 -125 1126
195.312 328.125 1813
70.3125 7.8125 1165
0 54.6875 1134
492.188 23.4375 1165
437.5 390.625 1370
-445.312 312.5 1392
265.625 15.625 1189
-265.625 328.125 1387
-226.562 320.312 1410
-320.312 343.75 1343
484.375 343.75 1452
328.125 406.25 1273
-179.688 -109.375 1145
-437.5 312.5 1398
171.875 7.8125 1165
-289.062 -39.0625 1169
484.375 328.125 1452
164.062 414.062 1445
273.438 15.625 1185
-226.562 351.562 1333
-429.688 -414.062 3092
398.438 203.125 1197
234.375 -203.125 3365
406.25 7.8125 1227
132.812 7.8125 1161
23.4375 7.8125 1169
-7.8125 -171.875 1288
-85.9375 -265.625 1255
195.312 7.8125 1161
281.25 85.9375 1169
476.562 250 1202
7.8125 -242.188 1273
-226.562 335.938 1370
468.75 -343.75 3178
-265.625 312.5 1427
445.312 78.125 1157
-250 -101.562 1250
437.5 382.812 1398
484.375 375 1404
406.25 367.188 1338
125 -7.8125 1161
-164.062 375 1292
265.625 31.25 1153
-70.3125 -343.75 1477
429.688 -93.75 1503
-359.375 304.688 1427
-39.0625 -210.938 1278
109.375 437.5 1421
289.062 -15.625 1157
31.25 7.8125 1169
414.062 -437.5 3092
93.75 7.8125 1165
476.562 218.75 1202
-203.125 289.062 1288
476.562 351.562 1458
-414.062 -398.438 3120
-93.75 15.625 1181
492.188 351.562 1433
-164.062 328.125 1278
-203.125 148.438 1202
93.75 -171.875 1370
-31.25 304.688 1883
-476.562 328.125 1343
-429.688 -328.125 3178
-312.5 7.8125 1223
390.625 -78.125 1523
39.0625 -171.875 1392
140.625 375 1543
125 7.8125 1161
-54.6875 -7.8125 1165
-210.938 335.938 1376
-156.25 15.625 1181
187.5 -171.875 1219
-218.75 320.312 1410
-23.4375 15.625 1185
-257.812 15.625 1161
-218.75 335.938 1370
492.188 375 1387
-93.75 -328.125 1496
382.812 -7.8125 1288
132.812 -7.8125 1161
-203.125 -7.8125 1177
0 23.4375 1189
-296.875 -109.375 1189
-406.25 -109.375 1338
-78.125 -156.25 1288
359.375 -7.8125 1157
-351.562 -148.438 1193
445.312 -140.625 1477
453.125 304.688 1470
156.25 -7.8125 1161
-429.688 -312.5 3269
-281.25 343.75 1338
-281.25 312.5 1421
15.625 -203.125 1278
140.625 429.688 1427
-367.188 320.312 1404
-382.812 312.5 1404
-7.8125 0 1169
-296.875 -125 1206
398.438 367.188 1338
-273.438 328.125 1387
-54.6875 -312.5 1452
437.5 359.375 1387
-359.375 -23.4375 1177
-117.188 39.0625 1145
117.188 7.8125 1161
218.75 -195.312 1255
-375 -23.4375 1197
-343.75 273.438 1523
-15.625 0 1169
-484.375 -234.375 2812
-210.938 351.562 1328
-304.688 -171.875 1452
-257.812 265.625 1550
203.125 31.25 1161
-195.312 265.625 1264
-289.062 343.75 1338
-289.062 335.938 1376
-7.8125 -195.312 1288
-62.5 -312.5 1452
70.3125 -273.438 3333
-484.375 250 1445
492.188 62.5 1119
-242.188 343.75 1359
296.875 -187.5 3365
460.938 257.812 1206
445.312 70.3125 1130
367.188 390.625 1365
-437.5 -265.625 3333
7.8125 351.562 1757
-195.312 328.125 1278
484.375 156.25 1189
398.438 226.562 1206
-375 257.812 1557
359.375 390.625 1370
312.5 -179.688 3269
429.688 382.812 1387
-242.188 265.625 1564
-257.812 312.5 1427
-210.938 320.312 1410
453.125 320.312 1392
-257.812 -140.625 1245
-289.062 312.5 1410
-476.562 -140.625 2812
-351.562 234.375 1232
-148.438 304.688 1359
-398.438 226.562 1232
429.688 351.562 1359
226.562 437.5 1470
-335.938 31.25 1149
-195.312 7.8125 1181
375 203.125 1202
-78.125 -312.5 1458
-320.312 7.8125 1214
23.4375 54.6875 1130
-218.75 -31.25 1173
460.938 265.625 1464
-414.062 -421.875 3120
-429.688 -289.062 3178
-492.188 265.625 1250
484.375 351.562 1458
-78.125 -132.812 1149
70.3125 257.812 1863
429.688 -257.812 1445
-289.062 -140.625 1206
-296.875 -132.812 1210
-492.188 -117.188 2560
382.812 382.812 1322
-289.062 421.875 1536
-171.875 382.812 1297
250 54.6875 1126
46.875 296.875 1883
-234.375 273.438 1536
132.812 203.125 1823
-296.875 78.125 1189
375 -343.75 3120
-210.938 242.188 1227
-296.875 210.938 1219
335.938 -132.812 1130
156.25 7.8125 1165
359.375 367.188 1359
-335.938 273.438 1523
-398.438 289.062 1464
-195.312 359.375 1328
359.375 375 1359
375 382.812 1333
156.25 437.5 1421
187.5 15.625 1185
-218.75 289.062 1483
-429.688 -343.75 3178
-265.625 7.8125 1236
-289.062 320.312 1404
390.625 226.562 1206
-351.562 -7.8125 1177
-375 304.688 1421
-437.5 -257.812 3365
-484.375 195.312 1227
-234.375 265.625 1278
-273.438 343.75 1343
-234.375 328.125 1404
-382.812 328.125 1376
0 15.625 1177
-406.25 335.938 1338
148.438 7.8125 1161
-101.562 414.062 1365
-250 -93.75 1219
-203.125 7.8125 1181
382.812 398.438 1365
-218.75 281.25 1509
-437.5 328.125 1365
312.5 -15.625 1153
-195.312 281.25 1268
-31.25 -304.688 1255
-210.938 -78.125 1161
218.75 -164.062 1169
445.312 390.625 1370
-70.3125 -265.625 1259
125 367.188 1543
15.625 -296.875 1439
429.688 367.188 1370
273.438 7.8125 1157
-367.188 265.625 1543
-187.5 359.375 1297
-453.125 70.3125 1185
218.75 7.8125 1161
265.625 0 1157
-304.688 296.875 1464
187.5 -156.25 1185
-46.875 0 1169
-421.875 226.562 1232
-335.938 328.125 1381
281.25 0 1157
-257.812 -109.375 1206
375 375 1333
-46.875 -312.5 1458
-414.062 273.438 1503
-359.375 335.938 1343
-179.688 359.375 1288
-195.312 203.125 1219
-234.375 46.875 1141
-328.125 343.75 1343
-281.25 210.938 1223
-312.5 -93.75 1189
140.625 -7.8125 1157
7.8125 15.625 1173
-62.5 -117.188 1141
382.812 367.188 1338
-265.625 343.75 1343
-414.062 -460.938 3064
-85.9375 -132.812 1149
-250 335.938 1370
382.812 -343.75 3092
382.812 -179.688 1503
-195.312 289.062 1268
195.312 54.6875 1126
-382.812 -85.9375 1273
-281.25 31.25 1153
-179.688 312.5 1273
445.312 -93.75 1489
187.5 406.25 1452
164.062 31.25 1161
-359.375 320.312 1398
-320.312 -132.812 1223
164.062 -70.3125 1145
-429.688 -265.625 3238
-39.0625 0 1169
296.875 -117.188 1126
265.625 -15.625 1157
335.938 23.4375 1181
-7.8125 -117.188 1141
-15.625 -312.5 1259
-406.25 46.875 1141
-289.062 429.688 1516
-437.5 140.625 1206
398.438 -78.125 1516
-15.625 7.8125 1173
-218.75 351.562 1328
437.5 -195.312 1458
-320.312 328.125 1376
492.188 320.312 1415
-273.438 -125 1206
132.812 429.688 1421
-85.9375 -156.25 1288
367.188 320.312 1376
-429.688 -281.25 3208
257.812 -15.625 1157
281.25 31.25 1161
-468.75 351.562 1322
-242.188 31.25 1153
-7.8125 54.6875 1134
148.438 31.25 1149
-328.125 7.8125 1185
351.562 398.438 1376
-242.188 210.938 1219
382.812 226.562 1206
0 351.562 1757
359.375 398.438 1376
78.125 7.8125 1165
-375 320.312 1392
273.438 -15.625 1157
-7.8125 7.8125 1173
203.125 359.375 1523
-62.5 -281.25 1250
-414.062 328.125 1370
-218.75 -46.875 1161
-281.25 -125 1202
421.875 367.188 1359
-492.188 -140.625 2579
-296.875 320.312 1404
-351.562 148.438 1197
421.875 359.375 1359
-31.25 343.75 1766
398.438 289.062 1387
-265.625 -125 1210
195.312 375 1503
101.562 296.875 1883
-312.5 -85.9375 1169
-367.188 335.938 1343
-226.562 -46.875 1161
-7.8125 351.562 1757
-187.5 15.625 1185
-296.875 -140.625 1206
484.375 382.812 1392
