ply
format ascii 1.0
comment Created by Open3D
element vertex 2315
property double x
property double y
property double z
end_header
-62.5 437.5 1387
-210.938 7.8125 1105
351.562 -31.25 1250
390.625 265.625 998
-195.312 -171.875 1101
39.0625 429.688 1529
226.562 -359.375 995
70.3125 -210.938 1054
-234.375 382.812 1214
226.562 -351.562 984
-234.375 -109.375 1025
-281.25 7.8125 925
-250 148.438 978
-476.562 -31.25 906
125 437.5 1387
15.625 -39.0625 1219
-492.188 31.25 896
70.3125 -195.312 1067
-328.125 117.188 851
-62.5 -62.5 1232
-109.375 -195.312 1387
-101.562 -312.5 3208
148.438 -320.312 956
78.125 429.688 1536
-54.6875 -164.062 1343
54.6875 421.875 1138
-210.938 421.875 1328
62.5 -210.938 1057
-250 156.25 1028
429.688 -335.938 2933
-132.812 429.688 1387
-15.625 390.625 1041
-398.438 109.375 858
359.375 7.8125 1214
-54.6875 437.5 1509
-484.375 -320.312 1115
-187.5 390.625 1105
-382.812 109.375 856
-78.125 -343.75 3120
-164.062 -289.062 1241
-54.6875 85.9375 1105
-179.688 -250 1181
-445.312 -78.125 920
390.625 257.812 1004
23.4375 421.875 1529
296.875 -140.625 1376
-492.188 -320.312 984
195.312 -156.25 1090
-109.375 -312.5 3208
101.562 203.125 1028
-210.938 414.062 1297
-171.875 -289.062 1236
23.4375 -39.0625 1219
179.688 -31.25 1227
304.688 -46.875 1268
-203.125 -296.875 1245
203.125 -195.312 1054
328.125 -289.062 3120
-265.625 -359.375 3092
-265.625 210.938 943
-203.125 390.625 1292
-179.688 -117.188 1206
-109.375 281.25 956
-101.562 406.25 1349
-414.062 -312.5 1259
-250 93.75 995
-421.875 -312.5 1264
375 117.188 1115
-460.938 335.938 1543
-257.812 320.312 1057
-304.688 109.375 854
62.5 414.062 1134
-148.438 -195.312 1288
-453.125 351.562 1529
23.4375 -343.75 970
382.812 179.688 1070
-289.062 296.875 946
-406.25 -367.188 3092
-281.25 203.125 933
210.938 -226.562 1028
-164.062 429.688 1381
-382.812 101.562 856
382.812 -281.25 3064
-359.375 320.312 1477
39.0625 421.875 1130
-421.875 -367.188 3064
-93.75 367.188 1087
-257.812 304.688 946
-468.75 -46.875 928
-39.0625 414.062 1536
-437.5 -70.3125 920
-312.5 335.938 1470
210.938 -140.625 1101
343.75 -85.9375 1312
-164.062 -351.562 3120
125 132.812 1001
-453.125 -367.188 3064
-171.875 382.812 1097
-187.5 414.062 1387
335.938 -289.062 3092
-195.312 -70.3125 1157
257.812 39.0625 1177
-39.0625 -62.5 1232
-187.5 210.938 998
-476.562 257.812 948
-234.375 375 1134
-218.75 -7.8125 1070
382.812 187.5 1063
-85.9375 398.438 1165
-218.75 31.25 1070
-203.125 437.5 1376
-453.125 -78.125 920
140.625 203.125 1028
-179.688 -351.562 3120
109.375 125 1004
414.062 -273.438 3064
-343.75 -312.5 1264
-85.9375 406.25 1165
-85.9375 -343.75 3120
-218.75 -296.875 1245
-445.312 93.75 858
289.062 -296.875 3064
-54.6875 -140.625 1165
-46.875 414.062 1536
179.688 -101.562 1134
-101.562 -195.312 1387
-296.875 296.875 946
187.5 -132.812 1108
-210.938 -296.875 1250
-46.875 -78.125 1241
-257.812 -359.375 3092
-398.438 -62.5 930
-234.375 46.875 1047
-54.6875 -187.5 1376
-85.9375 437.5 1365
-335.938 335.938 1470
-429.688 101.562 858
-250 335.938 1084
-281.25 -359.375 3092
-320.312 -359.375 3092
-289.062 -359.375 3092
-296.875 54.6875 891
-398.438 -15.625 913
0 406.25 1044
-257.812 179.688 948
-187.5 -226.562 1157
-140.625 414.062 1349
-171.875 -351.562 3120
23.4375 445.312 1523
-70.3125 -195.312 1387
62.5 -335.938 959
296.875 -351.562 2958
0 421.875 1536
78.125 437.5 1529
-218.75 -148.438 1067
-257.812 -39.0625 964
-125 39.0625 1141
-437.5 -195.312 1022
-242.188 -304.688 1255
-265.625 140.625 959
-54.6875 -171.875 1141
-320.312 335.938 1477
-312.5 -304.688 1245
-296.875 187.5 913
-265.625 148.438 954
-468.75 7.8125 875
234.375 -304.688 962
-320.312 -304.688 1245
-500 -7.8125 880
-7.8125 -46.875 1227
-117.188 -195.312 1381
-328.125 -328.125 1268
-140.625 429.688 1381
187.5 -62.5 1165
109.375 -328.125 959
54.6875 -437.5 1077
-398.438 -367.188 3092
-218.75 46.875 1063
-93.75 414.062 1387
70.3125 429.688 1536
-70.3125 414.062 1404
-226.562 62.5 1050
-203.125 -23.4375 1094
-390.625 -54.6875 946
-484.375 85.9375 862
195.312 93.75 1123
375 125 1112
-54.6875 -132.812 1307
390.625 289.062 984
-437.5 93.75 858
218.75 -382.812 1025
-195.312 -54.6875 1161
0 445.312 1523
-171.875 421.875 1365
-78.125 429.688 1387
117.188 429.688 1410
-54.6875 -164.062 1343
164.062 -320.312 956
-179.688 15.625 1157
-15.625 -289.062 1022
-429.688 -312.5 1259
-171.875 -125 1219
476.562 218.75 2090
-125 -289.062 3120
-171.875 398.438 1101
195.312 -164.062 1077
-437.5 -273.438 1019
-289.062 46.875 896
-54.6875 -179.688 1365
281.25 -296.875 3064
226.562 85.9375 1134
437.5 -273.438 3010
-171.875 -296.875 1250
-367.188 117.188 856
226.562 -351.562 984
-15.625 -164.062 1123
-445.312 -62.5 920
-195.312 -234.375 1165
23.4375 429.688 1529
-171.875 -132.812 1219
343.75 -296.875 3037
-54.6875 -195.312 1387
-7.8125 406.25 1041
-445.312 -398.438 2984
203.125 -414.062 1077
-476.562 -367.188 3064
-320.312 -367.188 3092
218.75 -414.062 1080
-484.375 -31.25 906
-445.312 -367.188 3064
-492.188 93.75 862
-375 281.25 956
-7.8125 -351.562 975
289.062 -320.312 3037
-101.562 -351.562 3120
-109.375 125 1070
-484.375 -54.6875 930
210.938 -62.5 1268
-179.688 398.438 1105
7.8125 -289.062 1013
-195.312 421.875 1387
-70.3125 -343.75 3120
367.188 -281.25 3064
-164.062 421.875 1381
-15.625 421.875 1536
-460.938 93.75 858
23.4375 -85.9375 1173
15.625 421.875 1529
-54.6875 -101.562 1185
375 -281.25 3064
70.3125 414.062 1134
-62.5 437.5 1387
-500 -320.312 984
304.688 -289.062 3092
351.562 -289.062 3064
-187.5 -78.125 1165
-203.125 -46.875 1134
-367.188 328.125 1523
70.3125 -31.25 1214
-101.562 414.062 1349
-179.688 -351.562 3120
468.75 -265.625 3064
-148.438 398.438 1130
-218.75 375 1145
-343.75 289.062 954
62.5 429.688 1536
-109.375 289.062 951
226.562 -343.75 973
15.625 -343.75 970
-234.375 85.9375 1028
-39.0625 421.875 1536
-273.438 -304.688 1255
-46.875 421.875 1536
-335.938 289.062 951
289.062 -140.625 1376
-234.375 109.375 1067
140.625 132.812 1001
62.5 -195.312 1070
0 281.25 967
-351.562 328.125 1477
-234.375 39.0625 1047
-117.188 429.688 1381
-15.625 -359.375 978
-171.875 -140.625 1223
187.5 -117.188 1126
-54.6875 -70.3125 1245
-351.562 -312.5 1259
62.5 -31.25 1214
-476.562 85.9375 862
171.875 -70.3125 1165
-210.938 0 1112
-273.438 171.875 925
187.5 -85.9375 1153
-296.875 179.688 903
-203.125 -195.312 1119
-156.25 390.625 1115
-468.75 -367.188 3064
-414.062 -85.9375 915
-296.875 -359.375 3120
-156.25 406.25 1130
-328.125 109.375 851
390.625 -281.25 3064
-304.688 -359.375 3120
203.125 -62.5 1268
-234.375 -101.562 1019
234.375 -148.438 1376
171.875 -78.125 1157
23.4375 421.875 1529
-195.312 0 1165
328.125 -289.062 3120
23.4375 -31.25 1210
218.75 -390.625 1044
-218.75 -171.875 1090
-359.375 304.688 1489
-492.188 -15.625 891
-78.125 398.438 1165
-265.625 -39.0625 964
-328.125 -304.688 1250
-125 -312.5 3208
-398.438 101.562 856
-226.562 -296.875 1245
-117.188 414.062 1349
179.688 -109.375 1126
203.125 -195.312 1054
-500 250 946
-492.188 -320.312 984
54.6875 -343.75 962
-242.188 62.5 1022
-250 351.562 1108
-156.25 421.875 1387
335.938 -125 1365
-234.375 398.438 1259
39.0625 -195.312 1077
-109.375 414.062 1349
-101.562 -343.75 3149
-125 429.688 1381
-335.938 -304.688 1250
-476.562 304.688 1579
-304.688 148.438 871
-320.312 117.188 851
-7.8125 -382.812 992
-484.375 -320.312 1115
-273.438 0 933
-179.688 382.812 1097
-218.75 -296.875 1245
-54.6875 -171.875 1141
-218.75 31.25 1070
382.812 203.125 1044
70.3125 15.625 1177
-273.438 -359.375 3120
-203.125 390.625 1292
39.0625 398.438 1031
93.75 -421.875 1047
-187.5 -351.562 3149
-226.562 -328.125 3178
406.25 -281.25 3064
-203.125 -23.4375 1094
109.375 429.688 1410
-210.938 -31.25 1097
-179.688 -101.562 1206
343.75 -78.125 1302
-250 -304.688 1255
367.188 70.3125 1161
-242.188 117.188 984
-273.438 218.75 978
-406.25 320.312 1509
-218.75 -7.8125 1070
-125 -195.312 1381
-273.438 62.5 903
179.688 -101.562 1134
-62.5 -93.75 1268
390.625 367.188 938
-500 31.25 882
156.25 -320.312 956
-7.8125 421.875 1536
-304.688 335.938 1470
187.5 -140.625 1101
-406.25 -31.25 918
140.625 171.875 1028
93.75 -203.125 1054
31.25 -31.25 1210
-109.375 406.25 1349
460.938 -265.625 3037
70.3125 -203.125 1057
187.5 -132.812 1108
-148.438 421.875 1387
-437.5 101.562 858
164.062 -46.875 1193
-429.688 -367.188 3064
-179.688 -109.375 1202
15.625 429.688 1529
179.688 -109.375 1126
-351.562 359.375 1477
-257.812 -62.5 984
-171.875 -132.812 1219
343.75 -132.812 1376
226.562 -343.75 973
-226.562 375 1134
281.25 -140.625 1376
-460.938 -421.875 2933
-468.75 -281.25 1034
210.938 -54.6875 1259
-226.562 15.625 1067
15.625 390.625 1034
421.875 -273.438 3064
-140.625 414.062 1349
250 375 946
-468.75 375 1496
-70.3125 437.5 1387
-460.938 281.25 1609
-203.125 -54.6875 1134
-23.4375 390.625 1041
-429.688 -23.4375 913
367.188 78.125 1149
-367.188 109.375 856
-492.188 -46.875 959
-429.688 -226.562 989
-85.9375 -343.75 3120
-54.6875 -179.688 1365
-476.562 -15.625 901
-359.375 -304.688 1245
-281.25 304.688 951
54.6875 -31.25 1214
-93.75 -343.75 3149
226.562 -289.062 975
-132.812 -312.5 3208
-210.938 -195.312 1119
-445.312 -312.5 1255
109.375 125 1004
320.312 -289.062 3120
-62.5 -78.125 1250
195.312 406.25 1094
39.0625 406.25 1031
-328.125 -359.375 3092
-31.25 -54.6875 1232
273.438 -296.875 3120
-257.812 -31.25 959
-15.625 406.25 1044
54.6875 429.688 1536
-460.938 343.75 1536
85.9375 390.625 1087
-453.125 328.125 1536
-242.188 -296.875 1241
-179.688 -296.875 1250
46.875 -31.25 1214
218.75 -250 1007
351.562 -31.25 1250
-304.688 179.688 906
-54.6875 414.062 1543
218.75 -257.812 998
250 414.062 1094
-429.688 93.75 860
-101.562 429.688 1387
-54.6875 -187.5 1376
-367.188 320.312 1477
-93.75 429.688 1370
-203.125 -367.188 3092
-460.938 -367.188 3064
-171.875 421.875 1365
-500 -320.312 984
78.125 -203.125 1057
484.375 226.562 2053
203.125 -414.062 1077
210.938 -218.75 1034
78.125 -210.938 1054
-195.312 -351.562 3149
187.5 0 1202
367.188 62.5 1165
-281.25 203.125 933
226.562 -296.875 970
-335.938 117.188 854
7.8125 421.875 1543
-210.938 382.812 1134
-179.688 421.875 1365
-437.5 -312.5 1255
375 132.812 1101
140.625 421.875 1134
46.875 367.188 1050
46.875 421.875 1130
-382.812 -31.25 951
-343.75 335.938 1477
-23.4375 -62.5 1227
-445.312 39.0625 894
31.25 -39.0625 1219
-93.75 406.25 1387
-210.938 7.8125 1105
-367.188 -31.25 951
-164.062 -148.438 1245
195.312 -171.875 1073
-78.125 414.062 1404
0 -171.875 1108
-101.562 406.25 1349
-148.438 429.688 1381
-46.875 -62.5 1232
-367.188 -304.688 1245
-203.125 -140.625 1084
-414.062 -54.6875 925
-468.75 -23.4375 906
-218.75 -156.25 1077
7.8125 -39.0625 1219
-289.062 -359.375 3092
-296.875 343.75 1470
-500 -218.75 943
-234.375 39.0625 1047
-406.25 304.688 1523
109.375 -296.875 978
-54.6875 -179.688 1365
-234.375 -125 1047
-46.875 -140.625 1165
-265.625 -23.4375 954
171.875 -78.125 1157
-164.062 -117.188 1223
-437.5 -367.188 3064
-359.375 328.125 1483
218.75 -382.812 1025
-23.4375 328.125 943
-390.625 101.562 856
-187.5 -93.75 1181
226.562 -335.938 967
195.312 85.9375 1130
343.75 -109.375 1343
351.562 -23.4375 1245
414.062 -242.188 3120
171.875 -351.562 967
-210.938 46.875 1123
-187.5 -78.125 1165
-226.562 70.3125 1047
-445.312 70.3125 873
-265.625 140.625 959
-195.312 234.375 978
-398.438 -93.75 925
-62.5 -85.9375 1259
359.375 -93.75 1328
-195.312 -54.6875 1161
210.938 -93.75 1297
-234.375 390.625 1219
-39.0625 -54.6875 1227
-257.812 328.125 1070
-54.6875 -171.875 1141
-226.562 -296.875 1245
-54.6875 -164.062 1343
78.125 15.625 1177
54.6875 -429.688 1067
-390.625 -367.188 3092
-335.938 -304.688 1250
-500 85.9375 862
-195.312 -46.875 1157
-460.938 -46.875 906
296.875 -46.875 1268
54.6875 414.062 1138
-171.875 -140.625 1223
-304.688 296.875 948
-500 296.875 1333
-179.688 -257.812 1197
234.375 -304.688 962
-15.625 421.875 1536
-460.938 -62.5 928
-132.812 -195.312 1349
-421.875 -85.9375 915
-62.5 -187.5 1376
-179.688 414.062 1381
109.375 -148.438 1105
-203.125 -351.562 3149
-203.125 -125 1090
-210.938 0 1112
-351.562 -132.812 1044
-234.375 -109.375 1025
-54.6875 -148.438 1165
62.5 414.062 1134
7.8125 -54.6875 1210
-195.312 -78.125 1157
-281.25 23.4375 913
-226.562 -132.812 1057
-437.5 -70.3125 920
23.4375 -39.0625 1219
-218.75 437.5 1338
-210.938 -351.562 3149
-429.688 -31.25 913
-257.812 109.375 973
-171.875 -289.062 1236
-343.75 -359.375 3120
-500 257.812 943
-226.562 62.5 1050
-468.75 -62.5 928
-218.75 31.25 1070
-242.188 164.062 1025
-304.688 -359.375 3120
-156.25 406.25 1130
62.5 -210.938 1057
-406.25 125 869
-335.938 335.938 1470
-265.625 46.875 930
39.0625 -46.875 1206
-171.875 429.688 1365
-351.562 320.312 1477
-109.375 -85.9375 1255
-179.688 -351.562 3120
-296.875 -359.375 3120
476.562 -265.625 3037
-367.188 -312.5 1259
-187.5 -234.375 1165
117.188 39.0625 1157
-257.812 179.688 948
-445.312 -429.688 2908
210.938 -328.125 959
-320.312 -359.375 3092
210.938 -414.062 1077
-218.75 70.3125 1105
-101.562 -343.75 3149
-453.125 -78.125 920
-156.25 -179.688 1227
390.625 273.438 992
-468.75 257.812 951
-468.75 85.9375 860
-484.375 257.812 951
-414.062 -31.25 923
-164.062 398.438 1126
-265.625 195.312 943
140.625 195.312 1038
-351.562 289.062 954
93.75 -421.875 1047
46.875 -203.125 1067
343.75 -70.3125 1297
210.938 -234.375 1019
-234.375 -296.875 1241
-414.062 101.562 858
218.75 -375 1016
39.0625 375 1070
-257.812 312.5 1044
-250 359.375 1126
78.125 -328.125 962
46.875 375 1050
-265.625 289.062 943
-195.312 421.875 1387
179.688 -109.375 1126
187.5 -31.25 1227
-187.5 -296.875 1250
359.375 15.625 1206
312.5 -289.062 3092
-335.938 109.375 854
-171.875 -132.812 1219
-226.562 54.6875 1067
359.375 -281.25 3064
-15.625 -39.0625 1214
-125 312.5 943
-250 -70.3125 989
-117.188 437.5 1381
-265.625 210.938 943
-132.812 429.688 1387
-109.375 -343.75 3149
-156.25 -351.562 3120
-62.5 -101.562 1273
-476.562 39.0625 891
148.438 421.875 1130
-70.3125 -187.5 1376
-468.75 109.375 864
-265.625 203.125 943
-335.938 -359.375 3120
-234.375 85.9375 1028
-195.312 -351.562 3149
-171.875 -273.438 1214
-179.688 -109.375 1202
-343.75 -304.688 1250
-62.5 414.062 1404
-148.438 414.062 1130
-242.188 117.188 984
-187.5 382.812 1101
-31.25 390.625 1041
-406.25 101.562 858
-367.188 -304.688 1245
-195.312 -218.75 1145
-62.5 -78.125 1250
367.188 -281.25 3064
-359.375 -312.5 1259
-375 -312.5 1264
-312.5 296.875 948
31.25 375 1073
-304.688 93.75 864
203.125 -203.125 1044
-54.6875 -195.312 1387
-445.312 -70.3125 923
-109.375 437.5 1381
-23.4375 421.875 1543
-187.5 398.438 1105
-375 -304.688 1250
-226.562 429.688 1322
-226.562 421.875 1317
-109.375 429.688 1381
-460.938 0 885
15.625 -39.0625 1219
-289.062 210.938 938
-375 351.562 1489
-242.188 -296.875 1241
-54.6875 -179.688 1365
195.312 -171.875 1073
-125 -195.312 1381
-390.625 109.375 858
-250 -296.875 1245
-500 0 878
-296.875 351.562 1503
210.938 -406.25 1070
-398.438 335.938 1543
414.062 -273.438 3064
0 421.875 1536
-179.688 429.688 1365
46.875 382.812 1044
-171.875 398.438 1101
-273.438 -15.625 946
-250 85.9375 995
140.625 -320.312 956
78.125 328.125 940
-453.125 -312.5 1255
-78.125 437.5 1376
-62.5 -93.75 1268
-187.5 -257.812 1193
179.688 -93.75 1141
101.562 -23.4375 1214
-343.75 289.062 954
-445.312 -312.5 1255
-179.688 421.875 1365
-15.625 -46.875 1227
-125 437.5 1381
226.562 -335.938 967
-367.188 289.062 954
-421.875 -78.125 915
7.8125 421.875 1543
-54.6875 -203.125 1387
-210.938 0 1112
375 140.625 1094
-343.75 109.375 854
-210.938 -31.25 1097
-62.5 -70.3125 1245
-164.062 -156.25 1245
-117.188 -343.75 3149
-203.125 -54.6875 1134
-218.75 -351.562 3120
-187.5 -85.9375 1165
-46.875 414.062 1536
-210.938 -171.875 1090
-500 -46.875 946
-476.562 -281.25 1038
54.6875 -195.312 1073
54.6875 -335.938 962
46.875 414.062 1130
187.5 -140.625 1101
0 -343.75 973
-257.812 -46.875 973
-304.688 78.125 873
218.75 -367.188 1007
-7.8125 -46.875 1227
70.3125 -335.938 959
-414.062 -335.938 3149
-257.812 23.4375 940
-460.938 304.688 1579
-484.375 -15.625 891
-445.312 101.562 858
0 -39.0625 1214
-156.25 -312.5 1255
-203.125 -203.125 1126
-296.875 70.3125 878
-296.875 210.938 943
390.625 242.188 1016
-351.562 343.75 1489
-203.125 -218.75 1145
320.312 -31.25 1255
7.8125 390.625 1034
-359.375 -304.688 1245
-304.688 335.938 1470
-351.562 -359.375 3120
-429.688 109.375 862
-351.562 -359.375 3120
-179.688 -281.25 1227
85.9375 -421.875 1047
-429.688 265.625 954
-281.25 210.938 940
-281.25 210.938 940
-62.5 -78.125 1250
171.875 -78.125 1157
125 -23.4375 1214
-195.312 -54.6875 1161
-351.562 -304.688 1245
-289.062 328.125 1483
226.562 -328.125 962
-484.375 93.75 862
-226.562 -351.562 3120
335.938 -109.375 1338
335.938 -117.188 1354
-421.875 0 923
273.438 -296.875 3120
-257.812 -296.875 1245
-78.125 320.312 943
382.812 195.312 1050
390.625 320.312 962
-226.562 414.062 1288
-281.25 218.75 978
-46.875 -125 1173
226.562 -304.688 962
-367.188 -304.688 1245
382.812 203.125 1044
15.625 445.312 1516
-437.5 -62.5 923
-328.125 -359.375 3092
-273.438 -304.688 1255
179.688 -109.375 1126
-210.938 -351.562 3149
-476.562 296.875 1586
359.375 23.4375 1202
7.8125 -101.562 1169
-132.812 406.25 1343
93.75 -203.125 1054
179.688 -101.562 1134
-195.312 382.812 1112
54.6875 -210.938 1063
-335.938 125 856
-476.562 -320.312 1259
-148.438 -179.688 1292
-375 109.375 856
78.125 -62.5 1177
-140.625 -312.5 3208
-359.375 328.125 1483
-62.5 -85.9375 1259
-453.125 93.75 858
-226.562 15.625 1067
281.25 -140.625 1376
406.25 -273.438 3064
-398.438 101.562 856
-382.812 125 864
-273.438 164.062 925
-171.875 -296.875 1250
-226.562 -156.25 1077
179.688 -39.0625 1236
-85.9375 414.062 1404
390.625 296.875 978
-125 -343.75 3149
406.25 164.062 2170
-132.812 437.5 1387
78.125 429.688 1536
39.0625 429.688 1529
-437.5 -382.812 3037
218.75 -265.625 992
-367.188 -54.6875 954
-382.812 -304.688 1250
-218.75 0 1077
453.125 -265.625 3064
31.25 421.875 1543
0 -54.6875 1214
-85.9375 398.438 1165
-328.125 335.938 1470
171.875 -85.9375 1149
-101.562 437.5 1365
-328.125 117.188 851
-242.188 -85.9375 1007
-156.25 429.688 1381
-54.6875 -85.9375 1214
46.875 429.688 1529
-62.5 -117.188 1181
31.25 -156.25 1112
-375 312.5 1483
218.75 -375 1016
-281.25 -359.375 3092
-375 125 862
-132.812 -195.312 1349
-390.625 -62.5 946
-265.625 -15.625 948
-148.438 414.062 1130
218.75 -54.6875 1259
-70.3125 421.875 1387
437.5 289.062 1959
70.3125 -304.688 978
-304.688 156.25 880
226.562 -148.438 1376
257.812 -296.875 3092
101.562 437.5 1523
39.0625 414.062 1130
390.625 281.25 987
132.812 203.125 1028
-234.375 398.438 1259
-203.125 -31.25 1097
-375 -304.688 1250
-343.75 132.812 867
-304.688 70.3125 878
226.562 -328.125 962
-351.562 109.375 856
-281.25 195.312 923
-437.5 109.375 862
-445.312 -179.688 1016
-195.312 -296.875 1245
195.312 -179.688 1070
-320.312 132.812 860
164.062 93.75 1119
-398.438 109.375 858
187.5 179.688 1057
-375 117.188 856
-101.562 -296.875 3149
-398.438 -62.5 930
-62.5 -109.375 1185
-179.688 -125 1165
-359.375 -359.375 3092
-250 -320.312 1259
7.8125 429.688 1536
-273.438 171.875 925
-62.5 -101.562 1273
-31.25 421.875 1543
-492.188 85.9375 862
-335.938 -359.375 3120
-367.188 -359.375 3092
-54.6875 421.875 1536
-234.375 -351.562 3092
-195.312 390.625 1105
156.25 85.9375 1123
-132.812 -343.75 3149
-296.875 171.875 896
-382.812 -359.375 3092
140.625 187.5 1041
320.312 -289.062 3120
-257.812 109.375 973
-54.6875 -195.312 1387
-23.4375 -46.875 1227
-70.3125 203.125 1013
-414.062 -7.8125 930
-164.062 93.75 1087
-320.312 296.875 948
398.438 -273.438 3064
46.875 -437.5 1077
-343.75 -359.375 3120
46.875 -335.938 964
195.312 -164.062 1077
460.938 109.375 2256
-351.562 289.062 954
343.75 -281.25 3092
54.6875 429.688 1536
367.188 78.125 1149
-421.875 289.062 1509
-226.562 54.6875 1067
46.875 -203.125 1067
-296.875 187.5 913
54.6875 -31.25 1214
-23.4375 406.25 1047
-164.062 382.812 1126
-421.875 -31.25 918
343.75 -62.5 1292
-187.5 -85.9375 1165
-453.125 -54.6875 910
-343.75 335.938 1477
-203.125 -23.4375 1094
187.5 -140.625 1101
-406.25 -312.5 1259
-390.625 -359.375 3092
382.812 210.938 1041
-234.375 406.25 1268
187.5 -148.438 1094
15.625 421.875 1543
-460.938 117.188 871
-476.562 257.812 954
210.938 -242.188 1019
-250 -296.875 1245
-187.5 -101.562 1149
-421.875 -39.0625 923
492.188 -257.812 3010
78.125 414.062 1130
-460.938 -273.438 1034
-140.625 414.062 1338
-445.312 265.625 951
179.688 -46.875 1197
-62.5 421.875 1392
-187.5 -242.188 1177
-125 429.688 1523
-187.5 -62.5 1169
-187.5 421.875 1387
-203.125 -70.3125 1149
-351.562 335.938 1470
-218.75 -351.562 3092
-250 140.625 1041
-242.188 109.375 1010
-406.25 -70.3125 923
-265.625 -296.875 1241
-351.562 -359.375 3092
226.562 -312.5 964
382.812 218.75 1034
39.0625 -31.25 1214
-406.25 -15.625 913
218.75 -367.188 1010
70.3125 -328.125 967
117.188 437.5 1392
-421.875 -78.125 915
-54.6875 -187.5 1123
-429.688 -312.5 1259
-250 -78.125 995
-164.062 429.688 1381
-484.375 31.25 887
-226.562 -351.562 3092
-437.5 -31.25 913
54.6875 -195.312 1073
-281.25 312.5 1031
-390.625 -85.9375 956
-382.812 289.062 951
-218.75 23.4375 1087
-54.6875 -62.5 1236
-429.688 -132.812 1044
-421.875 -312.5 1264
93.75 437.5 1523
-148.438 414.062 1343
-242.188 -93.75 1016
-492.188 39.0625 889
226.562 -304.688 964
-242.188 117.188 1010
359.375 39.0625 1189
-234.375 78.125 1013
-210.938 0 1087
-179.688 -109.375 1214
-31.25 406.25 1044
-429.688 -39.0625 918
-265.625 203.125 935
179.688 -117.188 1123
54.6875 414.062 1130
-429.688 101.562 858
-203.125 382.812 1141
218.75 -148.438 1376
367.188 85.9375 1141
351.562 -39.0625 1273
-218.75 -15.625 1105
187.5 414.062 1108
-39.0625 -46.875 1227
-62.5 -93.75 1268
-93.75 414.062 1410
15.625 -31.25 1214
-492.188 93.75 860
-242.188 -109.375 1025
-7.8125 -39.0625 1219
367.188 0 1227
-468.75 117.188 871
218.75 -281.25 987
312.5 -31.25 1259
-273.438 -296.875 1245
-7.8125 421.875 1543
-164.062 398.438 1349
-62.5 -109.375 1189
-132.812 429.688 1516
-62.5 -78.125 1255
351.562 -15.625 1241
265.625 -296.875 3120
-250 148.438 1034
-468.75 -39.0625 906
78.125 437.5 1523
-39.0625 390.625 1034
-257.812 -296.875 1245
343.75 -54.6875 1283
-234.375 375 1126
23.4375 390.625 1025
117.188 -328.125 959
210.938 -234.375 1025
242.188 421.875 1105
195.312 398.438 1077
226.562 -328.125 964
-85.9375 437.5 1516
-382.812 -304.688 1255
23.4375 -70.3125 1189
-109.375 437.5 1509
-70.3125 414.062 1392
-429.688 -78.125 915
-265.625 335.938 1077
-218.75 -78.125 1013
-164.062 421.875 1381
-171.875 -281.25 1232
203.125 -210.938 1044
-187.5 -195.312 1138
-101.562 -46.875 1219
-242.188 -78.125 998
-289.062 54.6875 891
-226.562 -132.812 1057
-445.312 93.75 858
-140.625 -343.75 3120
-226.562 437.5 1333
390.625 289.062 984
-179.688 398.438 1404
-210.938 -179.688 1101
359.375 -281.25 3092
-242.188 -351.562 3092
-117.188 -195.312 1387
218.75 -359.375 1001
-281.25 -304.688 1255
-445.312 -343.75 3120
-210.938 421.875 1312
218.75 -273.438 992
-234.375 -62.5 998
-460.938 -312.5 1255
-390.625 -304.688 1245
-62.5 -117.188 1177
-460.938 -78.125 930
-273.438 164.062 938
-179.688 -304.688 1259
-281.25 304.688 946
-31.25 328.125 943
-210.938 -7.8125 1087
-218.75 406.25 1273
367.188 93.75 1138
78.125 -210.938 1054
445.312 -265.625 3064
-140.625 -195.312 1333
-78.125 -187.5 1376
-218.75 414.062 1288
-179.688 -265.625 1210
-70.3125 -304.688 3149
-218.75 -156.25 1077
351.562 -7.8125 1236
367.188 -281.25 3092
-171.875 -140.625 1245
-476.562 273.438 1609
-62.5 -195.312 1387
-179.688 -117.188 1223
-195.312 -62.5 1169
-289.062 109.375 862
203.125 -203.125 1047
-234.375 -117.188 1038
109.375 -320.312 962
0 -351.562 970
-117.188 -343.75 3120
187.5 -148.438 1097
312.5 -289.062 3092
-445.312 -257.812 995
-453.125 -312.5 1255
78.125 7.8125 1185
-367.188 -328.125 1283
-265.625 132.812 962
171.875 -85.9375 1153
85.9375 187.5 1038
-257.812 -328.125 3178
-156.25 -62.5 1232
-242.188 54.6875 1031
-500 46.875 871
-218.75 -179.688 1101
-421.875 109.375 860
-250 85.9375 1010
335.938 -101.562 1338
-382.812 -312.5 1264
46.875 -406.25 1028
-226.562 7.8125 1080
132.812 -328.125 956
-93.75 -304.688 3208
70.3125 429.688 1550
-382.812 312.5 1536
179.688 -117.188 1123
-203.125 398.438 1343
-500 -54.6875 954
-195.312 382.812 1134
-398.438 -359.375 3092
-62.5 -101.562 1278
109.375 15.625 1181
328.125 -289.062 3120
-445.312 109.375 860
-320.312 125 851
-132.812 -343.75 3120
-54.6875 -179.688 1123
226.562 -312.5 964
-195.312 -78.125 1173
-62.5 -125 1302
-62.5 -132.812 1312
-500 -226.562 962
234.375 156.25 1077
-203.125 -351.562 3120
-421.875 -85.9375 915
-281.25 195.312 925
-39.0625 -78.125 1210
39.0625 -203.125 1067
-117.188 -273.438 3092
0 445.312 1516
-117.188 429.688 1516
382.812 226.562 1031
312.5 0 1223
70.3125 421.875 1130
0 421.875 1543
-39.0625 -54.6875 1232
-242.188 101.562 1016
54.6875 -218.75 1054
226.562 -320.312 964
-242.188 109.375 1010
117.188 343.75 940
-140.625 429.688 1381
-312.5 335.938 1470
-156.25 -171.875 1273
125 -218.75 1041
-312.5 93.75 858
-273.438 335.938 1067
-210.938 -101.562 1038
-203.125 -31.25 1145
-187.5 -351.562 3120
-164.062 -101.562 1268
-234.375 -351.562 3092
-234.375 31.25 1057
-171.875 -132.812 1245
-23.4375 -39.0625 1219
-195.312 -242.188 1177
-351.562 335.938 1470
70.3125 -210.938 1054
-156.25 -359.375 3092
-335.938 328.125 1470
-171.875 -148.438 1232
-171.875 -148.438 1232
-281.25 -296.875 1245
-406.25 328.125 1529
-171.875 406.25 1404
-375 328.125 1516
-23.4375 -289.062 1025
-460.938 109.375 862
-187.5 -101.562 1149
39.0625 273.438 973
-195.312 15.625 1157
351.562 -281.25 3064
-148.438 -343.75 3149
210.938 -398.438 1054
218.75 -398.438 1057
39.0625 -257.812 1025
-312.5 -359.375 3092
148.438 140.625 1038
-54.6875 -171.875 1126
-195.312 421.875 1387
-203.125 -62.5 1149
257.812 -296.875 3120
-460.938 -359.375 3064
203.125 -187.5 1060
-23.4375 -351.562 984
304.688 -289.062 3092
31.25 429.688 1529
-242.188 62.5 1031
-132.812 312.5 943
-187.5 429.688 1381
-437.5 -312.5 1259
-23.4375 -117.188 1169
-218.75 -7.8125 1087
-468.75 -46.875 910
101.562 125 1004
351.562 -46.875 1278
93.75 -23.4375 1219
265.625 -351.562 2958
140.625 421.875 1126
-46.875 -54.6875 1232
-296.875 -304.688 1255
-195.312 429.688 1387
-93.75 -54.6875 1232
-62.5 -70.3125 1245
31.25 -343.75 967
-109.375 406.25 1349
-257.812 -351.562 3092
31.25 406.25 1034
-382.812 265.625 946
-164.062 -343.75 3149
-289.062 343.75 1489
-312.5 164.062 885
0 429.688 1536
-289.062 203.125 930
390.625 -273.438 3064
-484.375 257.812 956
218.75 -359.375 1001
320.312 -93.75 1333
-492.188 -23.4375 938
-406.25 -7.8125 923
-179.688 -289.062 1245
164.062 -62.5 1173
234.375 -382.812 1054
-62.5 -117.188 1177
-187.5 -85.9375 1185
-226.562 46.875 1050
-414.062 -250 1173
85.9375 -23.4375 1214
195.312 -414.062 1073
-421.875 -359.375 3092
-296.875 203.125 930
-203.125 -203.125 1126
-390.625 -46.875 948
-382.812 -359.375 3120
-156.25 -187.5 1283
156.25 -39.0625 1197
-62.5 -148.438 1161
359.375 46.875 1185
-171.875 -54.6875 1223
-265.625 -296.875 1241
460.938 -265.625 3064
-226.562 -140.625 1063
-179.688 -117.188 1223
-195.312 -210.938 1134
-257.812 312.5 946
195.312 -187.5 1060
-429.688 0 923
39.0625 -335.938 967
-500 265.625 1338
85.9375 -203.125 1054
-70.3125 421.875 1392
31.25 390.625 1034
46.875 -31.25 1219
-250 -70.3125 992
164.062 -31.25 1227
-250 140.625 1041
375 148.438 1090
-62.5 -140.625 1161
-203.125 -39.0625 1149
375 164.062 1080
-468.75 -312.5 1255
-320.312 296.875 948
132.812 437.5 1392
125 437.5 1392
-226.562 -85.9375 1022
39.0625 429.688 1529
-62.5 -109.375 1189
-54.6875 -62.5 1236
-289.062 39.0625 903
-187.5 -93.75 1153
-62.5 -125 1302
164.062 -39.0625 1197
-179.688 406.25 1387
-101.562 -304.688 3149
-78.125 -304.688 3178
62.5 -218.75 1050
-234.375 -132.812 1057
-398.438 -304.688 1245
210.938 -242.188 1019
-62.5 414.062 1392
-62.5 -132.812 1312
-187.5 -296.875 1250
-250 -351.562 3120
179.688 -125 1112
492.188 218.75 2078
-234.375 78.125 1013
-492.188 -46.875 959
101.562 -335.938 956
-218.75 23.4375 1087
-273.438 -296.875 1245
-265.625 -46.875 973
-195.312 -62.5 1169
-218.75 -93.75 1038
-257.812 -46.875 973
375 156.25 1087
-164.062 -273.438 1219
-218.75 -85.9375 1022
171.875 -93.75 1141
125 132.812 1001
-218.75 -15.625 1105
-390.625 -359.375 3120
-195.312 -218.75 1149
-398.438 -78.125 933
-195.312 -85.9375 1161
226.562 -320.312 964
-390.625 -304.688 1245
-210.938 -7.8125 1087
-210.938 -15.625 1115
-437.5 -39.0625 913
-492.188 15.625 882
203.125 -218.75 1038
-289.062 46.875 896
-156.25 -343.75 3149
70.3125 164.062 1054
-406.25 -359.375 3092
-39.0625 406.25 1047
7.8125 -39.0625 1219
54.6875 -195.312 1073
101.562 -39.0625 1202
-257.812 -70.3125 992
-359.375 289.062 946
226.562 -304.688 964
304.688 -140.625 1381
-367.188 320.312 1483
218.75 -351.562 984
62.5 -328.125 967
-54.6875 -70.3125 1245
93.75 -195.312 1063
-414.062 -359.375 3092
-171.875 398.438 1404
-171.875 -140.625 1245
-281.25 0 933
-117.188 296.875 943
-265.625 -351.562 3120
-500 -46.875 946
-429.688 -15.625 913
-257.812 320.312 1050
-250 -85.9375 1007
-382.812 -328.125 1273
-226.562 54.6875 1044
171.875 -85.9375 1153
-343.75 328.125 1470
210.938 -390.625 1044
-304.688 164.062 885
78.125 164.062 1054
-421.875 281.25 954
-218.75 -164.062 1087
-218.75 -164.062 1087
-210.938 -39.0625 1126
-226.562 7.8125 1080
-460.938 351.562 1529
-468.75 39.0625 891
406.25 -46.875 2598
125 421.875 1134
-453.125 343.75 1496
62.5 -195.312 1073
-70.3125 -335.938 3120
179.688 -117.188 1123
-320.312 140.625 862
-54.6875 -195.312 1115
-281.25 312.5 1031
-78.125 414.062 1392
234.375 429.688 1119
-210.938 -203.125 1130
-7.8125 -109.375 1165
-234.375 -62.5 998
-70.3125 437.5 1509
-250 -93.75 1010
-250 -93.75 1010
-93.75 -140.625 1317
-445.312 -7.8125 908
-179.688 -117.188 1223
-234.375 31.25 1057
-390.625 -382.812 3064
-23.4375 -46.875 1232
-484.375 -242.188 1054
46.875 132.812 1077
367.188 101.562 1134
-242.188 54.6875 1031
-273.438 54.6875 913
-421.875 -445.312 2859
-484.375 -281.25 1038
398.438 398.438 1833
-398.438 359.375 1536
-382.812 296.875 1503
-203.125 -62.5 1149
-265.625 39.0625 938
265.625 390.625 1044
-476.562 -234.375 956
195.312 -78.125 1292
-382.812 351.562 1489
-164.062 -156.25 1227
-304.688 195.312 923
-226.562 -85.9375 1022
-273.438 156.25 908
195.312 -171.875 1073
187.5 -148.438 1097
-414.062 -281.25 1214
-281.25 15.625 923
-398.438 -85.9375 954
-203.125 -39.0625 1149
31.25 -85.9375 1169
-195.312 93.75 1087
-195.312 -70.3125 1173
203.125 -210.938 1044
210.938 375 948
-265.625 -31.25 956
-257.812 -54.6875 978
-195.312 -226.562 1157
203.125 -31.25 1236
210.938 -250 1013
-367.188 296.875 1503
-460.938 -250 973
-187.5 -359.375 3120
-148.438 437.5 1381
-125 -343.75 3120
156.25 -39.0625 1197
390.625 296.875 984
-226.562 296.875 943
-31.25 -54.6875 1236
-367.188 -359.375 3092
164.062 -62.5 1173
406.25 -273.438 3092
-62.5 -70.3125 1245
-242.188 109.375 1010
-500 304.688 1322
-265.625 226.562 975
-210.938 -7.8125 1087
171.875 -320.312 959
164.062 -85.9375 1153
187.5 -320.312 962
281.25 -39.0625 1264
-429.688 -359.375 3092
-187.5 -93.75 1153
-375 -359.375 3092
-62.5 -140.625 1161
-281.25 187.5 920
-265.625 -23.4375 954
-304.688 85.9375 867
-218.75 -78.125 1013
117.188 195.312 1034
-85.9375 -187.5 1376
-289.062 234.375 964
-289.062 23.4375 913
382.812 218.75 1034
-257.812 164.062 959
335.938 -85.9375 1317
-62.5 -132.812 1312
-234.375 78.125 1013
257.812 398.438 1060
210.938 382.812 1047
-367.188 328.125 1489
46.875 -429.688 1070
-250 78.125 998
-62.5 -156.25 1161
218.75 -289.062 981
-226.562 46.875 1050
171.875 -93.75 1141
179.688 -125 1112
-273.438 -23.4375 951
-492.188 -250 995
226.562 -312.5 964
-406.25 -375 3064
-140.625 -343.75 3120
-257.812 101.562 981
-273.438 0 933
343.75 -46.875 1278
-265.625 195.312 933
171.875 437.5 1138
-289.062 31.25 908
-179.688 -132.812 1210
-468.75 -273.438 1038
195.312 -187.5 1060
-218.75 -23.4375 1101
-46.875 78.125 1115
-296.875 46.875 896
-445.312 -23.4375 910
-460.938 -265.625 1038
-500 320.312 1333
-62.5 -117.188 1177
-250 -78.125 995
328.125 -125 1370
-437.5 -15.625 910
101.562 125 1004
101.562 -328.125 959
-187.5 -265.625 1210
468.75 226.562 2065
-273.438 -7.8125 935
-468.75 31.25 875
187.5 -156.25 1090
-382.812 304.688 1543
390.625 304.688 975
492.188 -312.5 2701
39.0625 -421.875 1057
125 140.625 1001
-203.125 -210.938 1134
421.875 78.125 2333
-62.5 -125 1302
-257.812 179.688 959
-382.812 375 1509
390.625 312.5 967
390.625 312.5 967
-421.875 179.688 938
-296.875 62.5 882
-390.625 343.75 1503
-187.5 -242.188 1177
-226.562 437.5 1333
492.188 -226.562 3064
-179.688 -210.938 1173
-265.625 203.125 935
179.688 -54.6875 1177
-265.625 125 954
343.75 -54.6875 1283
171.875 -54.6875 1181
-179.688 421.875 1381
23.4375 421.875 1543
218.75 -351.562 984
-406.25 -85.9375 920
-85.9375 -46.875 1219
-203.125 -195.312 1123
-257.812 148.438 954
-156.25 -195.312 1278
-226.562 0 1077
-195.312 -70.3125 1173
343.75 -70.3125 1307
-203.125 -70.3125 1149
335.938 -93.75 1333
-226.562 -54.6875 998
-31.25 -70.3125 1219
-62.5 -62.5 1236
-179.688 -289.062 1245
-218.75 -101.562 1038
-281.25 7.8125 928
-101.562 -281.25 3120
-234.375 -140.625 1060
-257.812 335.938 1080
-78.125 -312.5 3149
281.25 367.188 940
-164.062 -164.062 1264
39.0625 -210.938 1063
-226.562 39.0625 1070
460.938 -234.375 3149
-210.938 -164.062 1087
-257.812 156.25 959
-210.938 -187.5 1115
195.312 398.438 1077
31.25 -187.5 1084
-203.125 -39.0625 1149
7.8125 -273.438 1025
-250 132.812 1047
-31.25 -250 1057
-218.75 -93.75 1038
-187.5 -109.375 1181
-187.5 -250 1185
-218.75 -187.5 1112
-218.75 -85.9375 1022
-242.188 101.562 1016
-320.312 109.375 851
179.688 -132.812 1108
-242.188 -101.562 1022
-218.75 15.625 1101
156.25 140.625 1041
-226.562 -351.562 3092
-15.625 -328.125 992
-132.812 398.438 1130
-437.5 -242.188 984
351.562 7.8125 1219
-414.062 -78.125 918
93.75 -195.312 1063
-210.938 -46.875 1119
-421.875 273.438 954
46.875 -210.938 1063
-218.75 23.4375 1087
-445.312 7.8125 910
-273.438 39.0625 910
-234.375 70.3125 1050
-62.5 -140.625 1161
-210.938 -15.625 1115
-460.938 -62.5 928
-492.188 -226.562 951
203.125 -226.562 1031
-437.5 -210.938 1019
-179.688 -132.812 1210
-54.6875 -117.188 1177
179.688 -125 1112
-179.688 -125 1210
-226.562 -164.062 1087
375 164.062 1080
-281.25 187.5 920
-296.875 39.0625 903
187.5 -164.062 1073
187.5 -164.062 1073
-70.3125 -62.5 1236
-179.688 -265.625 1210
171.875 -46.875 1197
164.062 -70.3125 1169
-289.062 328.125 1483
-226.562 -93.75 1022
375 179.688 1070
226.562 437.5 1145
351.562 -7.8125 1236
-218.75 -23.4375 1067
203.125 -7.8125 1223
-257.812 101.562 987
-476.562 -39.0625 908
-179.688 -273.438 1223
-250 -93.75 1013
-320.312 296.875 951
218.75 -281.25 989
-234.375 -125 1050
-242.188 -93.75 1019
203.125 -218.75 1041
-468.75 7.8125 873
218.75 -296.875 973
-226.562 46.875 1060
-257.812 171.875 967
-273.438 -296.875 1250
-359.375 289.062 948
351.562 0 1236
-265.625 -39.0625 967
-62.5 93.75 1105
-226.562 0 1090
296.875 359.375 938
-234.375 23.4375 1067
398.438 210.938 1044
-445.312 -70.3125 918
382.812 226.562 1034
210.938 -257.812 1007
171.875 -101.562 1138
-62.5 -148.438 1153
-484.375 0 891
-226.562 -148.438 1073
484.375 -390.625 2659
-257.812 15.625 967
-281.25 78.125 882
-375 320.312 1483
-312.5 359.375 1496
125 437.5 1134
359.375 54.6875 1181
-62.5 -156.25 1149
164.062 -46.875 1193
179.688 -132.812 1108
54.6875 -203.125 1063
-265.625 0 940
210.938 -390.625 1054
210.938 -382.812 1044
78.125 429.688 1138
-265.625 -296.875 1250
-78.125 414.062 1404
-234.375 406.25 1250
-250 132.812 1050
-289.062 15.625 923
-195.312 -70.3125 1185
476.562 -351.562 2859
-171.875 -156.25 1202
-390.625 -304.688 1259
140.625 179.688 1034
-492.188 -31.25 948
-187.5 -273.438 1223
-421.875 -78.125 915
-62.5 -132.812 1165
70.3125 429.688 1126
-203.125 -70.3125 1149
484.375 -234.375 3092
-312.5 109.375 856
-195.312 -62.5 1181
359.375 39.0625 1193
171.875 -62.5 1173
-437.5 -226.562 989
-289.062 101.562 864
-218.75 406.25 1255
-101.562 406.25 1130
-234.375 414.062 1268
39.0625 414.062 1126
70.3125 -210.938 1054
-203.125 429.688 1381
-226.562 -85.9375 1025
187.5 406.25 1087
-242.188 109.375 1007
62.5 -210.938 1057
-218.75 31.25 1073
-429.688 101.562 856
-257.812 -296.875 1255
46.875 367.188 1044
-242.188 -117.188 1041
-210.938 -117.188 1057
359.375 62.5 1173
-343.75 109.375 851
453.125 -210.938 3092
210.938 195.312 1050
-218.75 429.688 1307
195.312 -39.0625 1255
-382.812 -304.688 1259
-203.125 -46.875 1153
7.8125 -39.0625 1219
-382.812 -31.25 954
312.5 -31.25 1264
31.25 367.188 1047
-226.562 -140.625 1063
-257.812 164.062 967
7.8125 390.625 1016
-234.375 70.3125 1054
54.6875 -195.312 1070
-437.5 -7.8125 913
-78.125 351.562 1041
484.375 218.75 2103
148.438 -31.25 1214
-484.375 -226.562 959
0 390.625 1038
-195.312 382.812 1130
-281.25 234.375 967
85.9375 -203.125 1054
39.0625 390.625 1038
-179.688 406.25 1415
-359.375 -304.688 1255
-273.438 156.25 920
70.3125 -296.875 989
-328.125 117.188 851
195.312 -195.312 1057
-500 -218.75 951
476.562 -218.75 3120
54.6875 414.062 1126
-93.75 351.562 1047
-250 125 998
-250 140.625 1044
132.812 445.312 1338
-242.188 101.562 1016
78.125 429.688 1138
-171.875 -148.438 1250
-335.938 109.375 851
-78.125 -187.5 1387
-187.5 -93.75 1210
0 421.875 1134
179.688 -148.438 1094
-437.5 15.625 915
-281.25 179.688 913
-375 109.375 849
-62.5 -164.062 1141
54.6875 -210.938 1060
-85.9375 437.5 1529
-210.938 -15.625 1126
-93.75 414.062 1398
-484.375 93.75 858
-210.938 -46.875 1134
-140.625 429.688 1333
-226.562 429.688 1307
-281.25 218.75 946
-31.25 390.625 1038
-398.438 109.375 856
218.75 445.312 1153
62.5 7.8125 1185
39.0625 429.688 1529
-23.4375 406.25 1038
-500 265.625 946
62.5 -195.312 1067
-85.9375 -187.5 1387
-148.438 -195.312 1297
-101.562 -46.875 1223
-70.3125 414.062 1404
-296.875 54.6875 894
250 406.25 1073
179.688 -132.812 1108
-164.062 -164.062 1283
-218.75 7.8125 1094
-382.812 -304.688 1259
-398.438 101.562 856
46.875 414.062 1130
156.25 -46.875 1193
328.125 351.562 940
54.6875 -31.25 1223
-265.625 179.688 956
-203.125 -234.375 1173
-273.438 -15.625 951
-500 0 878
-195.312 -54.6875 1181
93.75 429.688 1126
-437.5 23.4375 908
-257.812 -62.5 987
-257.812 -62.5 987
-7.8125 421.875 1141
31.25 -273.438 1016
85.9375 429.688 1130
-304.688 335.938 1477
-445.312 0 910
-210.938 -210.938 1141
-406.25 -85.9375 920
273.438 -335.938 3010
179.688 429.688 1130
-39.0625 -54.6875 1236
-85.9375 398.438 1130
-187.5 429.688 1376
-468.75 -62.5 930
62.5 414.062 1123
23.4375 390.625 1034
31.25 390.625 1034
218.75 -304.688 970
312.5 351.562 940
-492.188 7.8125 880
-398.438 -304.688 1255
-265.625 304.688 943
-421.875 109.375 856
-195.312 -226.562 1161
46.875 429.688 1138
-335.938 109.375 851
-23.4375 390.625 1034
-468.75 -226.562 962
101.562 -328.125 962
351.562 351.562 940
281.25 351.562 938
-328.125 109.375 854
-468.75 -15.625 901
-460.938 -70.3125 920
-195.312 429.688 1381
85.9375 179.688 1034
-140.625 437.5 1387
-445.312 164.062 918
70.3125 -203.125 1060
132.812 187.5 1041
-445.312 93.75 858
-351.562 117.188 851
-179.688 398.438 1410
-304.688 62.5 885
-187.5 -210.938 1149
-468.75 -242.188 970
78.125 -210.938 1054
-187.5 421.875 1381
-148.438 437.5 1387
257.812 359.375 940
-109.375 437.5 1516
-375 117.188 849
187.5 -46.875 1255
62.5 -210.938 1057
-281.25 -7.8125 938
-250 78.125 1019
-390.625 109.375 856
-468.75 -312.5 1259
-195.312 -93.75 1173
-500 -46.875 948
78.125 -203.125 1060
54.6875 414.062 1126
-148.438 414.062 1338
85.9375 437.5 1415
54.6875 -210.938 1060
-500 -62.5 962
140.625 421.875 1123
-351.562 289.062 951
-304.688 289.062 943
46.875 -31.25 1223
-250 -296.875 1250
-468.75 23.4375 873
-195.312 421.875 1387
-312.5 296.875 948
-375 -304.688 1259
-390.625 -304.688 1259
0 429.688 1536
-140.625 -195.312 1354
7.8125 429.688 1536
203.125 382.812 1047
46.875 -210.938 1063
85.9375 -187.5 1067
164.062 -70.3125 1169
-265.625 195.312 956
-226.562 398.438 1245
-273.438 -296.875 1250
-171.875 -281.25 1236
62.5 -195.312 1067
-171.875 398.438 1134
-367.188 -304.688 1255
-195.312 398.438 1410
289.062 351.562 938
171.875 -101.562 1138
-226.562 -171.875 1097
-171.875 406.25 1415
-312.5 85.9375 869
-500 -54.6875 956
54.6875 7.8125 1185
-62.5 -171.875 1141
492.188 -390.625 2618
-39.0625 406.25 1041
421.875 343.75 1904
-226.562 0 1090
234.375 351.562 940
-109.375 -46.875 1227
-179.688 -125 1232
-257.812 -296.875 1255
179.688 -296.875 973
281.25 -140.625 1387
-70.3125 -187.5 1387
-203.125 406.25 1398
7.8125 421.875 1134
-265.625 -296.875 1250
-265.625 -54.6875 984
-78.125 437.5 1529
265.625 382.812 1034
-195.312 -234.375 1173
320.312 -257.812 3178
85.9375 -195.312 1063
343.75 -125 1381
-484.375 93.75 858
-265.625 125 964
-54.6875 -62.5 1241
-351.562 -304.688 1255
101.562 125 1016
31.25 125 1087
93.75 429.688 1126
-421.875 101.562 856
70.3125 414.062 1123
-203.125 -203.125 1134
-460.938 -312.5 1259
-195.312 382.812 1130
-132.812 429.688 1333
-218.75 -164.062 1090
15.625 437.5 1523
171.875 -70.3125 1169
-335.938 117.188 849
101.562 429.688 1153
-445.312 -70.3125 918
-414.062 -85.9375 920
195.312 -46.875 1259
-382.812 281.25 948
-390.625 101.562 856
367.188 351.562 943
-273.438 218.75 933
-367.188 109.375 849
210.938 -250 1013
-359.375 -304.688 1255
-437.5 101.562 856
-54.6875 414.062 1119
-242.188 -296.875 1255
-289.062 242.188 962
-31.25 406.25 1041
-296.875 85.9375 873
-140.625 -343.75 3120
203.125 -226.562 1028
101.562 437.5 1153
-23.4375 -351.562 981
-250 148.438 1038
-382.812 -359.375 3092
-132.812 -195.312 1392
-367.188 117.188 849
-101.562 437.5 1516
0 -343.75 975
-7.8125 -382.812 998
-218.75 -171.875 1097
-226.562 39.0625 1070
398.438 117.188 2271
-250 -351.562 3092
257.812 -296.875 3120
273.438 375 948
46.875 -414.062 1050
257.812 351.562 940
164.062 445.312 1197
218.75 7.8125 1210
-343.75 289.062 951
-273.438 148.438 959
-85.9375 398.438 1130
179.688 164.062 1070
0 421.875 1134
-343.75 -304.688 1255
-453.125 0 901
46.875 132.812 1080
54.6875 -203.125 1063
-187.5 -101.562 1165
62.5 414.062 1123
-179.688 421.875 1387
-453.125 -78.125 915
-132.812 437.5 1381
109.375 429.688 1130
-62.5 414.062 1398
-289.062 31.25 910
-156.25 -343.75 3120
-257.812 7.8125 975
46.875 -335.938 967
335.938 -31.25 1268
-187.5 -117.188 1161
39.0625 -335.938 967
-195.312 -78.125 1189
156.25 -320.312 959
-15.625 390.625 1034
-78.125 398.438 1041
-117.188 -132.812 1317
-281.25 218.75 946
15.625 421.875 1134
109.375 -328.125 962
117.188 -320.312 962
-203.125 -210.938 1141
78.125 -328.125 964
46.875 -210.938 1063
0 445.312 1523
-203.125 -46.875 1153
195.312 -187.5 1063
-234.375 -296.875 1250
296.875 -46.875 1278
335.938 351.562 938
-351.562 335.938 1458
23.4375 421.875 1130
-265.625 117.188 962
-390.625 -359.375 3092
-320.312 117.188 851
-15.625 421.875 1153
-382.812 -304.688 1259
-85.9375 414.062 1392
-242.188 335.938 1067
-7.8125 390.625 1034
101.562 117.188 1016
-250 117.188 1010
-15.625 406.25 1034
-117.188 414.062 1338
187.5 -156.25 1094
-148.438 414.062 1338
-23.4375 421.875 1550
70.3125 -195.312 1067
-250 70.3125 1016
-54.6875 414.062 1119
-375 -46.875 951
-335.938 -304.688 1255
-93.75 351.562 1047
-445.312 -312.5 1259
-492.188 -54.6875 923
-304.688 335.938 1477
-132.812 -343.75 3120
125 343.75 938
78.125 414.062 1123
320.312 -31.25 1264
-226.562 -296.875 1255
-414.062 101.562 856
-265.625 -351.562 3092
320.312 351.562 940
0 390.625 1038
-484.375 -281.25 1034
-179.688 382.812 1126
-226.562 -351.562 3092
-125 -195.312 1392
234.375 429.688 1112
-476.562 85.9375 858
117.188 437.5 1392
156.25 -46.875 1193
-250 359.375 1112
23.4375 -39.0625 1223
125 421.875 1130
351.562 359.375 938
226.562 437.5 1141
7.8125 421.875 1134
-171.875 398.438 1134
78.125 -195.312 1067
-70.3125 437.5 1523
85.9375 414.062 1123
-148.438 -343.75 3120
-7.8125 406.25 1034
-429.688 -85.9375 915
-257.812 156.25 964
-367.188 -304.688 1255
406.25 -273.438 3092
359.375 -281.25 3092
-62.5 421.875 1392
-445.312 -7.8125 908
-414.062 -359.375 3064
-179.688 421.875 1387
117.188 343.75 938
-242.188 85.9375 1022
-367.188 -359.375 3092
-429.688 101.562 856
-304.688 296.875 946
70.3125 -210.938 1054
7.8125 390.625 1016
164.062 -78.125 1161
-78.125 414.062 1404
390.625 351.562 943
-476.562 -39.0625 908
-70.3125 398.438 1034
-156.25 429.688 1381
242.188 414.062 1087
-125 390.625 1123
-54.6875 421.875 1392
-226.562 -93.75 1025
140.625 343.75 938
85.9375 7.8125 1193
-406.25 101.562 856
-46.875 70.3125 1123
148.438 -39.0625 1202
-132.812 101.562 1087
242.188 351.562 940
-460.938 93.75 856
-7.8125 421.875 1141
265.625 -296.875 3120
-125 414.062 1338
328.125 7.8125 1223
-312.5 335.938 1477
-31.25 -54.6875 1236
117.188 429.688 1123
-453.125 -78.125 915
101.562 429.688 1153
-492.188 -31.25 948
-359.375 109.375 854
156.25 -54.6875 1177
-445.312 109.375 856
-492.188 85.9375 858
-23.4375 -46.875 1232
-273.438 85.9375 915
-46.875 414.062 1123
46.875 7.8125 1185
-179.688 -289.062 1250
187.5 343.75 940
-453.125 93.75 856
-218.75 -296.875 1255
70.3125 429.688 1126
-476.562 7.8125 873
-125 429.688 1343
-375 -304.688 1259
-31.25 328.125 943
78.125 -210.938 1054
-164.062 398.438 1134
140.625 -31.25 1214
-15.625 -46.875 1232
-125 437.5 1381
0 406.25 1038
7.8125 257.812 984
-281.25 7.8125 930
-351.562 109.375 851
-382.812 101.562 856
-343.75 289.062 951
-187.5 398.438 1410
-445.312 265.625 946
109.375 429.688 1130
-234.375 -351.562 3092
-234.375 375 1130
-500 -54.6875 956
210.938 -335.938 973
-250 -85.9375 1010
15.625 429.688 1529
-187.5 382.812 1130
-273.438 -31.25 962
359.375 351.562 943
31.25 429.688 1529
-375 -359.375 3092
-328.125 -304.688 1255
85.9375 -195.312 1063
-140.625 414.062 1333
93.75 414.062 1119
78.125 -31.25 1214
46.875 382.812 1050
117.188 -328.125 959
-484.375 -46.875 933
70.3125 414.062 1123
46.875 335.938 938
-62.5 437.5 1516
-257.812 -78.125 998
70.3125 437.5 1415
85.9375 414.062 1123
132.812 -31.25 1210
62.5 -31.25 1223
-445.312 -54.6875 918
-257.812 -304.688 1259
-171.875 -54.6875 1227
-171.875 429.688 1376
15.625 -39.0625 1223
23.4375 421.875 1130
-257.812 -351.562 3092
7.8125 445.312 1523
-500 85.9375 858
-62.5 -156.25 1149
-484.375 257.812 948
351.562 -281.25 3092
218.75 359.375 940
367.188 -281.25 3064
70.3125 -31.25 1219
-187.5 -250 1193
-406.25 109.375 856
0 445.312 1523
23.4375 390.625 1034
-265.625 187.5 956
-335.938 289.062 943
46.875 -203.125 1067
304.688 367.188 940
-117.188 429.688 1536
-234.375 -148.438 1073
-179.688 429.688 1376
281.25 -39.0625 1268
-39.0625 382.812 1016
-62.5 -187.5 1387
23.4375 429.688 1529
-109.375 406.25 1134
-257.812 93.75 987
-195.312 421.875 1387
187.5 -156.25 1094
-210.938 398.438 1404
54.6875 -335.938 964
78.125 429.688 1138
-250 -304.688 1259
31.25 -39.0625 1223
15.625 421.875 1134
-460.938 -62.5 930
-343.75 -304.688 1255
-234.375 70.3125 1054
62.5 -218.75 1050
117.188 -367.188 984
-335.938 -304.688 1255
31.25 421.875 1130
156.25 -31.25 1210
-179.688 421.875 1387
-210.938 -296.875 1255
-257.812 -54.6875 984
132.812 171.875 1028
-125 -343.75 3120
117.188 -156.25 1090
328.125 -31.25 1264
-453.125 265.625 948
-70.3125 226.562 1001
304.688 -289.062 3092
-7.8125 -46.875 1232
125 429.688 1134
-101.562 406.25 1130
-179.688 382.812 1126
164.062 -320.312 959
78.125 -210.938 1054
-132.812 312.5 940
-421.875 101.562 856
179.688 -132.812 1108
39.0625 -31.25 1219
187.5 -312.5 964
-429.688 -46.875 925
-218.75 -351.562 3092
-320.312 -304.688 1255
101.562 -335.938 959
-171.875 421.875 1376
218.75 445.312 1153
-23.4375 -320.312 1001
-265.625 210.938 933
171.875 -320.312 962
-468.75 -54.6875 925
164.062 343.75 940
242.188 -148.438 1381
-117.188 -343.75 3120
7.8125 406.25 1038
7.8125 -343.75 970
-15.625 328.125 938
70.3125 -335.938 962
-414.062 -375 3037
-312.5 -304.688 1255
-210.938 -23.4375 1126
445.312 -265.625 3064
-210.938 -54.6875 1126
93.75 -23.4375 1219
-46.875 421.875 1392
23.4375 421.875 1130
101.562 414.062 1119
398.438 296.875 984
-414.062 -54.6875 923
-351.562 414.062 1496
-7.8125 -39.0625 1223
23.4375 -343.75 970
54.6875 -195.312 1070
195.312 -156.25 1097
85.9375 -23.4375 1219
-210.938 -195.312 1126
-171.875 382.812 1126
0 421.875 1134
-281.25 -296.875 1250
-367.188 328.125 1477
70.3125 -195.312 1067
-218.75 7.8125 1094
-164.062 -343.75 3149
460.938 -265.625 3064
210.938 -257.812 1007
-218.75 15.625 1101
15.625 406.25 1038
-125 414.062 1338
-492.188 -226.562 951
85.9375 -31.25 1210
101.562 125 1016
-453.125 101.562 856
132.812 -328.125 959
-343.75 335.938 1458
-437.5 -257.812 1004
-468.75 0 894
62.5 -335.938 964
-109.375 414.062 1338
-484.375 -62.5 925
437.5 -23.4375 2560
