ply
format ascii 1.0
comment Created by Open3D
element vertex 2400
property double x
property double y
property double z
end_header
148.438 234.375 843
54.6875 218.75 880
156.25 140.625 869
-148.438 328.125 901
367.188 -31.25 3178
62.5 78.125 1001
85.9375 -46.875 1013
-78.125 351.562 1077
210.938 117.188 992
-70.3125 265.625 1185
-171.875 117.188 1370
-62.5 101.562 1202
273.438 210.938 959
46.875 101.562 1010
-382.812 414.062 975
187.5 54.6875 1031
289.062 -31.25 3149
187.5 62.5 1031
-398.438 414.062 978
-242.188 406.25 819
195.312 164.062 856
179.688 304.688 894
-484.375 -31.25 3178
234.375 148.438 867
437.5 62.5 1273
-78.125 367.188 1060
-265.625 210.938 1034
492.188 171.875 1090
-78.125 -39.0625 3178
101.562 171.875 845
54.6875 210.938 880
218.75 70.3125 995
-343.75 203.125 1227
-117.188 -39.0625 3178
-492.188 -382.812 2598
117.188 156.25 858
-156.25 421.875 829
226.562 148.438 867
-484.375 -312.5 2744
218.75 78.125 1001
-93.75 437.5 864
-117.188 453.125 854
203.125 -31.25 3149
-210.938 421.875 823
109.375 328.125 896
250 -31.25 3149
148.438 39.0625 1001
-445.312 -195.312 2767
85.9375 304.688 878
156.25 296.875 882
125 117.188 1010
-390.625 101.562 1359
203.125 117.188 1181
-226.562 414.062 817
273.438 -31.25 3149
-328.125 382.812 833
54.6875 296.875 887
125 132.812 1025
320.312 -23.4375 3178
-437.5 -15.625 3037
101.562 335.938 901
46.875 296.875 962
-359.375 406.25 987
-140.625 296.875 923
-335.938 -46.875 3092
109.375 265.625 858
203.125 101.562 1202
398.438 296.875 940
460.938 117.188 1177
-257.812 296.875 1016
-101.562 -39.0625 3178
359.375 -23.4375 3178
-460.938 -257.812 2680
-234.375 148.438 1338
39.0625 203.125 1063
-257.812 -39.0625 3178
117.188 218.75 831
164.062 164.062 851
-78.125 226.562 1232
335.938 -31.25 3178
-484.375 -171.875 2450
93.75 -62.5 1016
156.25 328.125 906
-500 -140.625 2040
210.938 101.562 1001
-375 414.062 975
-179.688 -31.25 3208
-109.375 445.312 860
-468.75 -351.562 2598
-78.125 359.375 1063
-351.562 390.625 943
62.5 335.938 918
-492.188 -335.938 2701
-62.5 46.875 3092
-195.312 390.625 839
-460.938 93.75 2812
54.6875 203.125 875
-125 414.062 849
335.938 132.812 1022
-234.375 421.875 815
-250 273.438 1038
195.312 273.438 878
-132.812 296.875 913
-468.75 -46.875 3178
328.125 156.25 1031
304.688 250 987
46.875 281.25 978
156.25 78.125 1007
-414.062 -93.75 2984
382.812 390.625 864
7.8125 7.8125 1044
85.9375 242.188 843
257.812 85.9375 1001
-367.188 335.938 1060
-156.25 367.188 862
226.562 -31.25 3149
85.9375 195.312 829
-453.125 -140.625 2812
-492.188 367.188 1007
179.688 148.438 869
312.5 -31.25 3178
101.562 218.75 831
-70.3125 273.438 1177
414.062 367.188 882
195.312 78.125 1044
101.562 109.375 1004
46.875 179.688 1094
62.5 -31.25 1025
140.625 109.375 1007
164.062 140.625 862
46.875 46.875 1004
-195.312 421.875 829
414.062 320.312 880
148.438 93.75 1004
70.3125 351.562 908
109.375 171.875 847
-484.375 -328.125 2639
-445.312 -78.125 2933
-234.375 210.938 1038
-132.812 39.0625 3120
-125 296.875 1138
-109.375 312.5 1119
-164.062 406.25 843
140.625 101.562 1004
-484.375 -390.625 2541
210.938 148.438 869
-375 226.562 1193
351.562 -31.25 3178
156.25 234.375 845
117.188 234.375 841
93.75 148.438 864
125 62.5 992
-70.3125 242.188 1210
187.5 312.5 903
156.25 39.0625 1004
-289.062 -7.8125 3208
281.25 203.125 940
-78.125 257.812 1189
171.875 242.188 854
-132.812 445.312 862
-476.562 -203.125 2522
-328.125 -46.875 3092
476.562 328.125 887
210.938 203.125 841
-453.125 -93.75 2908
-382.812 -46.875 3092
164.062 31.25 1013
421.875 390.625 831
-78.125 335.938 1094
-359.375 -46.875 3092
109.375 54.6875 992
-359.375 414.062 981
-226.562 234.375 1031
-257.812 406.25 815
-203.125 414.062 819
132.812 109.375 1004
-234.375 414.062 815
312.5 164.062 930
-117.188 156.25 1338
-484.375 -187.5 2485
421.875 -15.625 3149
-78.125 164.062 1328
125 273.438 862
54.6875 15.625 1007
257.812 203.125 964
-78.125 343.75 1087
-46.875 -39.0625 3178
-343.75 390.625 943
148.438 140.625 869
125 31.25 998
-296.875 273.438 1016
-195.312 265.625 987
-492.188 -359.375 2618
179.688 335.938 918
476.562 148.438 1130
148.438 7.8125 1010
-390.625 15.625 3120
70.3125 -31.25 1022
125 257.812 856
117.188 203.125 829
-148.438 312.5 918
46.875 39.0625 1007
187.5 242.188 856
312.5 203.125 935
-273.438 421.875 809
132.812 7.8125 1004
-70.3125 257.812 1189
-164.062 414.062 839
132.812 250 851
-250 429.688 831
-296.875 414.062 807
-164.062 117.188 1365
-54.6875 -39.0625 3178
-296.875 -39.0625 3149
78.125 15.625 1001
109.375 210.938 829
367.188 39.0625 3208
46.875 265.625 995
445.312 335.938 867
179.688 46.875 1022
-218.75 234.375 1019
171.875 328.125 908
-273.438 -7.8125 3208
39.0625 335.938 920
148.438 335.938 910
-62.5 -39.0625 3178
-375 328.125 1070
-148.438 359.375 871
39.0625 179.688 1094
445.312 406.25 831
-78.125 367.188 1060
125 23.4375 998
-382.812 101.562 1359
273.438 257.812 992
390.625 -31.25 3149
39.0625 171.875 1105
367.188 289.062 962
-39.0625 -39.0625 3178
-85.9375 453.125 894
437.5 359.375 860
-78.125 328.125 1105
-296.875 -46.875 3149
46.875 273.438 889
-304.688 109.375 1370
-148.438 343.75 885
-171.875 406.25 841
101.562 164.062 854
-156.25 359.375 871
-179.688 382.812 847
234.375 101.562 992
382.812 320.312 930
-78.125 179.688 1307
-492.188 -179.688 1981
-117.188 164.062 1322
203.125 125 992
109.375 156.25 856
-367.188 210.938 1210
398.438 -31.25 3149
-382.812 46.875 2984
406.25 -31.25 3149
-171.875 367.188 862
-273.438 187.5 1264
-257.812 273.438 1034
-85.9375 445.312 896
195.312 179.688 841
-406.25 257.812 1149
203.125 109.375 1193
-78.125 351.562 1077
-93.75 445.312 864
-31.25 -39.0625 3149
-179.688 117.188 1370
-453.125 -218.75 2701
164.062 0 1025
164.062 62.5 1010
-226.562 304.688 1013
195.312 85.9375 1047
-359.375 304.688 920
234.375 109.375 998
156.25 187.5 835
-78.125 343.75 1087
15.625 70.3125 1022
7.8125 39.0625 1031
-218.75 429.688 821
-453.125 93.75 2812
-101.562 429.688 862
-132.812 -39.0625 3178
-62.5 93.75 1210
-320.312 195.312 1245
-382.812 218.75 1202
-382.812 304.688 1090
-460.938 -234.375 2723
-78.125 335.938 1094
414.062 273.438 975
-304.688 -46.875 3149
-445.312 -62.5 2958
-195.312 398.438 829
-289.062 414.062 809
187.5 54.6875 1031
-78.125 328.125 1105
414.062 265.625 984
140.625 312.5 891
187.5 62.5 1031
-335.938 -46.875 3092
281.25 164.062 984
-70.3125 234.375 1223
-375 -46.875 3092
31.25 101.562 1019
148.438 171.875 845
-242.188 226.562 1038
203.125 226.562 851
398.438 359.375 891
234.375 85.9375 992
250 218.75 854
-85.9375 437.5 906
-78.125 320.312 1115
-78.125 359.375 1063
390.625 390.625 864
210.938 93.75 1001
-437.5 -62.5 2958
218.75 117.188 1001
437.5 320.312 882
-156.25 382.812 845
-117.188 281.25 1161
382.812 343.75 906
382.812 453.125 809
125 203.125 829
-328.125 437.5 964
343.75 -31.25 3178
203.125 70.3125 1001
-281.25 437.5 906
-343.75 -46.875 3092
140.625 140.625 867
148.438 -23.4375 1028
-85.9375 414.062 1010
429.688 445.312 813
148.438 328.125 903
-85.9375 445.312 896
-156.25 445.312 819
101.562 15.625 1001
-117.188 429.688 845
-382.812 359.375 1034
210.938 187.5 837
437.5 445.312 813
-117.188 437.5 867
-78.125 156.25 1338
226.562 101.562 1001
-421.875 39.0625 2984
-312.5 195.312 1245
195.312 273.438 878
164.062 7.8125 1019
273.438 156.25 987
54.6875 7.8125 1010
-39.0625 70.3125 1245
203.125 117.188 1181
23.4375 101.562 1025
-445.312 -109.375 2883
437.5 398.438 827
156.25 78.125 1007
-429.688 31.25 3037
156.25 140.625 869
390.625 312.5 938
148.438 31.25 1001
-85.9375 406.25 1019
-281.25 406.25 815
46.875 234.375 1028
-140.625 445.312 825
-250 -46.875 3178
234.375 78.125 989
140.625 101.562 1004
-351.562 210.938 1210
375 320.312 928
-132.812 406.25 851
-148.438 117.188 2859
46.875 289.062 970
7.8125 -7.8125 1057
187.5 39.0625 1031
-187.5 406.25 829
328.125 -31.25 3178
148.438 304.688 887
46.875 226.562 1038
164.062 210.938 837
15.625 62.5 1025
226.562 132.812 987
-78.125 328.125 1105
492.188 179.688 1080
78.125 296.875 875
367.188 -31.25 3178
-312.5 -46.875 3149
390.625 296.875 951
-250 421.875 811
-242.188 421.875 813
-78.125 312.5 1123
328.125 179.688 930
132.812 257.812 858
46.875 0 1016
-281.25 187.5 1264
156.25 210.938 835
140.625 7.8125 1007
31.25 39.0625 1013
312.5 39.0625 1278
-85.9375 390.625 1034
-164.062 382.812 847
445.312 390.625 825
-195.312 445.312 813
382.812 382.812 871
382.812 296.875 956
-460.938 93.75 2812
382.812 359.375 891
367.188 320.312 930
85.9375 -62.5 1016
-320.312 -46.875 3120
-85.9375 250 1202
93.75 78.125 995
484.375 437.5 811
117.188 320.312 894
476.562 437.5 813
46.875 195.312 1077
304.688 -31.25 3178
-85.9375 437.5 906
-390.625 234.375 1181
31.25 320.312 938
242.188 -31.25 3149
234.375 93.75 992
234.375 70.3125 989
234.375 125 995
101.562 226.562 837
85.9375 335.938 898
226.562 62.5 992
421.875 445.312 815
-39.0625 78.125 1232
-78.125 335.938 1094
-78.125 375 1050
93.75 101.562 1001
93.75 -31.25 1007
-367.188 343.75 1054
210.938 -31.25 3149
187.5 304.688 896
46.875 187.5 1087
-203.125 429.688 823
132.812 140.625 869
218.75 -31.25 3149
-265.625 203.125 1034
-218.75 445.312 815
-335.938 304.688 908
-335.938 382.812 943
-281.25 -46.875 3178
-85.9375 382.812 1047
-85.9375 429.688 915
-398.438 -46.875 3092
218.75 85.9375 1001
-78.125 320.312 1115
-78.125 304.688 1134
7.8125 132.812 1080
-375 367.188 1025
-289.062 -46.875 3120
-187.5 273.438 975
-171.875 375 858
195.312 85.9375 1047
-179.688 414.062 835
468.75 437.5 815
320.312 39.0625 1278
46.875 250 1013
-351.562 382.812 948
-476.562 -320.312 2639
-179.688 281.25 967
-85.9375 453.125 894
-117.188 445.312 860
-70.3125 226.562 1044
-234.375 289.062 1031
46.875 257.812 1004
62.5 -46.875 1025
382.812 39.0625 3208
-500 -359.375 2639
46.875 320.312 938
-171.875 117.188 1370
117.188 203.125 829
109.375 171.875 847
-226.562 289.062 1034
-15.625 46.875 1067
-343.75 210.938 1004
-273.438 406.25 817
-367.188 -46.875 3092
-382.812 70.3125 2908
203.125 101.562 1202
-164.062 359.375 871
54.6875 195.312 875
210.938 195.312 837
-195.312 437.5 819
492.188 164.062 1105
-289.062 406.25 815
93.75 335.938 898
-85.9375 398.438 1025
-281.25 195.312 1034
117.188 156.25 858
101.562 70.3125 992
-328.125 -46.875 3092
-62.5 39.0625 3092
437.5 -31.25 3149
-359.375 304.688 920
-85.9375 -39.0625 3178
156.25 164.062 854
-85.9375 210.938 1259
179.688 39.0625 1022
-85.9375 375 1050
-273.438 187.5 1264
234.375 62.5 989
226.562 78.125 992
445.312 70.3125 1255
93.75 -54.6875 1016
-85.9375 367.188 1057
171.875 140.625 869
78.125 195.312 835
-445.312 -125 2835
140.625 265.625 862
-289.062 187.5 1264
-140.625 421.875 835
-140.625 343.75 887
265.625 85.9375 1007
-78.125 343.75 1087
46.875 85.9375 1004
476.562 140.625 1145
46.875 179.688 1094
-70.3125 117.188 2859
-468.75 -343.75 2598
476.562 351.562 873
453.125 -31.25 3149
-70.3125 -39.0625 3178
-78.125 312.5 1123
-164.062 117.188 1365
-398.438 242.188 1165
187.5 296.875 891
-492.188 -367.188 2639
39.0625 304.688 951
-375 351.562 1044
164.062 242.188 854
7.8125 140.625 1145
234.375 101.562 992
-210.938 -39.0625 3149
-375 375 1016
39.0625 156.25 1123
-85.9375 445.312 896
187.5 164.062 854
437.5 70.3125 1255
117.188 31.25 995
-375 234.375 975
140.625 171.875 845
187.5 70.3125 1031
375 39.0625 3208
0 39.0625 1041
-289.062 -31.25 3208
-78.125 328.125 1105
-23.4375 39.0625 1073
-156.25 406.25 845
-210.938 328.125 992
179.688 328.125 910
-367.188 218.75 1206
-351.562 296.875 920
312.5 164.062 930
46.875 210.938 1057
-476.562 -132.812 2984
460.938 109.375 1185
-406.25 242.188 1169
-85.9375 437.5 906
-320.312 210.938 1016
-492.188 -390.625 2598
-148.438 335.938 894
39.0625 -382.812 2659
164.062 46.875 1010
-218.75 414.062 817
-156.25 414.062 841
-460.938 -187.5 2541
-257.812 218.75 1038
367.188 39.0625 3208
-382.812 226.562 1193
187.5 179.688 841
-390.625 109.375 1359
453.125 93.75 1219
171.875 39.0625 1013
234.375 78.125 989
203.125 109.375 1193
-296.875 -46.875 3149
-85.9375 429.688 915
-367.188 226.562 984
-218.75 406.25 819
31.25 -39.0625 1041
78.125 62.5 995
421.875 296.875 928
46.875 242.188 1019
382.812 -31.25 3149
-234.375 414.062 815
-78.125 320.312 1115
242.188 226.562 860
-359.375 406.25 987
-296.875 109.375 1365
148.438 320.312 898
148.438 -15.625 1022
-367.188 390.625 1004
-304.688 414.062 807
93.75 242.188 843
453.125 312.5 882
429.688 312.5 894
-85.9375 414.062 1010
125 31.25 998
-85.9375 421.875 915
-289.062 273.438 1022
156.25 62.5 1004
164.062 54.6875 1010
70.3125 -46.875 1016
-78.125 296.875 1141
-289.062 -39.0625 3149
-351.562 367.188 956
-15.625 23.4375 1073
328.125 296.875 956
-484.375 -46.875 3178
398.438 265.625 989
-85.9375 -7.8125 3238
210.938 148.438 869
101.562 210.938 833
-78.125 156.25 1338
109.375 156.25 864
-359.375 242.188 989
-351.562 359.375 867
460.938 343.75 867
-195.312 390.625 835
468.75 343.75 885
203.125 218.75 851
-304.688 281.25 1019
234.375 109.375 995
15.625 23.4375 1022
-476.562 218.75 1189
445.312 -31.25 3149
226.562 70.3125 992
148.438 140.625 862
437.5 406.25 833
148.438 -23.4375 1038
-367.188 398.438 995
-375 101.562 1354
-453.125 93.75 1365
125 -23.4375 1019
335.938 296.875 956
70.3125 257.812 858
-171.875 421.875 831
164.062 328.125 915
-500 -179.688 2028
-257.812 -46.875 3178
-476.562 -218.75 2598
179.688 296.875 898
187.5 312.5 910
125 140.625 867
-78.125 304.688 954
125 234.375 849
195.312 164.062 854
414.062 -31.25 3149
-390.625 289.062 938
234.375 85.9375 992
468.75 -31.25 3149
-304.688 -46.875 3149
-164.062 367.188 858
117.188 62.5 998
109.375 234.375 845
-148.438 -39.0625 3208
-187.5 437.5 821
-226.562 -46.875 3208
343.75 132.812 992
62.5 242.188 851
109.375 218.75 837
-132.812 117.188 1376
-375 359.375 1031
-273.438 -46.875 3178
109.375 7.8125 1004
117.188 132.812 1031
-78.125 312.5 935
-343.75 -39.0625 3120
31.25 7.8125 1016
132.812 31.25 1004
492.188 125 1157
-312.5 414.062 817
-85.9375 343.75 1087
-78.125 164.062 1322
140.625 289.062 887
-203.125 421.875 829
-304.688 273.438 1022
164.062 296.875 894
210.938 70.3125 1001
-85.9375 414.062 1010
39.0625 164.062 1112
273.438 156.25 992
85.9375 148.438 864
218.75 156.25 858
187.5 328.125 920
265.625 210.938 962
203.125 140.625 878
406.25 39.0625 1283
-328.125 203.125 1019
304.688 164.062 933
46.875 156.25 867
179.688 164.062 851
-78.125 281.25 975
-398.438 250 964
195.312 257.812 878
148.438 85.9375 1013
195.312 179.688 843
-398.438 273.438 951
-343.75 421.875 973
-85.9375 421.875 837
460.938 312.5 882
320.312 312.5 938
234.375 93.75 995
-78.125 171.875 1307
-320.312 281.25 1013
421.875 -31.25 3149
-406.25 234.375 1173
218.75 226.562 862
132.812 250 860
-203.125 0 3269
7.8125 -39.0625 1050
328.125 148.438 1019
210.938 187.5 843
-375 -250 2789
7.8125 39.0625 1025
468.75 398.438 821
-78.125 273.438 989
-484.375 -109.375 3064
179.688 179.688 839
-85.9375 335.938 1094
171.875 335.938 918
-70.3125 132.812 1145
93.75 15.625 1001
-453.125 -195.312 2767
328.125 -15.625 3208
-85.9375 304.688 1130
437.5 390.625 833
-445.312 304.688 1084
93.75 164.062 854
125 23.4375 1001
-203.125 398.438 833
-85.9375 351.562 1077
31.25 273.438 984
31.25 312.5 946
-484.375 -210.938 2579
93.75 234.375 845
-156.25 304.688 920
351.562 -31.25 3178
148.438 70.3125 1013
-78.125 265.625 989
-85.9375 429.688 829
-125 117.188 1376
7.8125 125 1060
-351.562 101.562 1359
-296.875 429.688 975
210.938 140.625 878
-85.9375 406.25 845
320.312 46.875 1288
398.438 328.125 889
-367.188 101.562 1359
-15.625 62.5 1044
187.5 54.6875 1050
-39.0625 78.125 1070
-85.9375 398.438 849
203.125 164.062 854
-367.188 328.125 898
132.812 54.6875 1001
203.125 203.125 845
-281.25 -46.875 3208
-78.125 296.875 1141
78.125 289.062 878
148.438 296.875 889
-359.375 101.562 1359
-453.125 -179.688 2789
46.875 234.375 1022
-375 320.312 908
-85.9375 203.125 1041
101.562 54.6875 995
-296.875 187.5 1034
-234.375 210.938 1034
-234.375 406.25 821
234.375 70.3125 992
156.25 70.3125 1016
-500 -164.062 2028
39.0625 242.188 1016
101.562 265.625 864
7.8125 -31.25 1060
-85.9375 414.062 1010
-250 -46.875 3178
-398.438 226.562 1189
132.812 140.625 867
-78.125 304.688 954
-85.9375 296.875 1145
-468.75 -390.625 2560
-164.062 398.438 849
226.562 109.375 1001
-117.188 453.125 856
-164.062 445.312 823
62.5 312.5 891
203.125 218.75 851
234.375 78.125 992
468.75 132.812 1153
320.312 156.25 1031
-78.125 156.25 1338
429.688 -31.25 3149
-78.125 289.062 975
-375 210.938 1210
-429.688 39.0625 2984
-382.812 281.25 938
460.938 -31.25 3149
429.688 62.5 1268
148.438 328.125 910
93.75 273.438 867
484.375 164.062 1108
-453.125 -328.125 2659
281.25 296.875 959
234.375 62.5 995
210.938 101.562 1004
109.375 203.125 831
203.125 226.562 858
-187.5 382.812 843
-78.125 273.438 989
46.875 226.562 1034
-398.438 -15.625 3120
-148.438 343.75 885
93.75 164.062 854
-85.9375 320.312 1112
-164.062 367.188 858
-265.625 -46.875 3178
367.188 -39.0625 3178
164.062 7.8125 1028
125 257.812 862
132.812 312.5 898
-375 289.062 930
-390.625 -46.875 3092
101.562 7.8125 1004
414.062 445.312 815
-148.438 429.688 833
179.688 312.5 908
-140.625 390.625 860
78.125 -70.3125 1016
101.562 156.25 867
31.25 85.9375 1013
-359.375 414.062 981
148.438 -23.4375 1038
-101.562 421.875 923
-382.812 359.375 1031
-85.9375 398.438 849
-85.9375 234.375 1219
140.625 257.812 864
-218.75 -46.875 3120
39.0625 218.75 1047
-335.938 429.688 973
-437.5 -70.3125 2933
101.562 101.562 1001
46.875 218.75 1047
117.188 203.125 831
-242.188 -46.875 3178
-382.812 351.562 1041
-85.9375 312.5 1119
203.125 140.625 878
257.812 218.75 970
187.5 70.3125 1054
-78.125 257.812 1189
-289.062 -46.875 3178
23.4375 109.375 1025
468.75 304.688 882
-234.375 -46.875 3208
-226.562 -46.875 3208
203.125 210.938 849
39.0625 164.062 1112
-328.125 195.312 1019
187.5 296.875 898
203.125 156.25 860
226.562 140.625 867
-78.125 265.625 989
39.0625 148.438 1050
-195.312 -46.875 3178
39.0625 335.938 918
46.875 203.125 1060
39.0625 328.125 928
382.812 375 875
-179.688 375 851
-281.25 187.5 1038
-343.75 101.562 1365
460.938 437.5 815
39.0625 289.062 967
-85.9375 328.125 1105
-203.125 437.5 819
-171.875 367.188 860
-85.9375 406.25 845
-359.375 304.688 915
39.0625 54.6875 1004
210.938 125 992
117.188 117.188 1016
-359.375 203.125 1223
-78.125 281.25 975
187.5 62.5 1050
-78.125 242.188 1016
-85.9375 390.625 1034
-453.125 -164.062 2789
-85.9375 289.062 1153
-375 382.812 1007
-23.4375 31.25 1060
-265.625 195.312 1038
78.125 148.438 862
406.25 390.625 837
-492.188 -453.125 2450
406.25 273.438 975
-85.9375 304.688 1130
-78.125 296.875 1141
-46.875 62.5 1087
156.25 164.062 854
187.5 179.688 841
-78.125 273.438 989
484.375 -31.25 3064
390.625 210.938 1050
-351.562 406.25 946
-164.062 421.875 835
140.625 328.125 908
46.875 210.938 1054
460.938 328.125 887
-218.75 421.875 827
398.438 39.0625 1288
-117.188 242.188 1206
-289.062 195.312 1038
39.0625 226.562 1034
-382.812 328.125 1067
-500 -39.0625 2156
-78.125 250 1010
304.688 257.812 998
-85.9375 281.25 1161
-125 453.125 851
-335.938 414.062 943
-492.188 -39.0625 2156
-164.062 359.375 867
93.75 234.375 845
-382.812 304.688 923
-78.125 164.062 1322
187.5 164.062 851
320.312 -31.25 3178
-359.375 210.938 995
226.562 234.375 862
382.812 453.125 809
-101.562 117.188 1370
-39.0625 -39.0625 3149
-125 421.875 856
-335.938 195.312 1241
156.25 -7.8125 1031
-7.8125 -15.625 1070
-460.938 -312.5 2659
406.25 335.938 882
195.312 140.625 878
-46.875 -39.0625 3178
-218.75 320.312 998
367.188 296.875 954
148.438 164.062 854
171.875 164.062 851
250 164.062 928
140.625 164.062 854
-203.125 257.812 989
109.375 265.625 864
-281.25 -46.875 3208
-179.688 367.188 860
437.5 78.125 1236
-117.188 117.188 1376
429.688 390.625 829
46.875 265.625 873
-414.062 -15.625 3120
117.188 140.625 869
132.812 171.875 847
-125 242.188 1206
-242.188 203.125 1038
-85.9375 398.438 849
39.0625 109.375 1016
-78.125 289.062 975
23.4375 39.0625 1013
-210.938 -46.875 3120
179.688 171.875 847
-171.875 -39.0625 3208
54.6875 78.125 1001
-390.625 218.75 1197
-78.125 257.812 1189
-85.9375 335.938 1094
-382.812 351.562 1041
-85.9375 382.812 1044
-85.9375 390.625 1034
-265.625 406.25 817
-359.375 367.188 954
117.188 31.25 998
46.875 187.5 869
195.312 93.75 1210
-156.25 343.75 882
-203.125 398.438 833
93.75 -39.0625 1007
273.438 164.062 935
-468.75 -328.125 2618
-210.938 398.438 829
-414.062 242.188 1165
125 109.375 1010
-78.125 234.375 1219
-78.125 312.5 935
-78.125 242.188 1016
93.75 312.5 889
-460.938 -179.688 2659
-85.9375 375 1050
-375 218.75 987
-289.062 187.5 1038
250 148.438 992
-468.75 -429.688 2503
-351.562 101.562 1359
-468.75 -359.375 2560
-109.375 117.188 1376
242.188 -7.8125 3238
375 273.438 975
-85.9375 296.875 1145
-437.5 -54.6875 2958
156.25 70.3125 1016
-78.125 226.562 1038
78.125 320.312 896
156.25 210.938 841
54.6875 195.312 837
-226.562 109.375 1370
-85.9375 265.625 1177
-312.5 210.938 1022
234.375 210.938 851
-78.125 281.25 975
132.812 218.75 841
468.75 296.875 882
-468.75 -335.938 2598
-78.125 265.625 989
-226.562 390.625 835
70.3125 335.938 906
-179.688 -46.875 3178
-85.9375 195.312 1273
445.312 78.125 1236
-148.438 406.25 847
414.062 312.5 898
-468.75 -382.812 2579
242.188 234.375 967
-78.125 156.25 1338
187.5 132.812 878
-117.188 429.688 860
-453.125 93.75 1365
-335.938 -46.875 3120
46.875 93.75 1007
-375 210.938 1210
-78.125 250 1010
46.875 203.125 1060
210.938 62.5 998
-85.9375 273.438 1165
179.688 179.688 839
226.562 273.438 889
-382.812 -15.625 3149
-78.125 273.438 989
-343.75 289.062 995
85.9375 289.062 878
203.125 203.125 845
54.6875 125 1025
218.75 125 992
164.062 15.625 1025
187.5 289.062 896
-132.812 281.25 1157
140.625 281.25 880
406.25 328.125 889
132.812 328.125 908
-312.5 429.688 970
-125 437.5 864
93.75 54.6875 995
132.812 195.312 835
-171.875 289.062 943
-85.9375 242.188 1214
304.688 164.062 933
203.125 210.938 849
179.688 164.062 851
132.812 101.562 1007
164.062 23.4375 1022
-140.625 437.5 867
-304.688 187.5 1259
117.188 234.375 847
125 -23.4375 1019
-85.9375 289.062 1153
-218.75 234.375 1010
-85.9375 148.438 1349
-85.9375 312.5 1119
-367.188 343.75 992
453.125 437.5 817
210.938 179.688 843
39.0625 164.062 1112
179.688 320.312 913
-296.875 -46.875 3149
-218.75 304.688 1013
-460.938 -187.5 2639
101.562 70.3125 995
210.938 -15.625 3208
-156.25 312.5 918
-109.375 156.25 1333
-468.75 -343.75 2598
-484.375 -367.188 2560
-226.562 406.25 821
-453.125 -125 2859
195.312 140.625 878
242.188 218.75 858
195.312 250 871
101.562 187.5 831
335.938 117.188 1010
187.5 281.25 889
-85.9375 421.875 837
-85.9375 375 1050
-164.062 367.188 858
140.625 93.75 1010
-335.938 203.125 1013
468.75 359.375 882
406.25 -31.25 3149
-320.312 406.25 825
-460.938 -304.688 2659
398.438 -31.25 3149
-234.375 281.25 1038
468.75 -23.4375 3149
210.938 148.438 869
-156.25 320.312 908
195.312 62.5 1004
-234.375 421.875 827
429.688 312.5 889
187.5 70.3125 1054
-78.125 218.75 1044
-85.9375 367.188 1057
187.5 250 869
-85.9375 257.812 1189
179.688 54.6875 1038
-445.312 -70.3125 2933
210.938 70.3125 1001
-304.688 195.312 1025
-257.812 187.5 1038
132.812 257.812 864
398.438 265.625 989
187.5 265.625 880
7.8125 101.562 1034
140.625 234.375 851
164.062 31.25 1025
46.875 195.312 1077
-78.125 234.375 1219
-78.125 226.562 1038
250 203.125 964
-343.75 101.562 1365
-320.312 414.062 946
-164.062 375 851
164.062 140.625 871
-164.062 351.562 878
-117.188 421.875 854
-179.688 445.312 821
70.3125 234.375 845
-171.875 398.438 843
-390.625 265.625 951
-109.375 421.875 854
15.625 125 1054
-85.9375 390.625 1034
23.4375 429.688 835
-148.438 453.125 851
320.312 109.375 1025
39.0625 296.875 959
117.188 62.5 998
-218.75 -46.875 3120
-195.312 398.438 835
-78.125 242.188 1016
-85.9375 281.25 1161
-93.75 117.188 1370
148.438 437.5 827
-70.3125 148.438 1123
-234.375 148.438 1338
-85.9375 359.375 1063
117.188 54.6875 998
132.812 250 860
195.312 93.75 1210
226.562 218.75 858
148.438 250 862
-257.812 -46.875 3178
93.75 164.062 854
296.875 226.562 935
-242.188 406.25 819
85.9375 -31.25 1013
140.625 304.688 894
-70.3125 242.188 1016
70.3125 148.438 862
-78.125 257.812 1189
101.562 31.25 995
101.562 156.25 867
-203.125 414.062 835
-492.188 -343.75 2639
109.375 140.625 871
-171.875 359.375 869
257.812 273.438 981
273.438 164.062 935
117.188 15.625 1001
85.9375 335.938 906
-312.5 273.438 1016
-203.125 -46.875 3178
39.0625 148.438 1050
-273.438 -46.875 3178
273.438 156.25 992
-218.75 250 1010
257.812 15.625 3269
-343.75 414.062 943
132.812 -15.625 1025
-289.062 265.625 1028
156.25 -7.8125 1031
445.312 367.188 856
-85.9375 250 1197
85.9375 46.875 995
375 343.75 903
78.125 -39.0625 1013
164.062 343.75 910
-234.375 414.062 821
-429.688 -15.625 3064
-351.562 359.375 867
0 -7.8125 1050
140.625 -39.0625 1050
-78.125 250 1010
-406.25 265.625 962
156.25 351.562 903
210.938 62.5 998
-54.6875 -39.0625 3178
-164.062 296.875 930
-179.688 390.625 841
179.688 250 867
93.75 39.0625 992
39.0625 171.875 1101
398.438 296.875 930
39.0625 187.5 1084
171.875 242.188 862
390.625 382.812 871
492.188 429.688 811
31.25 234.375 1025
-85.9375 367.188 1057
-85.9375 117.188 1370
-226.562 226.562 1019
-85.9375 265.625 1177
-85.9375 351.562 1077
125 257.812 862
164.062 242.188 860
101.562 320.312 898
382.812 312.5 889
-93.75 453.125 891
-195.312 -46.875 3178
-156.25 -46.875 3208
171.875 179.688 839
460.938 117.188 1177
-132.812 117.188 1376
-367.188 406.25 984
15.625 39.0625 1019
195.312 203.125 843
125 250 858
-78.125 265.625 989
367.188 281.25 970
328.125 140.625 1019
-85.9375 359.375 1063
210.938 148.438 869
46.875 203.125 1060
492.188 140.625 1134
85.9375 39.0625 995
382.812 367.188 885
39.0625 132.812 1044
-359.375 203.125 1223
-85.9375 242.188 1214
-359.375 101.562 1359
-375 320.312 908
-226.562 304.688 1013
359.375 453.125 809
-210.938 -46.875 3120
453.125 85.9375 1219
-195.312 406.25 837
46.875 210.938 1054
-156.25 304.688 920
203.125 195.312 843
-85.9375 257.812 1189
148.438 7.8125 1016
125 171.875 845
164.062 179.688 839
-226.562 109.375 1370
-85.9375 375 1050
375 453.125 809
101.562 78.125 998
-453.125 -187.5 2767
-179.688 421.875 829
398.438 281.25 948
179.688 312.5 908
39.0625 281.25 975
-171.875 320.312 948
-203.125 390.625 835
-453.125 -226.562 2680
-148.438 437.5 867
-484.375 -320.312 2659
203.125 109.375 1007
-476.562 -39.0625 3208
125 148.438 867
445.312 289.062 882
-453.125 -257.812 2701
-85.9375 234.375 1219
-195.312 375 854
148.438 46.875 1010
195.312 109.375 1189
195.312 85.9375 1004
-85.9375 351.562 1077
179.688 54.6875 1038
-328.125 101.562 1365
187.5 273.438 882
-117.188 437.5 864
171.875 312.5 906
-93.75 453.125 891
-93.75 445.312 860
-312.5 187.5 1255
-359.375 296.875 920
-156.25 351.562 875
-210.938 406.25 829
39.0625 210.938 1054
-375 343.75 1047
125 195.312 833
421.875 351.562 867
-148.438 296.875 923
195.312 101.562 1202
156.25 62.5 1013
31.25 328.125 928
-85.9375 226.562 1232
-460.938 0 3120
195.312 234.375 862
273.438 187.5 938
-101.562 148.438 1349
62.5 250 856
-375 -15.625 3149
140.625 -31.25 1041
-171.875 445.312 821
-85.9375 273.438 1165
125 304.688 891
234.375 250 1001
414.062 304.688 908
328.125 125 1019
62.5 335.938 906
140.625 70.3125 1004
62.5 148.438 862
179.688 304.688 903
179.688 257.812 873
296.875 164.062 930
31.25 203.125 1063
203.125 203.125 845
-320.312 203.125 1019
187.5 78.125 1047
-343.75 375 943
375 390.625 862
-148.438 414.062 843
31.25 218.75 1047
140.625 164.062 854
187.5 -39.0625 3149
-171.875 -46.875 3178
-304.688 429.688 975
132.812 7.8125 1010
78.125 296.875 880
101.562 140.625 871
-367.188 398.438 995
148.438 62.5 1010
-250 414.062 819
31.25 54.6875 1010
-93.75 296.875 1141
-304.688 421.875 817
-414.062 242.188 1165
-359.375 398.438 940
-148.438 335.938 894
78.125 281.25 871
-250 421.875 821
-85.9375 187.5 1288
-375 23.4375 3092
31.25 15.625 1016
156.25 15.625 1019
304.688 203.125 935
-453.125 -203.125 2723
109.375 31.25 998
-195.312 382.812 841
453.125 109.375 1185
31.25 250 1010
273.438 156.25 992
125 312.5 896
93.75 210.938 831
39.0625 179.688 1090
-484.375 -39.0625 3178
-78.125 250 1010
-367.188 382.812 946
54.6875 148.438 867
-296.875 195.312 1034
132.812 195.312 835
31.25 179.688 1094
-148.438 382.812 854
492.188 445.312 798
132.812 101.562 1007
46.875 -39.0625 1034
-85.9375 343.75 1087
445.312 85.9375 1219
-414.062 250 1157
15.625 312.5 943
-476.562 -335.938 2598
125 54.6875 1001
-218.75 312.5 1007
23.4375 296.875 959
-375 335.938 1057
-148.438 445.312 860
476.562 148.438 1126
-375 382.812 1007
46.875 195.312 1077
-210.938 437.5 819
195.312 93.75 1210
-132.812 296.875 1138
-93.75 437.5 906
-179.688 382.812 843
-93.75 445.312 860
398.438 273.438 970
39.0625 -15.625 1025
-210.938 328.125 989
78.125 328.125 901
-125 445.312 860
156.25 179.688 839
367.188 335.938 915
-109.375 445.312 860
-179.688 -46.875 3178
367.188 453.125 809
453.125 101.562 1202
-85.9375 335.938 1094
-359.375 343.75 894
-335.938 375 841
-242.188 203.125 1038
78.125 -62.5 1016
-460.938 -257.812 2701
257.812 210.938 964
101.562 164.062 854
-85.9375 164.062 1322
140.625 210.938 837
93.75 -7.8125 1010
-382.812 367.188 1022
-85.9375 250 1197
453.125 367.188 856
359.375 312.5 935
78.125 234.375 843
-390.625 226.562 987
-78.125 218.75 1044
359.375 320.312 930
-179.688 367.188 860
-85.9375 359.375 1063
-101.562 437.5 860
-476.562 -289.062 2680
-500 -234.375 2005
203.125 187.5 843
-78.125 257.812 1189
468.75 140.625 1141
-500 -382.812 2639
-500 -382.812 2639
-335.938 437.5 964
148.438 -39.0625 1063
-93.75 453.125 891
31.25 85.9375 1013
-500 -171.875 2065
382.812 351.562 898
-203.125 257.812 989
-148.438 234.375 1214
101.562 156.25 867
-195.312 414.062 835
-23.4375 93.75 1077
132.812 164.062 854
-85.9375 234.375 1219
429.688 351.562 862
-85.9375 351.562 1077
-468.75 -351.562 2598
125 289.062 880
39.0625 250 1013
-242.188 414.062 819
234.375 281.25 975
265.625 335.938 918
-195.312 -39.0625 3208
-492.188 -39.0625 2156
468.75 335.938 885
437.5 335.938 867
-85.9375 328.125 1105
156.25 304.688 898
70.3125 328.125 901
93.75 265.625 862
210.938 132.812 878
117.188 171.875 845
132.812 304.688 894
-226.562 -46.875 3208
140.625 140.625 864
-406.25 226.562 1185
117.188 328.125 908
93.75 -62.5 1067
-148.438 429.688 833
203.125 62.5 1004
109.375 62.5 995
101.562 234.375 845
429.688 398.438 831
-320.312 429.688 973
-210.938 250 995
-85.9375 343.75 1087
-343.75 195.312 1232
-445.312 -62.5 2933
-101.562 117.188 1370
-85.9375 335.938 1094
-148.438 343.75 885
-85.9375 242.188 1214
-23.4375 15.625 1067
242.188 195.312 845
390.625 195.312 1067
-328.125 -39.0625 3149
429.688 445.312 813
-93.75 437.5 906
39.0625 257.812 1001
-85.9375 226.562 1232
179.688 62.5 1041
328.125 109.375 1019
-460.938 -195.312 2598
-234.375 421.875 827
-453.125 -117.188 2859
39.0625 273.438 984
218.75 132.812 882
-203.125 335.938 981
93.75 156.25 867
-7.8125 7.8125 1050
-367.188 367.188 962
148.438 78.125 1013
125 140.625 867
-156.25 335.938 894
187.5 78.125 1047
-367.188 203.125 1223
312.5 156.25 1038
-382.812 210.938 1206
85.9375 -7.8125 1010
187.5 265.625 880
-78.125 320.312 930
93.75 62.5 995
414.062 39.0625 1283
54.6875 242.188 851
-296.875 265.625 1025
179.688 296.875 898
-85.9375 218.75 1044
-328.125 406.25 943
-109.375 406.25 1019
-445.312 -132.812 2859
328.125 132.812 1019
476.562 -15.625 3178
-500 -390.625 2618
-93.75 429.688 906
-85.9375 179.688 1302
335.938 281.25 973
390.625 320.312 889
210.938 78.125 1004
460.938 359.375 864
-218.75 398.438 825
-85.9375 328.125 1105
117.188 39.0625 998
125 328.125 908
195.312 125 878
179.688 304.688 903
-78.125 226.562 1038
195.312 226.562 858
218.75 296.875 901
70.3125 289.062 878
-382.812 289.062 938
296.875 257.812 998
-476.562 328.125 1054
-93.75 437.5 906
203.125 117.188 995
-375 328.125 995
195.312 101.562 1202
226.562 148.438 867
460.938 328.125 887
93.75 273.438 867
210.938 109.375 1007
-148.438 -46.875 3208
-375 343.75 1047
-390.625 296.875 1101
468.75 437.5 815
-500 -39.0625 2156
-375 390.625 1001
195.312 148.438 869
-78.125 140.625 1365
-500 85.9375 2365
-93.75 445.312 860
460.938 304.688 882
-218.75 421.875 827
-320.312 101.562 1365
-203.125 406.25 833
31.25 148.438 1054
203.125 85.9375 1004
-445.312 414.062 964
164.062 242.188 860
226.562 125 998
375 375 875
-78.125 234.375 1219
109.375 117.188 1016
421.875 343.75 869
39.0625 265.625 992
-437.5 78.125 2835
-398.438 281.25 1115
15.625 -39.0625 1050
437.5 70.3125 1255
257.812 164.062 928
-367.188 351.562 1041
-359.375 351.562 956
-179.688 31.25 3178
156.25 203.125 837
70.3125 15.625 1001
-492.188 -445.312 2467
164.062 31.25 1025
-85.9375 335.938 1094
54.6875 335.938 910
210.938 62.5 998
-242.188 218.75 1038
31.25 31.25 1010
179.688 54.6875 1038
39.0625 234.375 1025
148.438 164.062 854
414.062 367.188 860
132.812 359.375 898
-250 195.312 1044
-406.25 265.625 962
296.875 281.25 973
429.688 390.625 829
-453.125 -156.25 2789
-445.312 -54.6875 2958
195.312 218.75 849
179.688 39.0625 1041
-210.938 398.438 829
-273.438 195.312 1038
-343.75 -15.625 3149
-312.5 406.25 825
203.125 62.5 1004
421.875 335.938 871
-85.9375 312.5 1119
-414.062 234.375 1173
54.6875 62.5 1001
85.9375 164.062 854
195.312 109.375 1189
156.25 0 1028
-93.75 210.938 1255
195.312 70.3125 1004
226.562 101.562 998
31.25 156.25 1123
-164.062 312.5 928
335.938 125 1010
-93.75 421.875 906
-164.062 414.062 841
-140.625 375 851
484.375 171.875 1097
93.75 187.5 831
226.562 70.3125 992
-476.562 -460.938 2450
-500 -359.375 2618
179.688 62.5 1041
-93.75 429.688 906
171.875 296.875 896
140.625 -31.25 1041
-492.188 85.9375 2365
-484.375 0 3120
117.188 23.4375 1001
-484.375 -328.125 2639
-148.438 335.938 894
-85.9375 242.188 1214
-476.562 -257.812 2767
-140.625 406.25 849
-15.625 7.8125 1063
-164.062 -46.875 3149
109.375 164.062 854
226.562 93.75 998
187.5 257.812 873
-187.5 367.188 858
-335.938 406.25 940
421.875 367.188 860
-335.938 390.625 943
-421.875 70.3125 2883
140.625 93.75 1010
-156.25 -46.875 3208
39.0625 171.875 1101
226.562 85.9375 995
109.375 132.812 1031
-132.812 -46.875 3178
132.812 -39.0625 1031
226.562 109.375 1001
-328.125 101.562 1365
195.312 132.812 878
375 382.812 869
109.375 273.438 869
39.0625 242.188 1016
-218.75 414.062 825
445.312 93.75 1214
-93.75 414.062 1010
140.625 31.25 1007
242.188 132.812 995
-85.9375 320.312 1112
-85.9375 304.688 1130
171.875 250 867
62.5 62.5 998
171.875 132.812 885
-93.75 390.625 1031
101.562 234.375 845
-132.812 250 1197
-164.062 437.5 825
421.875 320.312 882
460.938 117.188 1177
265.625 148.438 992
-484.375 7.8125 3092
-85.9375 312.5 1119
218.75 62.5 995
39.0625 195.312 1073
148.438 -15.625 1031
31.25 226.562 1038
-335.938 382.812 841
-203.125 382.812 843
-476.562 -109.375 3010
-109.375 -46.875 3208
195.312 117.188 1181
62.5 23.4375 1001
-23.4375 101.562 1070
429.688 359.375 862
226.562 78.125 992
179.688 250 867
-453.125 -15.625 3037
-85.9375 171.875 1312
-367.188 210.938 995
101.562 171.875 845
-93.75 421.875 906
-125 226.562 1227
203.125 179.688 843
406.25 226.562 1031
218.75 101.562 1004
226.562 70.3125 992
-164.062 -39.0625 3208
31.25 171.875 1101
140.625 85.9375 1007
-328.125 429.688 973
39.0625 226.562 1034
-476.562 7.8125 3092
-320.312 187.5 1250
187.5 132.812 878
273.438 164.062 935
93.75 210.938 831
296.875 164.062 930
195.312 148.438 869
218.75 93.75 1001
85.9375 234.375 843
-242.188 437.5 821
-312.5 421.875 981
187.5 54.6875 1050
273.438 203.125 951
-484.375 -203.125 2560
156.25 54.6875 1013
421.875 382.812 831
125 164.062 851
93.75 7.8125 1004
-93.75 367.188 1057
445.312 382.812 839
-125 429.688 860
265.625 -39.0625 3149
195.312 218.75 849
-320.312 -15.625 3208
421.875 445.312 815
-78.125 218.75 1044
-351.562 289.062 925
-476.562 -226.562 2639
-398.438 257.812 962
-429.688 -54.6875 2958
453.125 -31.25 3149
-468.75 -39.0625 3208
-421.875 -54.6875 3037
429.688 335.938 867
-117.188 -46.875 3208
39.0625 234.375 1025
-320.312 273.438 1013
-85.9375 328.125 1105
-460.938 -281.25 2701
-187.5 445.312 817
132.812 164.062 854
195.312 125 878
-156.25 351.562 875
203.125 132.812 878
-468.75 -242.188 2744
-257.812 265.625 1041
-93.75 359.375 1063
-125 421.875 856
-343.75 367.188 851
-375 343.75 1047
101.562 -46.875 1007
-164.062 406.25 843
-164.062 351.562 878
-93.75 382.812 1044
-445.312 -109.375 2883
-187.5 421.875 829
54.6875 -15.625 1016
-359.375 46.875 2984
-382.812 312.5 1084
93.75 31.25 995
-476.562 -210.938 2598
31.25 335.938 918
-281.25 257.812 1034
195.312 156.25 860
-85.9375 304.688 1130
109.375 109.375 1007
0 7.8125 1041
-117.188 414.062 854
187.5 78.125 1047
-93.75 375 1050
93.75 312.5 889
-203.125 414.062 835
-468.75 -406.25 2522
117.188 109.375 1010
-46.875 70.3125 1087
156.25 242.188 860
226.562 70.3125 992
-93.75 406.25 1016
-382.812 367.188 1022
-468.75 -335.938 2598
226.562 62.5 992
-398.438 218.75 1193
171.875 320.312 913
445.312 85.9375 1219
210.938 85.9375 1004
-171.875 359.375 869
-484.375 -296.875 2680
54.6875 31.25 1001
-164.062 359.375 867
-351.562 203.125 1223
-85.9375 296.875 1145
39.0625 179.688 1090
-289.062 421.875 813
-164.062 398.438 849
-85.9375 218.75 1044
-210.938 281.25 1010
132.812 250 860
-164.062 343.75 885
-85.9375 289.062 1153
195.312 -39.0625 3149
148.438 140.625 862
296.875 -39.0625 3149
-273.438 218.75 1038
-382.812 320.312 1073
31.25 156.25 1123
203.125 -39.0625 3178
203.125 140.625 878
-203.125 -46.875 3178
46.875 335.938 920
-195.312 429.688 823
-78.125 -39.0625 3208
-468.75 -234.375 2680
-93.75 414.062 1010
-226.562 312.5 1007
-125 -46.875 3178
39.0625 250 1013
250 156.25 928
31.25 304.688 951
-101.562 -39.0625 3208
-85.9375 312.5 1119
-398.438 281.25 1115
-406.25 273.438 1123
460.938 -31.25 3149
-109.375 -39.0625 3178
-242.188 414.062 819
-140.625 273.438 1165
-125 453.125 851
257.812 250 989
101.562 335.938 918
-140.625 289.062 1145
39.0625 203.125 1057
-250 -46.875 3208
39.0625 218.75 856
187.5 250 878
-93.75 -39.0625 3149
46.875 -15.625 1016
23.4375 132.812 1057
117.188 148.438 864
-210.938 250 987
-242.188 406.25 825
-93.75 351.562 1073
39.0625 226.562 854
195.312 132.812 880
195.312 164.062 851
-492.188 -187.5 2053
226.562 78.125 992
-85.9375 -7.8125 3238
-156.25 343.75 875
-476.562 23.4375 3010
70.3125 250 860
39.0625 101.562 1016
281.25 250 1001
-148.438 328.125 894
226.562 156.25 854
195.312 210.938 858
-484.375 -351.562 2618
-93.75 398.438 856
-226.562 242.188 1010
93.75 156.25 860
265.625 156.25 935
453.125 343.75 875
-179.688 406.25 841
-203.125 390.625 839
-414.062 -164.062 2883
85.9375 164.062 847
93.75 23.4375 998
78.125 54.6875 998
179.688 46.875 1013
-437.5 -250 2767
257.812 -39.0625 3178
-148.438 320.312 903
-117.188 445.312 867
-171.875 375 851
117.188 125 1038
-93.75 390.625 862
390.625 265.625 984
-484.375 -343.75 2598
-375 390.625 998
-250 210.938 1041
-203.125 296.875 981
-85.9375 296.875 956
375 296.875 948
-203.125 328.125 989
460.938 109.375 1181
156.25 226.562 858
179.688 62.5 1007
-62.5 -39.0625 3208
179.688 164.062 849
-273.438 242.188 1044
226.562 62.5 998
-445.312 -46.875 2984
-125 -23.4375 3238
31.25 328.125 925
-85.9375 273.438 1165
-195.312 -23.4375 3238
226.562 85.9375 995
-85.9375 281.25 970
187.5 85.9375 1007
179.688 289.062 903
117.188 195.312 835
218.75 70.3125 995
226.562 70.3125 995
398.438 -7.8125 3238
-187.5 -31.25 3208
7.8125 109.375 1041
70.3125 46.875 998
437.5 -31.25 3149
-132.812 234.375 1214
-414.062 46.875 2958
-93.75 437.5 809
93.75 140.625 878
62.5 -15.625 1013
93.75 320.312 906
226.562 101.562 998
23.4375 304.688 948
398.438 328.125 885
476.562 445.312 805
117.188 250 864
203.125 171.875 845
-468.75 -320.312 2659
-140.625 328.125 891
-85.9375 164.062 1101
-85.9375 289.062 964
476.562 335.938 878
-85.9375 304.688 943
-460.938 -179.688 2789
187.5 70.3125 1007
62.5 132.812 1038
132.812 15.625 1013
210.938 -39.0625 3178
453.125 101.562 1193
39.0625 453.125 813
-218.75 398.438 835
117.188 289.062 889
39.0625 210.938 1047
-390.625 351.562 1034
460.938 320.312 891
-414.062 250 962
31.25 148.438 1123
-460.938 234.375 1161
125 257.812 871
-437.5 148.438 1283
273.438 250 1001
-101.562 -46.875 3149
117.188 -7.8125 1013
-492.188 -421.875 2503
-39.0625 85.9375 1077
-445.312 -101.562 2883
-101.562 453.125 811
101.562 7.8125 1004
312.5 156.25 938
-367.188 15.625 3092
46.875 -23.4375 1019
304.688 156.25 940
85.9375 31.25 998
335.938 140.625 981
-210.938 335.938 978
-132.812 406.25 856
226.562 54.6875 995
-93.75 406.25 847
-367.188 398.438 940
39.0625 93.75 1013
468.75 328.125 880
-93.75 390.625 862
-351.562 195.312 1013
171.875 164.062 849
-484.375 -312.5 2680
-328.125 390.625 823
234.375 273.438 978
132.812 343.75 908
-23.4375 23.4375 1050
460.938 351.562 885
398.438 343.75 880
101.562 273.438 878
265.625 203.125 962
195.312 203.125 849
-460.938 -250 2744
460.938 296.875 885
367.188 273.438 973
-93.75 335.938 1090
390.625 312.5 896
-492.188 -398.438 2541
-484.375 -304.688 2659
-54.6875 54.6875 1080
46.875 312.5 901
-85.9375 242.188 1007
-85.9375 265.625 987
117.188 117.188 1028
-140.625 -289.062 2789
-234.375 218.75 1019
296.875 218.75 933
125 85.9375 1010
164.062 179.688 841
429.688 70.3125 1245
171.875 257.812 880
195.312 210.938 858
320.312 148.438 948
125 101.562 1016
320.312 117.188 1019
132.812 93.75 1016
46.875 15.625 1004
-187.5 390.625 845
156.25 46.875 1025
62.5 234.375 851
-171.875 351.562 873
-460.938 -171.875 2789
156.25 7.8125 1028
-156.25 328.125 894
-492.188 -437.5 2503
-265.625 0 3238
382.812 195.312 1067
-93.75 328.125 1097
117.188 132.812 1044
-85.9375 281.25 970
195.312 156.25 856
187.5 54.6875 1013
195.312 140.625 875
-492.188 -390.625 2541
-476.562 -445.312 2467
-218.75 242.188 1001
132.812 304.688 901
-195.312 375 847
-195.312 445.312 825
-85.9375 320.312 928
250 85.9375 1013
31.25 320.312 933
-351.562 367.188 845
375 281.25 954
250 281.25 970
-171.875 304.688 930
406.25 351.562 871
492.188 187.5 1070
-93.75 203.125 1060
-414.062 -54.6875 3092
171.875 312.5 915
-85.9375 273.438 1165
-242.188 445.312 819
-93.75 375 875
-390.625 296.875 928
0 -7.8125 1038
125 195.312 837
414.062 445.312 813
226.562 62.5 998
148.438 70.3125 1019
-15.625 -7.8125 1057
-476.562 -429.688 2485
46.875 -7.8125 1013
195.312 195.312 847
-179.688 367.188 854
164.062 312.5 915
-289.062 265.625 1034
437.5 85.9375 1219
429.688 375 845
39.0625 203.125 1057
-484.375 85.9375 1365
421.875 54.6875 1273
187.5 85.9375 1007
-242.188 414.062 829
132.812 312.5 908
187.5 140.625 878
179.688 70.3125 1007
328.125 164.062 943
-195.312 406.25 839
-85.9375 257.812 992
-85.9375 265.625 987
-93.75 195.312 1063
85.9375 164.062 847
179.688 281.25 898
195.312 101.562 1013
429.688 62.5 1259
-85.9375 296.875 956
-148.438 437.5 860
-382.812 312.5 910
-140.625 -23.4375 3238
117.188 109.375 1019
-156.25 445.312 856
132.812 -31.25 1038
-93.75 390.625 862
31.25 312.5 940
148.438 -15.625 1041
-250 273.438 1038
-78.125 273.438 970
156.25 195.312 841
-93.75 312.5 1115
-367.188 406.25 984
-375 406.25 981
39.0625 218.75 856
-85.9375 250 995
226.562 93.75 998
101.562 164.062 849
-148.438 -46.875 3208
-375 296.875 918
-453.125 -109.375 2859
-382.812 375 1010
445.312 101.562 1193
-85.9375 289.062 964
-31.25 85.9375 1077
-93.75 382.812 869
-93.75 296.875 1138
-390.625 210.938 984
148.438 156.25 856
406.25 445.312 813
289.062 164.062 935
62.5 195.312 833
54.6875 156.25 862
148.438 210.938 847
0 0 1031
-117.188 367.188 1054
31.25 281.25 889
-93.75 367.188 878
70.3125 296.875 887
-125 429.688 869
-140.625 281.25 1149
140.625 -23.4375 1034
-468.75 0 3092
-460.938 -273.438 2723
195.312 78.125 1007
226.562 54.6875 995
156.25 15.625 1028
-414.062 234.375 1169
453.125 117.188 1169
-93.75 320.312 1105
187.5 164.062 849
406.25 234.375 1019
39.0625 210.938 1047
203.125 101.562 1010
-445.312 -93.75 2883
-93.75 304.688 1126
-195.312 273.438 964
156.25 179.688 839
0 15.625 1028
476.562 164.062 1108
234.375 -39.0625 3178
484.375 179.688 1080
-359.375 -54.6875 3092
-351.562 210.938 1004
140.625 164.062 851
-234.375 304.688 1010
109.375 171.875 845
203.125 125 880
187.5 140.625 878
-445.312 -54.6875 2984
-343.75 382.812 943
-304.688 265.625 1028
-351.562 -54.6875 3092
78.125 39.0625 998
-85.9375 281.25 970
93.75 265.625 871
-406.25 242.188 964
195.312 203.125 849
101.562 203.125 835
226.562 -39.0625 3149
117.188 242.188 860
-93.75 289.062 1149
437.5 70.3125 1245
187.5 -39.0625 3149
109.375 281.25 885
-390.625 -54.6875 3092
179.688 -39.0625 3149
-492.188 -78.125 2116
-210.938 289.062 1001
-335.938 382.812 829
0 39.0625 1025
195.312 156.25 856
179.688 70.3125 1007
-125 437.5 864
15.625 -39.0625 1047
-140.625 -46.875 3208
156.25 39.0625 1022
140.625 39.0625 1010
31.25 289.062 891
-101.562 445.312 809
23.4375 257.812 995
-242.188 210.938 1034
85.9375 210.938 837
-289.062 437.5 856
-85.9375 -46.875 3149
265.625 156.25 935
70.3125 0 1004
-85.9375 226.562 1031
-226.562 398.438 833
-210.938 382.812 839
218.75 109.375 1001
398.438 335.938 880
429.688 320.312 880
-382.812 343.75 1044
-93.75 429.688 829
164.062 320.312 923
117.188 312.5 906
23.4375 250 1004
23.4375 156.25 1119
31.25 164.062 862
-367.188 296.875 915
-210.938 390.625 835
210.938 148.438 862
-171.875 414.062 841
-359.375 296.875 915
437.5 78.125 1236
-187.5 367.188 854
-125 171.875 1302
-125 171.875 1302
-93.75 367.188 878
-312.5 195.312 1028
-406.25 -54.6875 3092
-85.9375 273.438 1165
-85.9375 234.375 1031
-156.25 406.25 847
-328.125 421.875 975
-500 -195.312 2040
398.438 390.625 841
-85.9375 257.812 992
15.625 0 1022
-93.75 273.438 1165
445.312 -31.25 3149
117.188 -31.25 1025
421.875 390.625 833
-46.875 46.875 1077
-390.625 351.562 1034
-257.812 187.5 1047
-359.375 382.812 943
-242.188 226.562 1034
-31.25 23.4375 1060
-101.562 453.125 811
85.9375 187.5 835
-195.312 398.438 845
0 31.25 1025
281.25 187.5 938
78.125 304.688 891
23.4375 320.312 933
156.25 0 1038
-85.9375 218.75 1038
265.625 164.062 935
218.75 -39.0625 3149
31.25 171.875 860
382.812 289.062 940
109.375 156.25 856
78.125 187.5 835
7.8125 46.875 1019
-257.812 398.438 823
-187.5 289.062 954
-375 367.188 951
-460.938 -242.188 2723
23.4375 312.5 940
195.312 195.312 847
-445.312 -179.688 2789
-132.812 187.5 1283
-156.25 343.75 875
-132.812 -46.875 3208
-226.562 414.062 833
179.688 273.438 891
140.625 54.6875 1010
-414.062 414.062 967
453.125 304.688 885
367.188 328.125 896
-250 429.688 825
-375 398.438 989
-93.75 359.375 1060
-226.562 421.875 827
-476.562 -218.75 2598
109.375 -39.0625 1019
375 359.375 891
351.562 312.5 935
-54.6875 62.5 1087
-85.9375 156.25 1328
-468.75 -367.188 2618
-390.625 273.438 940
-265.625 398.438 819
-328.125 187.5 1028
-453.125 -164.062 2812
-375 390.625 998
-414.062 257.812 962
-93.75 281.25 1157
-156.25 312.5 910
-500 -85.9375 2090
429.688 398.438 837
-460.938 -234.375 2701
312.5 39.0625 1292
187.5 93.75 1202
93.75 -62.5 1013
398.438 312.5 896
453.125 312.5 891
-492.188 85.9375 1359
-234.375 296.875 1016
-484.375 132.812 1302
-171.875 382.812 851
171.875 312.5 915
85.9375 164.062 847
31.25 62.5 1007
-492.188 -453.125 2467
85.9375 156.25 858
117.188 328.125 918
132.812 250 869
234.375 203.125 970
367.188 382.812 867
140.625 289.062 896
195.312 109.375 1013
93.75 203.125 833
-375 203.125 1214
492.188 179.688 1080
460.938 437.5 815
109.375 328.125 915
203.125 54.6875 998
-421.875 -78.125 3037
-164.062 304.688 915
156.25 23.4375 1025
85.9375 15.625 1001
187.5 140.625 878
-93.75 312.5 1115
-85.9375 265.625 987
39.0625 203.125 1057
242.188 312.5 938
171.875 250 875
-195.312 421.875 829
-93.75 351.562 1073
-203.125 265.625 978
-265.625 421.875 833
445.312 93.75 1206
203.125 62.5 998
-93.75 375 875
-250 406.25 823
-125 445.312 860
109.375 125 1034
179.688 62.5 1007
85.9375 -62.5 1013
-398.438 226.562 970
85.9375 312.5 898
359.375 -15.625 3178
195.312 54.6875 1004
101.562 234.375 854
320.312 140.625 1019
-398.438 -54.6875 3092
-31.25 39.0625 1063
218.75 140.625 860
-93.75 296.875 1138
359.375 -62.5 3149
-117.188 421.875 906
-101.562 453.125 811
93.75 218.75 843
132.812 210.938 843
171.875 132.812 880
-242.188 210.938 1034
125 304.688 903
-492.188 -445.312 2467
-476.562 -234.375 2639
-390.625 210.938 984
-250 117.188 1365
-484.375 -320.312 2659
281.25 195.312 948
148.438 54.6875 1016
0 125 1060
140.625 46.875 1010
437.5 390.625 831
187.5 257.812 882
-93.75 289.062 1149
312.5 109.375 1028
93.75 85.9375 1001
289.062 281.25 973
226.562 164.062 851
-429.688 -85.9375 2984
156.25 54.6875 1025
195.312 187.5 845
125 101.562 1016
-320.312 195.312 1025
-101.562 437.5 906
117.188 54.6875 1001
140.625 250 869
-476.562 85.9375 1365
-93.75 343.75 1084
164.062 39.0625 1031
250 156.25 933
187.5 250 878
