ply
format ascii 1.0
comment Created by Open3D
element vertex 2412
property double x
property double y
property double z
end_header
39.0625 312.5 967
-23.4375 257.812 920
289.062 398.438 869
85.9375 78.125 1038
54.6875 62.5 1050
-453.125 375 1034
-343.75 304.688 1031
15.625 242.188 915
-476.562 289.062 959
-476.562 289.062 959
164.062 281.25 1016
328.125 62.5 1317
359.375 125 1223
23.4375 125 1112
-335.938 203.125 1070
-335.938 -23.4375 3238
85.9375 85.9375 1038
-468.75 -234.375 2767
46.875 62.5 1087
437.5 250 1273
54.6875 70.3125 1054
-70.3125 132.812 910
-453.125 367.188 998
-210.938 312.5 964
-39.0625 335.938 951
23.4375 101.562 1084
-453.125 -39.0625 3120
-140.625 85.9375 1126
46.875 54.6875 1087
-101.562 312.5 973
-414.062 -140.625 3064
-46.875 265.625 920
-7.8125 250 918
93.75 140.625 1050
-218.75 367.188 910
-359.375 265.625 1070
-437.5 -62.5 3149
46.875 156.25 903
-296.875 -54.6875 3208
-31.25 250 915
148.438 164.062 1050
-179.688 218.75 1070
164.062 93.75 1077
109.375 179.688 984
304.688 218.75 1090
-140.625 54.6875 1097
-109.375 109.375 1090
-179.688 140.625 1169
-39.0625 234.375 906
-304.688 257.812 1010
148.438 109.375 1087
-343.75 187.5 1084
-492.188 218.75 1019
281.25 281.25 940
-132.812 101.562 1094
-476.562 281.25 956
-476.562 -242.188 2701
-289.062 273.438 978
-7.8125 15.625 1054
195.312 156.25 989
-46.875 218.75 894
-109.375 164.062 889
414.062 296.875 995
140.625 93.75 1084
492.188 257.812 1223
7.8125 39.0625 1057
-15.625 15.625 1050
-500 -437.5 2579
39.0625 62.5 1077
367.188 -23.4375 3208
304.688 335.938 920
117.188 156.25 1041
31.25 -15.625 1090
-234.375 429.688 856
-335.938 218.75 1077
-109.375 156.25 903
179.688 171.875 981
-320.312 226.562 1038
273.438 250 1057
-406.25 390.625 913
460.938 445.312 849
-500 78.125 1392
31.25 242.188 915
-46.875 156.25 898
-250 -54.6875 3269
-476.562 -335.938 2680
-468.75 -156.25 2908
-468.75 -304.688 2744
62.5 226.562 915
398.438 250 1044
-109.375 148.438 910
132.812 234.375 987
343.75 85.9375 1273
-234.375 406.25 954
-421.875 367.188 871
-62.5 -46.875 1060
78.125 85.9375 1044
-203.125 85.9375 2958
-195.312 242.188 1038
-468.75 343.75 998
-101.562 328.125 954
0 164.062 896
-453.125 335.938 885
-437.5 335.938 887
62.5 62.5 1050
70.3125 109.375 1044
265.625 281.25 943
343.75 101.562 1255
335.938 62.5 1317
445.312 234.375 1288
250 359.375 918
39.0625 320.312 973
-7.8125 70.3125 1054
-226.562 382.812 894
-320.312 179.688 1084
-195.312 179.688 1112
-312.5 351.562 894
375 187.5 1126
-226.562 375 903
-484.375 -289.062 2723
-132.812 15.625 1084
429.688 343.75 946
-195.312 234.375 1047
54.6875 70.3125 1054
-460.938 367.188 1038
-289.062 -54.6875 3178
-460.938 -148.438 2933
-296.875 265.625 992
-218.75 335.938 943
-101.562 148.438 910
-296.875 335.938 906
46.875 164.062 896
-468.75 312.5 903
304.688 312.5 928
-117.188 -7.8125 1080
-15.625 164.062 894
-23.4375 101.562 1063
46.875 156.25 903
-328.125 382.812 882
-203.125 273.438 987
46.875 23.4375 1084
93.75 70.3125 1038
421.875 320.312 970
-109.375 171.875 885
-328.125 210.938 1054
234.375 351.562 946
-242.188 429.688 920
-406.25 421.875 915
78.125 78.125 1044
179.688 109.375 1077
234.375 375 920
-109.375 187.5 878
-109.375 179.688 882
-210.938 179.688 1322
-257.812 390.625 906
-54.6875 304.688 946
-210.938 304.688 973
-492.188 -296.875 2170
148.438 171.875 973
85.9375 93.75 1041
-320.312 296.875 1044
328.125 62.5 1317
367.188 164.062 1157
273.438 296.875 940
-85.9375 70.3125 1050
421.875 171.875 1392
-101.562 93.75 1070
78.125 125 1038
-23.4375 31.25 1050
-335.938 406.25 867
-140.625 31.25 1101
-109.375 195.312 880
453.125 421.875 873
-23.4375 39.0625 1050
-70.3125 -15.625 1060
406.25 273.438 1022
39.0625 -7.8125 1094
-289.062 375 898
-203.125 265.625 1013
-296.875 343.75 906
-140.625 23.4375 1101
62.5 93.75 1050
148.438 54.6875 1312
304.688 304.688 928
187.5 164.062 984
70.3125 117.188 1044
-476.562 320.312 1022
351.562 109.375 1241
-23.4375 0 1054
-242.188 445.312 915
93.75 78.125 1038
-234.375 414.062 873
85.9375 148.438 1016
-335.938 203.125 1070
-304.688 257.812 1010
-101.562 125 1101
429.688 148.438 1354
-109.375 101.562 1077
-328.125 218.75 1054
289.062 304.688 928
328.125 312.5 962
101.562 132.812 1041
39.0625 31.25 1077
234.375 359.375 938
23.4375 -23.4375 1090
-187.5 156.25 1138
-468.75 351.562 995
-460.938 -210.938 2835
304.688 289.062 930
-171.875 117.188 1197
445.312 359.375 928
390.625 226.562 1080
-437.5 367.188 869
-226.562 367.188 910
242.188 203.125 1115
-484.375 265.625 973
-476.562 -312.5 2744
492.188 -46.875 1149
-109.375 296.875 987
-500 -460.938 2541
85.9375 62.5 1028
-476.562 -289.062 2767
156.25 125 1090
15.625 109.375 1084
-320.312 234.375 1038
437.5 375 915
-414.062 367.188 871
312.5 343.75 928
-367.188 93.75 1404
-289.062 289.062 962
39.0625 78.125 1087
-171.875 109.375 1214
-218.75 343.75 930
70.3125 125 1038
218.75 335.938 946
-289.062 382.812 896
31.25 -15.625 1094
-54.6875 437.5 858
-242.188 437.5 851
-484.375 273.438 967
-476.562 -320.312 2744
-23.4375 250 918
-476.562 -234.375 2701
31.25 70.3125 1077
-109.375 164.062 896
-226.562 375 906
39.0625 304.688 959
-78.125 304.688 946
-460.938 -93.75 3010
-289.062 335.938 913
-460.938 78.125 1421
195.312 273.438 1025
39.0625 312.5 967
-476.562 -421.875 2522
-234.375 406.25 875
-500 -421.875 2541
-304.688 -54.6875 3208
-109.375 203.125 878
250 289.062 987
46.875 226.562 910
0 54.6875 1057
312.5 -23.4375 3269
-156.25 -46.875 3120
140.625 54.6875 1312
328.125 335.938 920
-7.8125 453.125 847
-195.312 226.562 1063
-492.188 -328.125 2170
375 -23.4375 3208
-468.75 -257.812 2789
-500 -445.312 2560
-242.188 445.312 845
46.875 273.438 938
-460.938 -101.562 2984
-500 234.375 1010
78.125 234.375 1016
148.438 171.875 975
39.0625 296.875 956
0 125 1101
-359.375 171.875 1094
23.4375 39.0625 1067
156.25 148.438 1067
101.562 70.3125 1041
85.9375 132.812 1060
-218.75 335.938 933
78.125 78.125 1041
-500 210.938 1028
343.75 78.125 1288
54.6875 62.5 1041
23.4375 62.5 1067
39.0625 0 1094
7.8125 117.188 1094
-476.562 289.062 951
-15.625 39.0625 1050
-46.875 203.125 885
-492.188 250 992
-359.375 179.688 1094
460.938 250 1236
-109.375 210.938 887
289.062 328.125 923
-31.25 23.4375 1050
93.75 117.188 1041
62.5 93.75 1050
-234.375 398.438 880
-226.562 367.188 910
-273.438 312.5 935
296.875 390.625 864
-320.312 234.375 1031
-242.188 390.625 970
-328.125 367.188 894
-140.625 93.75 1119
54.6875 70.3125 1044
-492.188 203.125 1034
70.3125 117.188 1044
-468.75 281.25 956
-109.375 179.688 882
70.3125 148.438 908
-85.9375 93.75 1060
15.625 101.562 1077
-320.312 304.688 928
31.25 85.9375 1087
-289.062 328.125 918
-476.562 328.125 1007
101.562 101.562 1038
359.375 132.812 1206
-273.438 304.688 940
-109.375 195.312 878
-257.812 429.688 906
429.688 203.125 1338
257.812 390.625 875
70.3125 156.25 906
-109.375 218.75 891
101.562 85.9375 1041
78.125 132.812 1028
-351.562 375 885
62.5 85.9375 1054
335.938 70.3125 1312
437.5 242.188 1283
-78.125 195.312 880
-273.438 437.5 896
-296.875 437.5 887
273.438 421.875 878
359.375 148.438 1185
226.562 351.562 946
46.875 164.062 896
-257.812 437.5 903
-492.188 226.562 1013
70.3125 140.625 915
-234.375 406.25 875
453.125 429.688 864
-460.938 367.188 1038
31.25 242.188 918
-109.375 203.125 878
7.8125 234.375 908
-109.375 187.5 878
242.188 312.5 940
46.875 210.938 903
-109.375 320.312 964
421.875 179.688 1376
0 164.062 896
437.5 187.5 1302
46.875 203.125 896
234.375 406.25 894
-132.812 0 1090
335.938 85.9375 1283
-93.75 203.125 885
445.312 398.438 896
101.562 62.5 1034
101.562 78.125 1041
-101.562 23.4375 1060
-445.312 179.688 1067
54.6875 78.125 1050
281.25 375 896
-320.312 375 891
437.5 195.312 1292
429.688 351.562 940
39.0625 70.3125 1080
-62.5 164.062 889
-343.75 390.625 875
-210.938 296.875 984
46.875 39.0625 1087
-85.9375 140.625 913
-62.5 273.438 925
70.3125 132.812 1031
23.4375 31.25 1067
23.4375 265.625 933
-460.938 -140.625 2933
414.062 195.312 1354
-117.188 46.875 1063
-93.75 -54.6875 1097
367.188 171.875 1149
460.938 257.812 1245
-460.938 -187.5 2859
-476.562 -226.562 2680
46.875 195.312 891
281.25 390.625 873
-460.938 351.562 995
46.875 15.625 1094
46.875 31.25 1087
-320.312 351.562 894
-109.375 171.875 885
351.562 125 1219
101.562 93.75 1041
-39.0625 250 915
46.875 218.75 906
-492.188 78.125 1421
484.375 39.0625 1087
93.75 62.5 1038
-101.562 195.312 878
-468.75 351.562 995
-476.562 242.188 995
-351.562 250 1087
-367.188 382.812 880
171.875 226.562 1028
-398.438 414.062 915
-117.188 23.4375 1070
-343.75 187.5 1084
-312.5 250 1019
-39.0625 62.5 1047
187.5 117.188 1067
-15.625 23.4375 1050
-117.188 304.688 978
-7.8125 23.4375 1054
101.562 117.188 1041
-453.125 -31.25 3120
328.125 359.375 918
-109.375 234.375 901
-234.375 398.438 880
-54.6875 265.625 923
-500 -414.062 2541
-281.25 289.062 956
46.875 171.875 891
-101.562 31.25 1057
375 195.312 1115
343.75 296.875 998
-101.562 296.875 935
7.8125 -132.812 3120
156.25 195.312 978
-148.438 85.9375 1119
-85.9375 195.312 880
-218.75 328.125 933
-492.188 257.812 981
46.875 54.6875 1090
-46.875 312.5 954
101.562 70.3125 1041
-140.625 23.4375 1097
-109.375 210.938 887
453.125 250 1264
289.062 382.812 867
-476.562 265.625 970
140.625 210.938 984
46.875 203.125 896
-437.5 359.375 875
164.062 265.625 1038
-476.562 296.875 943
140.625 164.062 1041
-242.188 437.5 851
445.312 406.25 885
453.125 210.938 1259
484.375 171.875 1189
-140.625 62.5 1097
-250 406.25 923
-85.9375 195.312 880
39.0625 289.062 951
-7.8125 171.875 887
-460.938 -218.75 2859
-46.875 156.25 898
296.875 304.688 928
-109.375 195.312 878
-218.75 7.8125 3238
101.562 125 1038
101.562 132.812 1038
-117.188 7.8125 1073
-78.125 15.625 1050
46.875 187.5 889
-304.688 390.625 885
101.562 62.5 1034
-109.375 218.75 891
-453.125 -70.3125 3064
-7.8125 156.25 898
-328.125 234.375 1057
101.562 85.9375 1041
-7.8125 39.0625 1054
-453.125 -203.125 2933
-492.188 -226.562 2184
101.562 78.125 1041
70.3125 62.5 1041
-85.9375 78.125 1054
39.0625 140.625 918
-429.688 -117.188 3092
70.3125 93.75 1050
-476.562 -351.562 2701
421.875 328.125 964
-109.375 203.125 878
-62.5 171.875 885
-109.375 250 901
70.3125 109.375 1044
148.438 273.438 1025
-476.562 -210.938 2744
54.6875 171.875 891
-351.562 195.312 1094
-203.125 195.312 1101
156.25 296.875 1001
171.875 304.688 992
-109.375 226.562 891
-78.125 93.75 1060
179.688 203.125 973
-335.938 226.562 1080
265.625 382.812 882
343.75 367.188 928
-226.562 359.375 910
-414.062 312.5 1013
187.5 164.062 984
187.5 257.812 1044
-226.562 367.188 910
46.875 195.312 891
7.8125 203.125 889
164.062 242.188 1041
148.438 -23.4375 3269
390.625 234.375 1070
-476.562 -437.5 2541
-140.625 46.875 1094
-203.125 -7.8125 3333
-312.5 257.812 1019
-476.562 -304.688 2744
-101.562 140.625 915
156.25 273.438 1025
62.5 93.75 1050
101.562 93.75 1041
-78.125 140.625 913
-15.625 156.25 898
93.75 156.25 992
226.562 390.625 908
-109.375 210.938 887
437.5 210.938 1278
-484.375 273.438 967
-70.3125 281.25 933
85.9375 164.062 992
226.562 304.688 989
398.438 257.812 1041
-460.938 -85.9375 3037
-203.125 265.625 1013
70.3125 156.25 906
-484.375 -437.5 2560
429.688 156.25 1415
-23.4375 -62.5 1105
39.0625 70.3125 1080
-15.625 250 918
-70.3125 -7.8125 1057
-234.375 398.438 880
-7.8125 31.25 1054
101.562 70.3125 1041
46.875 210.938 903
-210.938 289.062 989
54.6875 78.125 1050
-500 -453.125 2522
-500 234.375 1010
-109.375 234.375 901
164.062 187.5 978
-453.125 351.562 880
-7.8125 304.688 951
445.312 273.438 1241
-335.938 367.188 891
-445.312 265.625 1050
-85.9375 132.812 913
85.9375 210.938 1034
15.625 -31.25 1087
-468.75 -23.4375 3120
-242.188 429.688 867
-453.125 343.75 882
0 164.062 896
-109.375 218.75 891
-125 15.625 1077
-125 62.5 1073
-492.188 -320.312 2744
-109.375 242.188 901
-476.562 335.938 1007
101.562 62.5 1034
-296.875 390.625 891
-117.188 54.6875 1063
257.812 421.875 880
39.0625 296.875 956
46.875 203.125 896
15.625 62.5 1067
101.562 101.562 1038
148.438 54.6875 1312
101.562 171.875 984
203.125 171.875 992
429.688 210.938 1328
195.312 132.812 1057
-101.562 156.25 903
-492.188 210.938 1028
23.4375 54.6875 1067
343.75 93.75 1268
-39.0625 -78.125 1115
85.9375 101.562 1041
-156.25 70.3125 1108
265.625 320.312 935
-476.562 -429.688 2541
-476.562 -429.688 2541
-453.125 -148.438 2933
-406.25 406.25 915
78.125 140.625 1022
117.188 156.25 1038
-109.375 187.5 878
31.25 85.9375 1087
140.625 164.062 1041
-125 -7.8125 1090
421.875 164.062 1404
-476.562 -406.25 2598
101.562 109.375 1041
-93.75 31.25 1050
335.938 70.3125 1312
-218.75 320.312 962
195.312 148.438 1001
101.562 78.125 1041
-343.75 195.312 1077
-234.375 390.625 889
-250 390.625 923
-93.75 195.312 880
-453.125 390.625 1019
-125 0 1087
351.562 109.375 1241
101.562 140.625 1038
242.188 296.875 987
-109.375 179.688 882
-203.125 257.812 1019
70.3125 117.188 1044
468.75 109.375 1232
-320.312 382.812 885
-484.375 257.812 981
-109.375 226.562 891
281.25 406.25 871
46.875 179.688 889
406.25 281.25 1013
101.562 85.9375 1041
-492.188 -312.5 2184
23.4375 93.75 1084
78.125 117.188 1047
46.875 187.5 889
-476.562 257.812 981
468.75 195.312 1219
-7.8125 203.125 889
-304.688 335.938 906
398.438 250 1044
492.188 -54.6875 1165
164.062 312.5 984
-468.75 289.062 951
-101.562 70.3125 1060
93.75 62.5 1038
0 62.5 1057
62.5 101.562 1236
-468.75 335.938 1007
0 -7.8125 1067
421.875 218.75 1317
-250 335.938 1112
-320.312 437.5 882
-234.375 328.125 1123
-226.562 359.375 910
-242.188 437.5 851
15.625 23.4375 1063
296.875 406.25 867
296.875 351.562 910
289.062 367.188 908
-234.375 382.812 896
-7.8125 46.875 1054
-328.125 296.875 1044
101.562 125 1038
-296.875 351.562 910
195.312 156.25 1001
-320.312 429.688 887
-281.25 328.125 918
437.5 203.125 1288
-468.75 351.562 995
351.562 117.188 1232
23.4375 -23.4375 1090
-15.625 257.812 923
-468.75 -140.625 2933
-195.312 218.75 1063
-62.5 0 1050
156.25 250 1041
-429.688 257.812 1060
-476.562 250 987
54.6875 148.438 908
-359.375 250 1087
46.875 195.312 891
-468.75 -156.25 2933
-382.812 390.625 880
-250 414.062 918
-406.25 390.625 903
62.5 132.812 915
39.0625 273.438 938
164.062 101.562 1077
70.3125 242.188 920
-468.75 -218.75 2812
-476.562 -296.875 2767
-351.562 429.688 871
54.6875 78.125 1050
-62.5 210.938 887
-460.938 -78.125 3037
351.562 132.812 1206
265.625 281.25 940
-109.375 210.938 887
-195.312 226.562 1063
101.562 70.3125 1041
-15.625 281.25 938
93.75 125 1041
437.5 382.812 908
-109.375 250 901
-117.188 0 1077
101.562 117.188 1041
-257.812 421.875 908
328.125 70.3125 1307
-453.125 382.812 1022
226.562 335.938 938
-468.75 -203.125 2859
-109.375 273.438 925
-382.812 328.125 901
-289.062 281.25 970
85.9375 164.062 992
-93.75 15.625 1057
-242.188 445.312 845
39.0625 265.625 933
-203.125 250 1034
421.875 -312.5 2744
-335.938 210.938 1063
-375 437.5 878
132.812 210.938 992
-476.562 296.875 943
78.125 156.25 1007
-312.5 250 1019
-109.375 265.625 923
-289.062 296.875 954
-460.938 375 1031
328.125 320.312 959
-54.6875 304.688 946
171.875 171.875 981
265.625 296.875 943
140.625 171.875 973
296.875 398.438 864
-484.375 -445.312 2541
-281.25 406.25 913
-85.9375 -445.312 2618
39.0625 281.25 946
-7.8125 171.875 887
-109.375 312.5 973
234.375 312.5 938
-93.75 -31.25 1080
70.3125 62.5 1041
-484.375 281.25 962
15.625 242.188 915
101.562 132.812 1038
171.875 156.25 1067
85.9375 140.625 1022
62.5 78.125 1050
85.9375 156.25 995
39.0625 148.438 910
-242.188 429.688 867
15.625 39.0625 1063
-492.188 -343.75 2226
101.562 62.5 1034
-296.875 335.938 908
-210.938 281.25 1181
-343.75 195.312 1077
359.375 140.625 1197
-31.25 39.0625 1050
15.625 -31.25 1087
-23.4375 15.625 1050
0 78.125 1060
226.562 398.438 898
62.5 140.625 915
-62.5 273.438 925
-218.75 203.125 1283
-210.938 289.062 989
-109.375 328.125 956
-492.188 257.812 981
-62.5 164.062 889
-234.375 390.625 889
250 406.25 880
-109.375 289.062 935
-117.188 93.75 1080
0 210.938 896
101.562 93.75 1041
-132.812 31.25 1080
-500 -429.688 2598
-109.375 281.25 933
54.6875 85.9375 1054
-54.6875 234.375 903
-109.375 257.812 915
-375 375 880
-281.25 414.062 906
140.625 203.125 984
-421.875 375 862
-406.25 382.812 869
429.688 164.062 1404
-23.4375 156.25 898
-460.938 -203.125 2859
453.125 414.062 880
-476.562 -281.25 2789
-492.188 382.812 1019
39.0625 62.5 1080
-109.375 203.125 878
-93.75 132.812 913
-468.75 359.375 998
-39.0625 -78.125 1115
421.875 148.438 1421
-500 242.188 1010
-351.562 179.688 1090
-117.188 312.5 973
226.562 343.75 954
-406.25 179.688 1080
359.375 156.25 1173
273.438 281.25 940
78.125 70.3125 1038
-70.3125 296.875 940
429.688 171.875 1387
437.5 70.3125 3037
-257.812 375 913
-476.562 328.125 1007
-85.9375 -54.6875 1090
-484.375 -210.938 2680
101.562 164.062 984
-234.375 382.812 896
-484.375 195.312 1034
-468.75 -226.562 2789
-62.5 171.875 885
437.5 218.75 1312
-70.3125 78.125 1050
156.25 187.5 978
289.062 281.25 938
-257.812 382.812 923
46.875 187.5 889
-15.625 156.25 898
265.625 382.812 882
-359.375 171.875 1094
195.312 140.625 1054
39.0625 148.438 910
437.5 171.875 1317
85.9375 171.875 992
-484.375 250 992
453.125 156.25 1297
484.375 156.25 1145
414.062 203.125 1338
429.688 234.375 1292
-476.562 335.938 1007
-148.438 39.0625 1105
-445.312 187.5 1060
-484.375 -460.938 2522
-78.125 132.812 913
93.75 109.375 1041
343.75 109.375 1241
-500 -421.875 2541
-328.125 226.562 1050
-476.562 -328.125 2723
-7.8125 203.125 889
39.0625 257.812 928
414.062 218.75 1317
179.688 312.5 984
-320.312 242.188 1031
-312.5 -39.0625 3238
437.5 148.438 1354
-117.188 31.25 1067
-476.562 -359.375 2701
-492.188 -304.688 2170
-343.75 210.938 1084
-460.938 359.375 998
-460.938 -125 2958
78.125 132.812 1028
-492.188 -265.625 2170
23.4375 93.75 1084
-304.688 414.062 906
54.6875 132.812 915
-476.562 -289.062 2767
-93.75 78.125 1057
421.875 335.938 954
54.6875 62.5 1041
234.375 367.188 930
429.688 359.375 933
78.125 78.125 1041
-273.438 296.875 946
179.688 117.188 1070
351.562 117.188 1232
304.688 296.875 928
-335.938 273.438 1067
429.688 218.75 1317
187.5 187.5 987
-492.188 -187.5 2198
-218.75 312.5 967
-296.875 273.438 981
0 140.625 918
78.125 148.438 1016
-46.875 164.062 891
-117.188 -31.25 1101
164.062 335.938 959
257.812 328.125 930
-281.25 -54.6875 3238
-226.562 343.75 925
281.25 359.375 906
320.312 312.5 962
-476.562 -390.625 2618
296.875 453.125 851
195.312 125 1050
31.25 312.5 967
62.5 125 1038
7.8125 109.375 1080
-70.3125 281.25 930
156.25 156.25 1060
140.625 171.875 970
-195.312 210.938 1080
-257.812 398.438 928
-437.5 -109.375 3092
39.0625 7.8125 1094
46.875 62.5 1044
-460.938 375 1031
-242.188 414.062 871
78.125 62.5 1034
-476.562 -320.312 2701
-226.562 351.562 925
-85.9375 101.562 1063
-234.375 382.812 889
54.6875 85.9375 1044
39.0625 156.25 903
62.5 109.375 1047
-281.25 296.875 951
-156.25 78.125 1108
-46.875 312.5 954
-109.375 296.875 940
-367.188 390.625 875
-93.75 85.9375 1060
-335.938 210.938 1060
250 414.062 887
-78.125 289.062 933
78.125 125 1041
-117.188 156.25 906
453.125 437.5 858
-453.125 -70.3125 3064
148.438 140.625 1094
-101.562 -31.25 1080
-468.75 -210.938 2859
-210.938 281.25 1010
148.438 54.6875 1317
-109.375 117.188 1097
31.25 -7.8125 1094
70.3125 70.3125 1038
398.438 265.625 1031
-500 -406.25 2618
-242.188 421.875 862
-242.188 398.438 882
335.938 93.75 1273
-62.5 320.312 956
78.125 140.625 1019
187.5 171.875 984
335.938 78.125 1292
78.125 78.125 1038
445.312 406.25 885
23.4375 85.9375 1084
-328.125 367.188 896
-257.812 406.25 920
445.312 242.188 1273
382.812 210.938 1097
-85.9375 -23.4375 1067
-62.5 117.188 1070
62.5 140.625 915
406.25 265.625 1028
70.3125 125 1034
109.375 156.25 1038
62.5 101.562 1054
-304.688 101.562 1415
-31.25 23.4375 1050
-250 343.75 1105
-500 -437.5 2579
-468.75 195.312 1047
54.6875 156.25 901
-117.188 164.062 891
31.25 320.312 970
-304.688 265.625 995
39.0625 62.5 1084
-109.375 304.688 978
-445.312 406.25 1004
62.5 132.812 1031
-460.938 304.688 930
406.25 289.062 1004
320.312 328.125 956
-492.188 -273.438 2184
203.125 140.625 1022
-312.5 390.625 885
-218.75 109.375 1421
-500 -445.312 2541
382.812 218.75 1090
78.125 85.9375 1038
-445.312 390.625 1022
-46.875 62.5 1047
-109.375 31.25 1060
-460.938 273.438 959
46.875 62.5 1044
-445.312 85.9375 1410
-31.25 257.812 920
78.125 70.3125 1038
-429.688 85.9375 1415
31.25 78.125 1084
-117.188 171.875 887
-343.75 390.625 878
-70.3125 195.312 878
-109.375 125 1097
-242.188 414.062 871
187.5 125 1063
-273.438 328.125 925
-54.6875 156.25 901
-117.188 0 1073
-320.312 242.188 1028
-468.75 187.5 1054
484.375 265.625 1236
-250 437.5 847
39.0625 156.25 903
-476.562 343.75 1001
437.5 257.812 1259
-484.375 -85.9375 3064
54.6875 85.9375 1044
-468.75 -148.438 2908
-226.562 343.75 925
468.75 187.5 1214
-375 375 882
-234.375 375 908
-484.375 320.312 1087
54.6875 164.062 894
-23.4375 304.688 954
-484.375 -414.062 2541
390.625 242.188 1060
-85.9375 -70.3125 1101
62.5 148.438 913
-109.375 242.188 906
429.688 367.188 928
-484.375 281.25 973
132.812 281.25 1019
-460.938 312.5 920
-117.188 148.438 906
-31.25 218.75 896
476.562 226.562 1214
132.812 54.6875 1317
46.875 70.3125 1047
101.562 78.125 1041
101.562 179.688 981
-468.75 359.375 998
31.25 31.25 1077
23.4375 242.188 918
7.8125 31.25 1063
-85.9375 62.5 1050
-500 242.188 998
-375 382.812 878
93.75 125 1041
312.5 312.5 925
62.5 109.375 1047
-484.375 203.125 1038
304.688 351.562 920
15.625 101.562 1080
-492.188 265.625 978
-234.375 382.812 889
0 117.188 1094
-226.562 109.375 1421
-242.188 406.25 878
140.625 164.062 1050
-85.9375 -62.5 1084
421.875 171.875 1392
-101.562 101.562 1070
23.4375 70.3125 1070
226.562 296.875 1001
250 351.562 915
-367.188 414.062 864
265.625 296.875 940
-39.0625 250 915
-484.375 -453.125 2541
-476.562 156.25 1302
164.062 273.438 1025
70.3125 70.3125 1038
78.125 62.5 1034
156.25 281.25 1016
15.625 335.938 956
156.25 257.812 1044
320.312 343.75 918
203.125 398.438 898
-117.188 187.5 882
31.25 304.688 959
-117.188 156.25 906
-218.75 304.688 973
31.25 -7.8125 1094
-429.688 375 864
93.75 132.812 1041
-39.0625 234.375 906
242.188 335.938 933
-250 421.875 918
210.938 335.938 959
445.312 421.875 873
171.875 171.875 984
-242.188 414.062 871
343.75 101.562 1255
-31.25 -70.3125 1108
-23.4375 -39.0625 1067
-210.938 273.438 1010
132.812 304.688 992
-117.188 203.125 885
-54.6875 265.625 923
250 406.25 880
-70.3125 -46.875 1063
492.188 -54.6875 1165
-476.562 304.688 933
156.25 54.6875 1317
-117.188 164.062 891
39.0625 7.8125 1094
-93.75 31.25 1050
-351.562 187.5 1090
-46.875 132.812 913
242.188 359.375 915
445.312 164.062 1317
-453.125 273.438 1047
-437.5 85.9375 1415
226.562 406.25 894
62.5 85.9375 1044
-39.0625 23.4375 1050
-117.188 179.688 885
54.6875 226.562 908
-312.5 414.062 903
54.6875 62.5 1044
226.562 312.5 935
-476.562 -54.6875 3092
46.875 70.3125 1047
398.438 164.062 1404
31.25 320.312 970
62.5 117.188 1038
-382.812 -62.5 3178
-500 78.125 1398
-218.75 312.5 967
31.25 312.5 967
-125 78.125 1077
70.3125 78.125 1041
414.062 312.5 981
39.0625 164.062 896
-31.25 250 915
-54.6875 234.375 901
-117.188 171.875 887
-117.188 39.0625 1063
453.125 257.812 1259
273.438 281.25 940
-320.312 234.375 1031
109.375 164.062 975
46.875 218.75 908
320.312 335.938 920
85.9375 148.438 1016
-78.125 62.5 1047
-7.8125 164.062 896
476.562 273.438 1241
-234.375 375 908
-445.312 179.688 1054
39.0625 218.75 908
-125 -7.8125 1084
-296.875 375 901
54.6875 78.125 1047
-296.875 273.438 981
-62.5 -46.875 1057
-132.812 7.8125 1080
39.0625 15.625 1087
-93.75 70.3125 1054
39.0625 234.375 915
-78.125 -31.25 1070
23.4375 296.875 954
31.25 23.4375 1080
-351.562 296.875 1041
171.875 109.375 1070
-328.125 226.562 1047
-226.562 335.938 938
23.4375 265.625 930
-312.5 343.75 903
-117.188 218.75 1073
-109.375 273.438 935
23.4375 -15.625 1097
-203.125 242.188 1047
-304.688 273.438 992
31.25 78.125 1084
421.875 156.25 1421
-320.312 421.875 898
54.6875 85.9375 1044
-414.062 250 1073
7.8125 -15.625 1080
39.0625 250 925
-453.125 -85.9375 3064
-406.25 -62.5 3149
-445.312 -62.5 3064
-484.375 -382.812 2598
-343.75 203.125 1070
-265.625 414.062 913
125 -39.0625 3238
78.125 148.438 1016
-453.125 -23.4375 3149
429.688 226.562 1307
-242.188 406.25 878
-226.562 343.75 925
-445.312 367.188 871
39.0625 54.6875 1084
-70.3125 164.062 889
429.688 148.438 1317
414.062 234.375 1297
70.3125 109.375 1047
-414.062 429.688 913
-375 406.25 869
492.188 -62.5 1177
-109.375 132.812 1181
445.312 414.062 880
-31.25 85.9375 1054
-117.188 23.4375 1070
78.125 93.75 1041
-328.125 -23.4375 3269
-406.25 414.062 908
-406.25 414.062 908
-484.375 -406.25 2579
15.625 -23.4375 1087
-304.688 265.625 995
54.6875 93.75 1050
164.062 250 1050
62.5 109.375 1047
-117.188 195.312 885
-62.5 304.688 946
234.375 328.125 938
-500 -414.062 2579
-101.562 179.688 880
429.688 242.188 1278
156.25 101.562 1080
351.562 125 1223
289.062 328.125 925
0 125 1101
-460.938 367.188 998
39.0625 226.562 910
164.062 234.375 1031
156.25 85.9375 1077
-460.938 375 1031
-453.125 -140.625 2933
421.875 187.5 1359
148.438 132.812 1094
-117.188 187.5 882
359.375 140.625 1197
-492.188 -296.875 2156
187.5 156.25 989
-62.5 210.938 887
-203.125 187.5 1101
-476.562 -281.25 2789
-15.625 39.0625 1054
-54.6875 203.125 885
164.062 359.375 938
0 46.875 1060
-46.875 203.125 885
46.875 171.875 889
-54.6875 -78.125 1115
437.5 390.625 901
-39.0625 -54.6875 1050
85.9375 70.3125 1038
-429.688 367.188 871
-23.4375 281.25 938
-445.312 359.375 878
289.062 406.25 867
-453.125 359.375 878
-351.562 203.125 1087
-320.312 359.375 901
-117.188 203.125 885
-23.4375 15.625 1050
78.125 132.812 1031
-289.062 406.25 915
-375 382.812 878
39.0625 171.875 891
125 93.75 1077
-351.562 187.5 1090
-234.375 367.188 913
-39.0625 -187.5 2984
257.812 281.25 1022
-367.188 171.875 1097
-296.875 335.938 910
-390.625 46.875 2958
-226.562 335.938 938
140.625 164.062 1050
-148.438 23.4375 1105
-296.875 289.062 962
-54.6875 257.812 915
39.0625 187.5 889
-476.562 335.938 1013
281.25 328.125 920
46.875 70.3125 1047
-492.188 265.625 978
-117.188 210.938 1087
-7.8125 296.875 948
-117.188 226.562 1063
-7.8125 164.062 896
-476.562 343.75 1001
-117.188 109.375 1094
-62.5 218.75 891
39.0625 218.75 908
39.0625 203.125 896
31.25 304.688 959
0 132.812 918
70.3125 78.125 1041
-484.375 289.062 975
-484.375 289.062 975
39.0625 23.4375 1087
-257.812 406.25 920
-289.062 359.375 913
31.25 296.875 954
-140.625 101.562 1105
7.8125 0 1070
23.4375 242.188 918
-468.75 359.375 998
-109.375 195.312 885
-117.188 179.688 885
250 390.625 875
-148.438 54.6875 1097
320.312 359.375 918
406.25 156.25 1415
398.438 179.688 1376
328.125 78.125 1297
-62.5 265.625 920
-31.25 39.0625 1050
281.25 304.688 928
421.875 265.625 1028
78.125 250 1050
-312.5 257.812 1016
140.625 171.875 970
-117.188 218.75 1073
31.25 39.0625 1077
-328.125 218.75 1047
-117.188 101.562 1084
406.25 250 1050
-343.75 203.125 1070
-304.688 335.938 908
-242.188 398.438 882
164.062 187.5 978
-328.125 289.062 1050
-445.312 398.438 1010
-242.188 125 1404
351.562 140.625 1193
335.938 78.125 1292
-70.3125 164.062 889
39.0625 210.938 903
-460.938 -132.812 2958
-23.4375 312.5 959
164.062 54.6875 1322
62.5 125 1038
-70.3125 273.438 923
-265.625 390.625 923
-484.375 328.125 1013
-210.938 203.125 1288
406.25 296.875 995
429.688 195.312 1354
-367.188 218.75 1097
-23.4375 156.25 901
-203.125 234.375 1047
429.688 164.062 1343
-46.875 250 913
-296.875 382.812 894
-15.625 203.125 889
-468.75 351.562 998
414.062 250 1050
15.625 46.875 1067
-70.3125 296.875 938
414.062 289.062 1004
-148.438 85.9375 1115
-335.938 218.75 1063
343.75 101.562 1255
15.625 265.625 933
-15.625 31.25 1054
226.562 359.375 938
250 382.812 878
-500 218.75 1019
179.688 164.062 981
-343.75 265.625 1073
-250 437.5 847
-476.562 -265.625 2767
62.5 156.25 894
-453.125 281.25 951
242.188 343.75 925
281.25 359.375 906
-117.188 210.938 1087
-304.688 343.75 906
-234.375 375 908
-312.5 359.375 903
-117.188 242.188 1047
-281.25 320.312 925
421.875 210.938 1322
-31.25 31.25 1050
46.875 62.5 1044
-468.75 343.75 1001
-359.375 375 885
-7.8125 164.062 896
39.0625 15.625 1087
-210.938 265.625 1010
-218.75 226.562 1255
-468.75 367.188 1041
-484.375 320.312 1087
-54.6875 312.5 951
289.062 351.562 908
-296.875 351.562 915
421.875 179.688 1381
54.6875 70.3125 1047
-109.375 328.125 956
-148.438 46.875 1097
-234.375 367.188 913
-226.562 328.125 946
23.4375 85.9375 1084
-101.562 31.25 1057
-117.188 187.5 882
-460.938 -125 2984
-296.875 406.25 915
-445.312 -125 3064
-31.25 -54.6875 1063
-476.562 -203.125 2789
-117.188 203.125 885
54.6875 93.75 1050
-85.9375 109.375 1067
-281.25 312.5 935
-242.188 406.25 878
-484.375 375 1031
39.0625 203.125 896
-140.625 0 1101
289.062 390.625 869
-460.938 -70.3125 3064
437.5 250 1273
453.125 382.812 908
-437.5 296.875 1028
-281.25 304.688 943
-460.938 -78.125 3037
-70.3125 171.875 885
93.75 109.375 1041
-265.625 437.5 906
93.75 78.125 1038
-484.375 -437.5 2560
39.0625 187.5 889
-203.125 226.562 1060
39.0625 179.688 889
-492.188 -265.625 2184
93.75 62.5 1031
23.4375 -15.625 1097
-148.438 93.75 1112
-117.188 226.562 1063
85.9375 78.125 1038
-468.75 -171.875 2883
-46.875 156.25 901
289.062 304.688 928
85.9375 117.188 1041
85.9375 156.25 989
-476.562 -289.062 2789
-453.125 -62.5 3064
-46.875 -62.5 1050
296.875 289.062 930
-429.688 -62.5 3149
-460.938 -171.875 2883
-492.188 -453.125 2503
304.688 343.75 923
-195.312 156.25 1145
93.75 70.3125 1038
7.8125 109.375 1080
39.0625 171.875 891
39.0625 171.875 894
421.875 226.562 1307
-78.125 289.062 933
-390.625 398.438 875
-492.188 -281.25 2170
-109.375 109.375 1080
-117.188 234.375 903
203.125 148.438 1007
-218.75 296.875 975
140.625 171.875 970
382.812 226.562 1080
-296.875 359.375 910
-398.438 414.062 898
-15.625 296.875 948
-93.75 101.562 1063
-109.375 -39.0625 1094
54.6875 148.438 901
93.75 117.188 1041
-484.375 -390.625 2598
-414.062 421.875 908
93.75 85.9375 1041
70.3125 132.812 1028
242.188 296.875 981
39.0625 164.062 898
-125 46.875 1067
-234.375 359.375 915
-101.562 234.375 901
93.75 171.875 981
31.25 70.3125 1087
-85.9375 23.4375 1050
-289.062 289.062 954
-117.188 218.75 891
-242.188 398.438 878
-500 250 989
257.812 328.125 928
-39.0625 -39.0625 1060
70.3125 78.125 1038
437.5 226.562 1245
39.0625 195.312 891
-476.562 -273.438 2812
-476.562 -367.188 2680
-343.75 367.188 891
93.75 101.562 1041
46.875 78.125 1050
-335.938 375 889
-117.188 210.938 885
320.312 62.5 1328
-54.6875 289.062 935
367.188 187.5 1130
-484.375 -421.875 2579
257.812 320.312 935
-250 390.625 967
-15.625 171.875 887
226.562 375 920
39.0625 31.25 1090
39.0625 210.938 906
-117.188 203.125 885
-250 429.688 854
-492.188 203.125 1034
-484.375 195.312 1044
31.25 0 1094
93.75 125 1041
-250 437.5 854
-328.125 234.375 1034
-70.3125 312.5 951
7.8125 23.4375 1067
-320.312 250 1016
62.5 117.188 1041
-7.8125 210.938 894
-109.375 125 1101
93.75 62.5 1031
78.125 164.062 992
-265.625 421.875 910
62.5 148.438 1019
-117.188 242.188 906
93.75 93.75 1041
-46.875 -7.8125 1057
335.938 101.562 1259
218.75 398.438 898
187.5 132.812 1054
-226.562 328.125 948
-335.938 359.375 891
-335.938 421.875 901
-351.562 390.625 875
-500 203.125 1025
93.75 78.125 1041
351.562 132.812 1206
-62.5 304.688 946
328.125 62.5 1322
-328.125 351.562 894
93.75 132.812 1038
-218.75 289.062 987
375 203.125 1108
335.938 85.9375 1283
-484.375 -398.438 2560
39.0625 187.5 889
226.562 351.562 946
31.25 296.875 954
-289.062 320.312 923
-117.188 250 906
-62.5 171.875 885
-500 226.562 1013
445.312 429.688 867
414.062 210.938 1328
-476.562 312.5 918
132.812 140.625 1101
-328.125 375 891
445.312 445.312 849
437.5 398.438 894
93.75 70.3125 1038
-328.125 437.5 882
-460.938 -195.312 2859
-351.562 257.812 1084
-320.312 390.625 882
54.6875 93.75 1050
-492.188 234.375 1007
93.75 85.9375 1041
406.25 218.75 1317
-304.688 390.625 889
-125 117.188 1108
-117.188 265.625 923
-335.938 281.25 1057
382.812 85.9375 3010
31.25 281.25 946
398.438 273.438 1019
242.188 320.312 938
31.25 273.438 938
132.812 164.062 1047
-140.625 31.25 1084
-101.562 226.562 894
-484.375 320.312 1013
468.75 70.3125 1268
-476.562 273.438 964
-343.75 414.062 873
-453.125 398.438 1010
39.0625 39.0625 1090
-335.938 382.812 882
-78.125 7.8125 1050
-367.188 179.688 1094
-414.062 414.062 906
-468.75 304.688 930
85.9375 62.5 1031
31.25 148.438 910
226.562 289.062 1004
93.75 148.438 1041
-15.625 203.125 889
-31.25 15.625 1054
-484.375 257.812 981
476.562 31.25 1264
-70.3125 0 1054
445.312 234.375 1241
-281.25 421.875 903
-335.938 367.188 896
406.25 234.375 1060
-203.125 179.688 1105
-398.438 375 871
-39.0625 -62.5 1057
70.3125 125 1041
-343.75 -23.4375 3238
85.9375 109.375 1038
320.312 359.375 915
-242.188 390.625 885
62.5 62.5 1038
164.062 226.562 1028
62.5 156.25 901
257.812 226.562 1084
468.75 257.812 1232
-421.875 179.688 1077
-460.938 351.562 875
-70.3125 210.938 889
203.125 429.688 869
-304.688 351.562 908
93.75 109.375 1041
-23.4375 250 918
-39.0625 54.6875 1047
-492.188 273.438 964
-476.562 343.75 998
-500 -460.938 2503
-7.8125 62.5 1057
-265.625 429.688 908
39.0625 179.688 889
-226.562 335.938 935
62.5 132.812 1031
31.25 70.3125 1087
23.4375 70.3125 1080
-117.188 257.812 918
-296.875 281.25 973
23.4375 85.9375 1090
93.75 78.125 1041
421.875 203.125 1338
335.938 367.188 928
-500 -421.875 2579
257.812 203.125 1119
-179.688 109.375 1210
281.25 382.812 873
-164.062 70.3125 1112
39.0625 203.125 896
23.4375 312.5 967
-187.5 132.812 1189
78.125 132.812 1057
-250 429.688 854
15.625 -23.4375 1094
-468.75 -234.375 2789
156.25 242.188 1038
-125 7.8125 1073
54.6875 101.562 1054
93.75 117.188 1041
250 328.125 930
31.25 265.625 933
78.125 101.562 1038
-234.375 359.375 915
-101.562 -39.0625 1087
-54.6875 156.25 901
-273.438 429.688 906
-23.4375 156.25 901
-93.75 31.25 1050
414.062 164.062 1404
179.688 117.188 1063
-289.062 328.125 920
-296.875 328.125 920
-78.125 296.875 938
-359.375 250 1087
93.75 70.3125 1038
-320.312 250 1016
-476.562 351.562 995
23.4375 328.125 967
-468.75 367.188 995
93.75 164.062 981
-375 382.812 878
-453.125 390.625 1022
-117.188 289.062 933
-414.062 171.875 1087
-390.625 390.625 878
351.562 125 1219
-85.9375 15.625 1050
-117.188 273.438 930
218.75 390.625 906
343.75 109.375 1236
-117.188 296.875 935
429.688 187.5 1359
-117.188 195.312 882
-23.4375 54.6875 1050
148.438 187.5 973
218.75 351.562 943
390.625 250 1047
375 109.375 2933
93.75 125 1041
421.875 351.562 940
-484.375 328.125 1007
312.5 328.125 959
46.875 179.688 889
-476.562 -195.312 2859
-484.375 289.062 959
210.938 335.938 956
-484.375 -375 2639
15.625 54.6875 1070
78.125 140.625 1016
-460.938 343.75 880
-125 -7.8125 1080
62.5 140.625 1025
93.75 62.5 1031
78.125 164.062 992
46.875 78.125 1050
-398.438 -23.4375 3238
-62.5 218.75 894
31.25 148.438 910
-437.5 359.375 873
289.062 359.375 910
31.25 140.625 920
-125 54.6875 1063
-117.188 265.625 923
320.312 62.5 1328
-335.938 265.625 1070
-484.375 296.875 948
15.625 265.625 933
-117.188 320.312 964
-242.188 289.062 1173
-250 421.875 925
-226.562 320.312 956
-343.75 257.812 1084
93.75 93.75 1041
-70.3125 171.875 885
-23.4375 257.812 920
-257.812 429.688 913
-203.125 218.75 1077
343.75 93.75 1273
-335.938 218.75 1050
-70.3125 164.062 889
-468.75 187.5 1057
-210.938 195.312 1101
-117.188 226.562 898
54.6875 101.562 1054
-328.125 429.688 889
7.8125 -31.25 1097
31.25 289.062 948
-296.875 296.875 948
-453.125 179.688 1060
-117.188 281.25 933
-328.125 382.812 885
-148.438 7.8125 1101
273.438 367.188 908
-234.375 109.375 1427
187.5 148.438 998
-460.938 -85.9375 3037
78.125 156.25 995
78.125 156.25 995
-109.375 234.375 903
-273.438 414.062 910
46.875 70.3125 1041
-367.188 171.875 1097
93.75 85.9375 1041
-500 -406.25 2598
31.25 273.438 938
62.5 70.3125 1038
70.3125 140.625 1022
492.188 -70.3125 1193
164.062 257.812 1044
-210.938 257.812 1022
-54.6875 -23.4375 1060
-46.875 -23.4375 1060
-39.0625 23.4375 1050
484.375 257.812 1232
-125 0 1077
-281.25 437.5 898
-500 -375 2639
-242.188 390.625 885
54.6875 78.125 1050
-484.375 -359.375 2680
-476.562 -187.5 2859
54.6875 132.812 1034
226.562 117.188 1232
492.188 265.625 1214
187.5 179.688 987
-7.8125 78.125 1060
421.875 195.312 1354
-242.188 398.438 878
437.5 210.938 1259
23.4375 78.125 1084
164.062 109.375 1077
328.125 343.75 915
-125 156.25 903
281.25 375 898
132.812 164.062 1047
-203.125 226.562 1060
367.188 195.312 1119
93.75 132.812 1038
-7.8125 125 1094
164.062 125 1080
7.8125 39.0625 1063
-460.938 -62.5 3092
-54.6875 62.5 1047
-242.188 421.875 854
437.5 218.75 1255
187.5 140.625 1054
-234.375 398.438 878
351.562 148.438 1185
429.688 382.812 908
-359.375 179.688 1087
-125 -31.25 1101
-125 93.75 1077
-101.562 -31.25 1073
-234.375 351.562 925
398.438 281.25 1013
-132.812 15.625 1077
93.75 101.562 1041
-117.188 117.188 1097
-296.875 390.625 894
476.562 171.875 1197
-257.812 414.062 920
-437.5 -101.562 3092
250 359.375 910
-296.875 335.938 915
70.3125 117.188 1044
-70.3125 273.438 923
31.25 257.812 928
468.75 179.688 1214
-320.312 414.062 901
46.875 62.5 1041
-500 -429.688 2579
-31.25 304.688 951
-7.8125 117.188 1087
-484.375 -351.562 2680
-7.8125 210.938 894
-218.75 289.062 987
406.25 304.688 987
-218.75 281.25 998
320.312 320.312 959
-101.562 39.0625 1054
85.9375 125 1044
-15.625 164.062 896
62.5 164.062 898
70.3125 70.3125 1038
-500 210.938 1025
-468.75 375 1034
54.6875 125 1038
-492.188 273.438 964
-304.688 328.125 920
15.625 328.125 967
265.625 281.25 943
359.375 171.875 1157
-117.188 171.875 891
-250 429.688 854
-101.562 15.625 1060
54.6875 101.562 1054
31.25 156.25 906
-242.188 382.812 894
132.812 171.875 973
70.3125 78.125 1038
179.688 109.375 1063
328.125 85.9375 1283
148.438 93.75 1077
328.125 70.3125 1307
312.5 375 920
7.8125 296.875 951
54.6875 148.438 901
-226.562 23.4375 3178
343.75 125 1219
437.5 406.25 885
-343.75 218.75 1063
414.062 320.312 970
-226.562 218.75 1264
-125 156.25 903
-148.438 23.4375 1090
-125 164.062 901
218.75 304.688 992
375 210.938 1097
250 320.312 940
-476.562 312.5 918
242.188 406.25 880
351.562 132.812 1206
85.9375 62.5 1031
-7.8125 93.75 1063
46.875 85.9375 1054
257.812 281.25 943
-125 171.875 891
-23.4375 156.25 901
-101.562 31.25 1054
0 109.375 1087
-437.5 328.125 891
234.375 414.062 889
429.688 250 1268
54.6875 140.625 920
148.438 101.562 1077
382.812 234.375 1070
70.3125 210.938 1038
-85.9375 289.062 933
-476.562 281.25 959
-54.6875 312.5 954
-296.875 429.688 894
62.5 70.3125 1038
-101.562 70.3125 1054
-226.562 312.5 970
-460.938 382.812 1028
-500 257.812 981
-23.4375 203.125 889
281.25 367.188 908
93.75 78.125 1041
-117.188 304.688 978
-414.062 406.25 906
-484.375 328.125 1007
46.875 148.438 910
-281.25 414.062 906
70.3125 125 1041
54.6875 117.188 1044
54.6875 109.375 1044
343.75 117.188 1232
-476.562 351.562 995
-281.25 406.25 915
-31.25 -46.875 1063
31.25 62.5 1084
-46.875 250 913
-15.625 312.5 962
-421.875 429.688 987
-335.938 312.5 925
445.312 250 1268
390.625 257.812 1041
-468.75 312.5 918
-484.375 304.688 1105
70.3125 70.3125 1038
-265.625 375 973
-335.938 367.188 896
132.812 171.875 973
335.938 39.0625 3238
-250 414.062 933
-265.625 406.25 920
15.625 93.75 1080
250 414.062 885
328.125 351.562 913
70.3125 156.25 1001
-500 -226.562 2184
-320.312 250 1016
15.625 -23.4375 1094
78.125 93.75 1041
-453.125 -156.25 2984
421.875 359.375 930
-125 179.688 885
-468.75 -125 2984
429.688 156.25 1338
320.312 312.5 962
-242.188 382.812 894
101.562 164.062 981
-328.125 242.188 1034
-476.562 -273.438 2812
-484.375 265.625 975
-468.75 -203.125 2859
492.188 187.5 1165
31.25 156.25 906
-234.375 351.562 925
70.3125 78.125 1038
218.75 335.938 935
-414.062 382.812 864
-31.25 -39.0625 1063
-414.062 398.438 875
-7.8125 132.812 918
-125 164.062 901
-359.375 195.312 1090
-85.9375 132.812 915
437.5 234.375 1241
93.75 179.688 984
468.75 171.875 1219
109.375 226.562 992
281.25 304.688 928
195.312 171.875 989
-335.938 179.688 1073
31.25 265.625 933
156.25 265.625 1038
0 31.25 1063
70.3125 148.438 1016
257.812 414.062 887
-31.25 281.25 938
31.25 164.062 898
62.5 117.188 1041
-156.25 85.9375 1105
-250 421.875 925
-203.125 171.875 1126
78.125 171.875 992
62.5 101.562 1054
-125 171.875 891
-343.75 226.562 1063
296.875 351.562 920
-148.438 62.5 1090
-296.875 281.25 973
312.5 351.562 918
46.875 226.562 910
39.0625 62.5 1090
-351.562 195.312 1084
-468.75 -179.688 2859
-54.6875 203.125 887
-476.562 -195.312 2859
-15.625 -46.875 1077
-23.4375 70.3125 1054
-453.125 -187.5 2958
-117.188 328.125 956
187.5 132.812 1054
-367.188 250 1084
101.562 101.562 1050
70.3125 101.562 1047
-109.375 46.875 1054
-460.938 359.375 875
242.188 359.375 915
-359.375 179.688 1087
-406.25 39.0625 2984
-125 187.5 882
140.625 54.6875 1317
46.875 85.9375 1054
-437.5 320.312 910
54.6875 101.562 1054
7.8125 101.562 1080
-93.75 93.75 1060
-226.562 320.312 956
-367.188 375 882
54.6875 132.812 1034
335.938 93.75 1273
-234.375 343.75 935
-335.938 375 889
70.3125 62.5 1038
62.5 70.3125 1038
-210.938 250 1034
-250 414.062 933
-312.5 257.812 1004
-54.6875 257.812 915
132.812 203.125 987
-195.312 148.438 1145
-265.625 398.438 923
273.438 304.688 930
-343.75 210.938 1060
31.25 187.5 889
-117.188 320.312 964
-117.188 312.5 973
132.812 54.6875 1317
-468.75 367.188 995
437.5 414.062 880
-468.75 335.938 891
320.312 62.5 1328
-218.75 281.25 998
-250 281.25 1177
-351.562 210.938 1087
-7.8125 140.625 918
-242.188 375 981
-343.75 273.438 1067
54.6875 148.438 901
-242.188 382.812 894
-468.75 375 1034
62.5 125 1038
-382.812 375 875
-62.5 203.125 885
-117.188 289.062 933
-242.188 218.75 1259
-304.688 382.812 894
-39.0625 257.812 923
-7.8125 -23.4375 1077
-62.5 156.25 901
-125 203.125 885
-484.375 296.875 948
312.5 -23.4375 3269
218.75 343.75 951
-414.062 179.688 1080
-54.6875 234.375 903
-226.562 312.5 970
-492.188 375 1028
101.562 171.875 978
-335.938 226.562 1050
-39.0625 250 915
-164.062 78.125 1112
70.3125 70.3125 1038
7.8125 -31.25 1097
31.25 164.062 898
-484.375 335.938 998
31.25 7.8125 1090
-484.375 273.438 964
429.688 242.188 1278
-203.125 132.812 1392
46.875 62.5 1041
257.812 382.812 882
70.3125 78.125 1038
31.25 62.5 1084
-468.75 273.438 964
164.062 171.875 978
-70.3125 210.938 889
23.4375 312.5 967
-304.688 273.438 984
-125 195.312 882
-125 210.938 1087
-101.562 234.375 901
125 54.6875 1312
-343.75 367.188 891
226.562 328.125 935
39.0625 70.3125 1094
414.062 171.875 1392
-328.125 304.688 930
-125 171.875 891
-492.188 250 989
-296.875 101.562 1433
132.812 164.062 1047
-78.125 70.3125 1047
-234.375 343.75 935
250 367.188 906
140.625 203.125 981
-484.375 -445.312 2560
39.0625 62.5 1090
203.125 335.938 959
-250 414.062 933
-453.125 187.5 1060
-257.812 351.562 1097
-500 -398.438 2560
-351.562 187.5 1080
-429.688 -70.3125 3149
-312.5 265.625 989
429.688 203.125 1333
-343.75 203.125 1057
-140.625 -39.0625 1101
-476.562 351.562 995
-500 382.812 1004
-203.125 210.938 1087
-117.188 210.938 891
-46.875 289.062 938
-101.562 132.812 918
484.375 132.812 1126
-125 187.5 871
-281.25 296.875 948
-320.312 242.188 1019
445.312 148.438 1292
132.812 171.875 973
54.6875 109.375 1041
-476.562 -210.938 2789
54.6875 125 1038
23.4375 296.875 954
164.062 218.75 1025
31.25 218.75 908
-484.375 -382.812 2579
-31.25 156.25 903
-468.75 -250 2767
-210.938 242.188 1050
-78.125 171.875 885
85.9375 132.812 1041
-375 437.5 873
429.688 390.625 901
46.875 78.125 1050
-320.312 343.75 903
-15.625 164.062 896
195.312 148.438 1013
-242.188 375 906
-289.062 296.875 948
-312.5 375 896
-476.562 359.375 995
54.6875 85.9375 1044
-70.3125 117.188 1070
-250 406.25 869
-289.062 421.875 903
-328.125 242.188 1025
328.125 70.3125 1307
31.25 226.562 910
31.25 171.875 894
289.062 414.062 885
-328.125 421.875 896
-351.562 367.188 891
78.125 148.438 992
23.4375 78.125 1090
-117.188 -39.0625 1094
179.688 125 1057
-296.875 343.75 918
-445.312 -39.0625 3120
492.188 125 1123
-39.0625 289.062 940
-179.688 -46.875 3238
23.4375 -7.8125 1094
273.438 335.938 915
-234.375 -7.8125 3333
46.875 85.9375 1044
398.438 289.062 1001
335.938 85.9375 1283
-234.375 335.938 933
-23.4375 39.0625 1050
250 406.25 882
-242.188 367.188 915
-437.5 421.875 992
-125 203.125 885
-125 210.938 891
242.188 414.062 887
343.75 132.812 1206
39.0625 70.3125 1050
-156.25 31.25 1094
234.375 359.375 915
31.25 54.6875 1087
31.25 234.375 915
-226.562 109.375 1427
-125 195.312 871
31.25 195.312 891
-7.8125 54.6875 1057
273.438 328.125 923
-46.875 23.4375 1047
-250 406.25 869
-250 398.438 882
-117.188 328.125 956
242.188 421.875 878
-132.812 -39.0625 1090
-257.812 437.5 845
23.4375 320.312 970
31.25 203.125 896
218.75 406.25 891
93.75 109.375 1041
335.938 93.75 1273
-78.125 164.062 891
265.625 281.25 940
46.875 93.75 1044
-39.0625 93.75 1054
23.4375 312.5 964
-125 101.562 1084
-31.25 312.5 959
218.75 359.375 938
218.75 296.875 998
-492.188 281.25 962
-46.875 -54.6875 1050
132.812 164.062 1050
-125 179.688 875
281.25 351.562 906
-273.438 390.625 915
-242.188 367.188 915
437.5 421.875 873
437.5 421.875 873
7.8125 62.5 1067
-218.75 273.438 1010
-398.438 414.062 894
382.812 242.188 1060
-484.375 335.938 1001
-257.812 421.875 867
414.062 335.938 954
-70.3125 265.625 920
85.9375 171.875 981
-468.75 -242.188 2767
-382.812 382.812 880
70.3125 62.5 1034
117.188 54.6875 1317
414.062 328.125 962
-125 218.75 894
-468.75 343.75 882
-492.188 195.312 1044
-468.75 375 1031
54.6875 117.188 1041
-125 234.375 901
367.188 203.125 1108
343.75 453.125 851
-351.562 31.25 3010
62.5 210.938 1041
390.625 265.625 1031
-476.562 -46.875 3092
-492.188 -273.438 2184
62.5 78.125 1038
421.875 148.438 1349
-492.188 242.188 995
-101.562 335.938 951
70.3125 93.75 1038
-414.062 375 858
-257.812 429.688 851
-476.562 195.312 1044
359.375 179.688 1141
-500 203.125 1031
-125 226.562 896
-453.125 179.688 1060
335.938 109.375 1241
-226.562 304.688 967
-85.9375 281.25 928
31.25 187.5 889
-109.375 218.75 891
-500 265.625 984
-289.062 304.688 940
-125 210.938 891
-85.9375 62.5 1047
23.4375 304.688 959
-421.875 421.875 998
31.25 15.625 1090
421.875 156.25 1349
7.8125 101.562 1084
-203.125 164.062 1130
78.125 78.125 1038
-54.6875 117.188 1070
15.625 -15.625 1094
-125 109.375 1097
-125 187.5 871
-476.562 -265.625 2789
250 375 896
70.3125 148.438 1016
406.25 312.5 978
406.25 312.5 978
-500 -359.375 2701
-93.75 335.938 951
429.688 171.875 1312
-320.312 257.812 1010
312.5 335.938 923
-93.75 328.125 956
414.062 164.062 1404
31.25 171.875 894
-23.4375 203.125 889
-70.3125 164.062 891
31.25 23.4375 1090
0 109.375 1090
-289.062 414.062 908
-304.688 398.438 882
437.5 257.812 1259
476.562 164.062 1189
476.562 156.25 1185
54.6875 109.375 1041
406.25 195.312 1354
-210.938 234.375 1047
-250 406.25 869
-70.3125 -46.875 1060
375 218.75 1090
-359.375 187.5 1084
171.875 117.188 1067
-453.125 406.25 1004
-414.062 414.062 898
-304.688 359.375 910
-304.688 101.562 1415
-257.812 437.5 845
-132.812 109.375 1105
187.5 117.188 1050
23.4375 296.875 954
234.375 335.938 930
375 46.875 3178
-437.5 304.688 1019
242.188 382.812 878
179.688 156.25 992
-351.562 265.625 1073
-78.125 0 1054
-117.188 125 1101
-15.625 46.875 1054
-382.812 -101.562 3092
437.5 265.625 1255
-218.75 203.125 1105
-484.375 -414.062 2541
-62.5 265.625 923
265.625 343.75 908
-468.75 -171.875 2883
242.188 343.75 918
-132.812 -7.8125 1084
-125 250 896
-460.938 -54.6875 3092
-273.438 421.875 908
-492.188 257.812 984
31.25 195.312 891
78.125 70.3125 1038
-109.375 156.25 898
140.625 101.562 1080
-476.562 359.375 995
-156.25 453.125 843
-453.125 304.688 913
46.875 93.75 1044
-234.375 335.938 933
39.0625 54.6875 1097
-320.312 359.375 906
23.4375 78.125 1090
-140.625 -39.0625 1101
-437.5 367.188 869
-242.188 367.188 915
7.8125 85.9375 1080
460.938 171.875 1219
492.188 242.188 1202
460.938 257.812 1236
31.25 203.125 896
-31.25 250 918
328.125 78.125 1297
132.812 171.875 973
-23.4375 171.875 887
359.375 453.125 849
70.3125 171.875 992
-78.125 171.875 885
-476.562 320.312 918
70.3125 164.062 995
-125 85.9375 1070
195.312 132.812 1038
117.188 93.75 1077
-484.375 -390.625 2618
31.25 179.688 889
54.6875 156.25 898
257.812 390.625 882
250 398.438 873
62.5 78.125 1038
117.188 140.625 1038
-218.75 265.625 1010
31.25 54.6875 1087
15.625 187.5 887
320.312 351.562 915
-234.375 390.625 887
31.25 218.75 908
-500 234.375 1004
148.438 250 1044
-296.875 312.5 935
-398.438 398.438 878
-148.438 101.562 1105
31.25 250 925
109.375 101.562 1077
85.9375 164.062 987
-398.438 429.688 889
23.4375 31.25 1080
31.25 187.5 889
164.062 109.375 1073
46.875 70.3125 1050
