ply
format ascii 1.0
comment Created by Open3D
element vertex 2339
property double x
property double y
property double z
end_header
-335.938 351.562 1365
-265.625 359.375 1268
-445.312 101.562 1185
-78.125 398.438 1680
-296.875 359.375 1365
382.812 312.5 1189
70.3125 -85.9375 1119
-445.312 -132.812 1381
289.062 0 1123
-351.562 367.188 1338
-93.75 -85.9375 1134
-414.062 101.562 1177
437.5 -179.688 1427
-460.938 312.5 1439
492.188 414.062 1343
281.25 234.375 1177
-289.062 375 1322
343.75 296.875 1189
-289.062 359.375 1264
-429.688 -179.688 3333
-406.25 351.562 1365
-414.062 367.188 1322
109.375 390.625 1543
-273.438 54.6875 1169
-46.875 398.438 1696
-273.438 382.812 1288
-164.062 328.125 1813
-312.5 382.812 1328
85.9375 289.062 1843
140.625 70.3125 1169
-39.0625 62.5 1177
-328.125 375 1322
-367.188 296.875 1496
273.438 375 1354
-406.25 -7.8125 1165
-93.75 429.688 1601
-335.938 -85.9375 1202
-320.312 343.75 1398
93.75 390.625 1550
-273.438 -85.9375 1145
460.938 140.625 1138
429.688 203.125 1157
406.25 -15.625 1483
-281.25 31.25 1169
328.125 375 1349
101.562 156.25 1181
414.062 -179.688 1433
453.125 421.875 1410
-468.75 351.562 1273
-382.812 367.188 1322
-398.438 328.125 1415
125 -109.375 1161
187.5 54.6875 1149
-39.0625 -257.812 1415
351.562 296.875 1189
-23.4375 62.5 1181
195.312 156.25 1181
-242.188 218.75 1297
-382.812 -93.75 1189
257.812 54.6875 1141
132.812 70.3125 1165
492.188 -85.9375 1464
-343.75 351.562 1359
-437.5 -265.625 3269
-343.75 -7.8125 1173
390.625 296.875 1181
-273.438 187.5 1214
421.875 414.062 1404
492.188 -62.5 1477
460.938 265.625 1173
85.9375 242.188 1813
320.312 296.875 1193
484.375 -23.4375 1477
460.938 -289.062 1404
-242.188 46.875 1173
-382.812 39.0625 1193
242.188 46.875 1145
367.188 351.562 1410
343.75 429.688 1338
-414.062 -375 3178
320.312 -23.4375 1572
-109.375 -195.312 1264
-101.562 -148.438 1278
421.875 -7.8125 1496
-460.938 398.438 1586
148.438 -164.062 1241
-390.625 39.0625 1153
-234.375 54.6875 1165
-367.188 -31.25 1169
-335.938 320.312 1439
-296.875 335.938 1410
335.938 343.75 1387
-148.438 -132.812 1283
-281.25 23.4375 1165
-54.6875 -226.562 1259
78.125 -132.812 1185
273.438 -70.3125 1112
-171.875 -234.375 1250
-351.562 7.8125 1173
281.25 265.625 1185
421.875 429.688 1381
429.688 -187.5 1427
-101.562 62.5 1177
-187.5 382.812 1338
-101.562 -140.625 1283
-78.125 -218.75 1264
-70.3125 -218.75 1264
-54.6875 62.5 1177
62.5 398.438 1557
-179.688 62.5 1165
-398.438 257.812 1223
203.125 -70.3125 1115
109.375 -132.812 1206
289.062 171.875 1157
-351.562 -125 1214
-500 242.188 1223
-429.688 -351.562 3238
-210.938 46.875 1177
-414.062 -156.25 3300
312.5 -15.625 1536
375 210.938 1161
195.312 304.688 1543
429.688 437.5 1376
265.625 304.688 1197
429.688 -15.625 1483
-250 289.062 1297
414.062 218.75 1145
-437.5 335.938 1376
-289.062 218.75 1202
476.562 343.75 1415
-312.5 -70.3125 1141
406.25 335.938 1421
-148.438 -187.5 1264
-445.312 250 1227
-218.75 46.875 1173
414.062 429.688 1387
-453.125 -15.625 1185
390.625 -15.625 1496
335.938 382.812 1338
-31.25 62.5 1181
250 406.25 1241
-296.875 125 1177
-382.812 109.375 1173
296.875 148.438 1153
23.4375 62.5 1173
429.688 414.062 1404
296.875 -70.3125 1112
312.5 296.875 1193
484.375 398.438 1415
93.75 429.688 1415
484.375 359.375 1404
320.312 -15.625 1536
85.9375 -125 1169
93.75 226.562 1813
257.812 359.375 1232
-203.125 46.875 1177
7.8125 359.375 1624
289.062 31.25 1130
-164.062 -109.375 1173
429.688 406.25 1415
265.625 312.5 1197
-257.812 304.688 1264
218.75 398.438 1255
-70.3125 70.3125 1153
85.9375 429.688 1415
-304.688 375 1333
-265.625 382.812 1278
445.312 140.625 1138
0 62.5 1177
-250 382.812 1283
46.875 62.5 1185
156.25 70.3125 1173
-203.125 54.6875 1181
250 414.062 1241
375 226.562 1169
7.8125 39.0625 1153
-195.312 54.6875 1181
-429.688 62.5 1138
-218.75 54.6875 1177
-398.438 335.938 1404
-312.5 70.3125 1138
289.062 203.125 1169
-101.562 -203.125 1264
-70.3125 359.375 1776
0 -242.188 1433
437.5 398.438 1410
492.188 429.688 1322
-210.938 54.6875 1177
-281.25 15.625 1165
257.812 7.8125 1130
-390.625 -125 1193
328.125 -23.4375 1516
437.5 -15.625 1483
414.062 -15.625 1489
-398.438 359.375 1338
414.062 421.875 1398
-179.688 46.875 1169
476.562 289.062 1185
-187.5 375 1338
468.75 281.25 1181
-429.688 -62.5 1255
78.125 289.062 1843
429.688 140.625 1138
-101.562 -85.9375 1134
-312.5 304.688 1477
-281.25 281.25 1223
-375 -125 1197
-406.25 328.125 1410
265.625 -62.5 1112
-296.875 328.125 1433
-281.25 -85.9375 1145
-296.875 375 1322
54.6875 421.875 1415
54.6875 421.875 1415
460.938 -171.875 1427
-23.4375 -257.812 1410
-429.688 -195.312 3269
335.938 296.875 1189
-226.562 46.875 1173
492.188 289.062 1177
484.375 312.5 1181
335.938 -187.5 1483
-453.125 -7.8125 1185
351.562 273.438 1181
210.938 70.3125 1173
-359.375 359.375 1365
328.125 304.688 1193
-7.8125 62.5 1177
343.75 437.5 1343
-351.562 -78.125 1189
-257.812 429.688 1297
234.375 46.875 1145
-273.438 179.688 1210
335.938 -85.9375 1503
421.875 -187.5 1427
414.062 140.625 1138
-500 164.062 1173
382.812 -15.625 1503
-15.625 62.5 1177
-31.25 -242.188 1415
-171.875 54.6875 1177
-468.75 7.8125 1292
281.25 242.188 1181
257.812 -85.9375 1123
-445.312 335.938 1376
460.938 343.75 1410
-187.5 54.6875 1177
-421.875 31.25 1177
-15.625 -242.188 1427
-500 296.875 1273
-46.875 -164.062 1264
109.375 429.688 1445
-375 367.188 1322
304.688 -250 3269
218.75 46.875 1145
304.688 296.875 1189
343.75 -203.125 1464
164.062 -70.3125 1119
62.5 359.375 1572
257.812 367.188 1232
343.75 -179.688 1470
289.062 23.4375 1126
289.062 187.5 1165
375 390.625 1359
62.5 296.875 1843
132.812 -148.438 1236
-335.938 -78.125 1273
93.75 -101.562 1161
-421.875 -70.3125 1245
-429.688 -234.375 3300
359.375 140.625 1149
-421.875 -117.188 1189
-85.9375 -304.688 1489
164.062 -125 1214
-296.875 0 1161
-257.812 414.062 1288
-460.938 -125 1343
-54.6875 156.25 1193
-359.375 343.75 1392
-460.938 -273.438 3365
492.188 -54.6875 1477
-117.188 -257.812 1250
289.062 429.688 1328
-109.375 62.5 1181
187.5 -70.3125 1115
-359.375 367.188 1328
117.188 390.625 1529
265.625 -70.3125 1112
210.938 46.875 1145
203.125 46.875 1145
-203.125 375 1338
-398.438 351.562 1365
-343.75 273.438 1223
382.812 140.625 1145
-257.812 -85.9375 1145
-437.5 7.8125 1173
460.938 289.062 1181
-257.812 281.25 1255
39.0625 62.5 1157
-70.3125 62.5 1173
-203.125 406.25 1328
-85.9375 -85.9375 1134
-54.6875 -195.312 1268
23.4375 -85.9375 1126
437.5 406.25 1415
-492.188 -250 3269
-132.812 -250 1250
-171.875 -218.75 1259
367.188 398.438 1343
-289.062 171.875 1193
-398.438 7.8125 1165
-273.438 359.375 1264
-62.5 -85.9375 1130
-453.125 343.75 1376
-414.062 39.0625 1185
-375 39.0625 1193
226.562 46.875 1145
23.4375 328.125 1863
-304.688 7.8125 1161
-281.25 273.438 1219
54.6875 62.5 1185
-414.062 -257.812 3269
453.125 148.438 1145
296.875 156.25 1153
-257.812 421.875 1292
398.438 367.188 1433
-312.5 7.8125 1197
-257.812 328.125 1264
-218.75 421.875 1322
-304.688 382.812 1322
-289.062 187.5 1193
-101.562 -218.75 1259
-445.312 171.875 1173
132.812 93.75 1115
-125 -242.188 1255
390.625 390.625 1452
-406.25 367.188 1322
-351.562 335.938 1410
-320.312 375 1322
187.5 335.938 1529
-359.375 109.375 1181
328.125 -39.0625 1523
31.25 62.5 1157
85.9375 -109.375 1181
-390.625 343.75 1370
62.5 62.5 1157
0 335.938 1873
-46.875 406.25 1680
23.4375 335.938 1863
312.5 351.562 1365
289.062 179.688 1157
0 -257.812 1433
-289.062 -46.875 1145
195.312 46.875 1145
-234.375 46.875 1173
-31.25 -85.9375 1130
15.625 62.5 1177
-414.062 -46.875 1189
-296.875 -62.5 1141
257.812 46.875 1141
-15.625 -85.9375 1126
328.125 437.5 1312
-328.125 242.188 1210
343.75 -187.5 1470
343.75 -23.4375 1509
359.375 375 1354
-289.062 343.75 1255
93.75 242.188 1823
445.312 -15.625 1483
-281.25 7.8125 1161
-15.625 -257.812 1421
-328.125 351.562 1370
468.75 -289.062 3120
375 -289.062 1433
367.188 -179.688 1458
-476.562 343.75 1278
406.25 429.688 1381
296.875 296.875 1189
484.375 406.25 1343
-445.312 351.562 1317
-210.938 382.812 1328
-421.875 328.125 1398
-343.75 242.188 1214
-257.812 296.875 1264
453.125 -15.625 1483
-281.25 359.375 1264
-398.438 343.75 1376
281.25 46.875 1141
398.438 -15.625 1483
-250 -85.9375 1145
46.875 414.062 1433
-382.812 281.25 1245
-70.3125 390.625 1713
312.5 296.875 1193
-445.312 359.375 1317
-93.75 -250 1250
351.562 328.125 1624
-39.0625 -257.812 1415
-62.5 390.625 1722
226.562 -70.3125 1119
195.312 -70.3125 1115
101.562 187.5 1804
-273.438 296.875 1245
-281.25 23.4375 1165
-85.9375 -312.5 1489
-273.438 85.9375 1130
-414.062 -296.875 3238
320.312 296.875 1193
-187.5 46.875 1173
203.125 296.875 1387
-320.312 242.188 1210
-273.438 289.062 1245
140.625 46.875 1145
-335.938 265.625 1219
-476.562 -250 3365
-218.75 265.625 1445
468.75 375 1398
429.688 210.938 1157
-46.875 -85.9375 1130
117.188 -148.438 1241
-289.062 375 1322
-148.438 -273.438 1250
351.562 -210.938 1458
289.062 15.625 1126
492.188 406.25 1415
-140.625 46.875 1169
-125 46.875 1165
-359.375 375 1317
-210.938 437.5 1392
359.375 335.938 1404
-343.75 -46.875 1181
-335.938 109.375 1177
140.625 -85.9375 1115
125 -125 1161
-335.938 -15.625 1173
-78.125 -85.9375 1130
-132.812 54.6875 1173
132.812 414.062 1489
-296.875 320.312 1458
117.188 375 1543
359.375 -296.875 1433
-132.812 -242.188 1250
492.188 -39.0625 1458
265.625 328.125 1236
-179.688 54.6875 1177
-335.938 367.188 1328
335.938 437.5 1328
351.562 -203.125 1458
-132.812 375 1748
-296.875 367.188 1359
0 -226.562 1328
101.562 429.688 1445
-421.875 -23.4375 1173
93.75 343.75 1853
-390.625 257.812 1223
-406.25 234.375 1214
109.375 93.75 1115
-273.438 281.25 1227
-289.062 351.562 1259
132.812 62.5 1153
453.125 289.062 1181
-171.875 46.875 1173
-398.438 62.5 1138
109.375 62.5 1181
-125 -140.625 1283
281.25 296.875 1189
-390.625 -46.875 1169
468.75 289.062 1181
296.875 -31.25 1130
-289.062 156.25 1185
164.062 46.875 1149
-15.625 -132.812 1370
-367.188 351.562 1359
70.3125 62.5 1153
-453.125 -15.625 1185
-117.188 -164.062 1273
-328.125 -15.625 1177
0 -250 1433
171.875 46.875 1149
31.25 335.938 1873
421.875 398.438 1415
289.062 296.875 1189
195.312 -78.125 1115
-125 -85.9375 1138
468.75 140.625 1138
367.188 -179.688 1458
-453.125 250 1223
187.5 46.875 1145
437.5 390.625 1404
-62.5 -156.25 1268
-351.562 343.75 1404
-23.4375 -242.188 1415
-445.312 0 1181
-421.875 -46.875 1189
7.8125 -85.9375 1123
-250 390.625 1283
437.5 -187.5 1427
-335.938 -101.562 1227
0 -85.9375 1123
429.688 -289.062 1404
289.062 390.625 1333
273.438 -85.9375 1119
-359.375 109.375 1181
-140.625 -265.625 1250
-148.438 -218.75 1255
203.125 406.25 1381
210.938 140.625 1153
23.4375 343.75 1863
78.125 62.5 1153
257.812 70.3125 1177
-343.75 359.375 1359
-23.4375 62.5 1181
-164.062 -265.625 1245
390.625 140.625 1145
-265.625 -85.9375 1145
-109.375 85.9375 1126
-7.8125 445.312 1452
-406.25 -7.8125 1165
-398.438 -62.5 1181
179.688 46.875 1145
226.562 70.3125 1173
281.25 265.625 1185
250 70.3125 1177
-210.938 46.875 1177
-304.688 367.188 1359
-343.75 367.188 1322
62.5 445.312 1415
296.875 390.625 1333
171.875 -70.3125 1119
-54.6875 414.062 1601
328.125 296.875 1193
-257.812 414.062 1288
-382.812 359.375 1359
-39.0625 -234.375 1349
-195.312 46.875 1173
320.312 398.438 1328
-296.875 70.3125 1134
179.688 -70.3125 1115
-437.5 351.562 1312
445.312 265.625 1173
101.562 -101.562 1169
-343.75 351.562 1359
-398.438 39.0625 1153
-304.688 320.312 1464
-164.062 -125 1283
-398.438 39.0625 1153
289.062 218.75 1173
-62.5 359.375 1776
-62.5 62.5 1173
-39.0625 -226.562 1349
296.875 359.375 1370
242.188 46.875 1145
-23.4375 406.25 1536
351.562 429.688 1343
484.375 421.875 1338
-406.25 -46.875 1177
-54.6875 375 1757
-476.562 164.062 1202
-351.562 -148.438 1452
-351.562 351.562 1365
171.875 -78.125 1119
93.75 429.688 1415
156.25 46.875 1145
-281.25 242.188 1210
343.75 -195.312 1470
7.8125 62.5 1177
-179.688 46.875 1169
-125 54.6875 1165
-414.062 -164.062 3300
-250 367.188 1297
-140.625 -273.438 1250
257.812 429.688 1370
-390.625 -117.188 1193
296.875 -23.4375 1123
109.375 414.062 1470
375 -296.875 1433
421.875 437.5 1376
-148.438 -265.625 1250
-320.312 -93.75 1227
414.062 406.25 1427
-398.438 7.8125 1165
-359.375 -31.25 1173
78.125 46.875 1149
265.625 445.312 1359
429.688 -15.625 1483
0 -242.188 1433
-85.9375 351.562 1794
148.438 -109.375 1161
101.562 46.875 1149
-242.188 78.125 1134
289.062 195.312 1165
-351.562 375 1333
460.938 -281.25 1404
-375 335.938 1398
234.375 46.875 1145
-289.062 367.188 1349
-195.312 -85.9375 1141
-281.25 15.625 1165
-70.3125 -85.9375 1130
-429.688 23.4375 1169
0 -265.625 1421
-31.25 -226.562 1370
-304.688 390.625 1322
351.562 406.25 1333
-101.562 -265.625 1245
296.875 -46.875 1123
-406.25 -15.625 1165
140.625 93.75 1112
148.438 -85.9375 1119
-406.25 335.938 1404
-78.125 335.938 1863
265.625 421.875 1354
343.75 343.75 1410
7.8125 70.3125 1161
85.9375 289.062 1843
-164.062 257.812 1804
15.625 70.3125 1161
-117.188 46.875 1165
-281.25 7.8125 1161
62.5 421.875 1503
281.25 304.688 1189
-367.188 -117.188 1206
132.812 46.875 1145
312.5 421.875 1328
296.875 -15.625 1126
-460.938 335.938 1370
-437.5 343.75 1312
-367.188 304.688 1477
429.688 203.125 1157
445.312 -289.062 1410
296.875 -39.0625 1126
-117.188 -242.188 1255
195.312 250 1523
437.5 203.125 1157
-109.375 46.875 1165
-31.25 -257.812 1410
109.375 148.438 1173
-156.25 46.875 1169
-62.5 -265.625 1250
-414.062 -328.125 3238
-218.75 46.875 1173
-39.0625 62.5 1177
273.438 70.3125 1181
-273.438 320.312 1259
351.562 437.5 1359
312.5 273.438 1189
-273.438 398.438 1283
-343.75 343.75 1359
-382.812 234.375 1214
203.125 343.75 1415
-242.188 203.125 1297
117.188 -109.375 1165
-406.25 320.312 1427
-367.188 39.0625 1210
445.312 289.062 1177
304.688 296.875 1189
-265.625 343.75 1264
-367.188 39.0625 1210
468.75 -15.625 1483
-281.25 132.812 1185
109.375 156.25 1181
-492.188 -234.375 2503
-257.812 289.062 1264
39.0625 343.75 1873
-429.688 7.8125 1169
218.75 70.3125 1173
-31.25 -132.812 1376
-421.875 -312.5 3208
85.9375 429.688 1415
250 46.875 1145
273.438 382.812 1354
359.375 429.688 1359
429.688 390.625 1410
390.625 343.75 1433
492.188 398.438 1370
-203.125 46.875 1177
-343.75 335.938 1410
-296.875 335.938 1410
46.875 390.625 1550
0 445.312 1470
-195.312 398.438 1328
101.562 367.188 1748
-312.5 343.75 1398
-156.25 54.6875 1173
-445.312 328.125 1398
-445.312 398.438 1586
437.5 -23.4375 1477
187.5 382.812 1536
242.188 70.3125 1177
-406.25 -31.25 1169
296.875 -70.3125 1112
-257.812 54.6875 1181
-296.875 -39.0625 1149
-164.062 -164.062 1268
-351.562 39.0625 1202
273.438 445.312 1359
281.25 250 1181
-148.438 46.875 1169
-273.438 46.875 1173
367.188 -289.062 1433
187.5 265.625 1601
484.375 -140.625 1445
85.9375 -101.562 1157
289.062 54.6875 1141
250 414.062 1241
-109.375 -171.875 1273
-460.938 296.875 1470
343.75 429.688 1338
406.25 421.875 1404
437.5 265.625 1173
-171.875 171.875 1757
39.0625 54.6875 1145
296.875 164.062 1153
210.938 46.875 1145
-23.4375 414.062 1516
406.25 390.625 1427
195.312 382.812 1433
-492.188 54.6875 1141
-390.625 -101.562 1206
148.438 46.875 1145
-226.562 421.875 1343
343.75 335.938 1421
-46.875 421.875 1624
-132.812 62.5 1165
421.875 421.875 1398
93.75 62.5 1181
-164.062 320.312 1813
-78.125 390.625 1705
265.625 54.6875 1145
343.75 140.625 1149
437.5 421.875 1410
289.062 187.5 1165
101.562 62.5 1181
257.812 398.438 1241
-296.875 351.562 1398
390.625 -15.625 1496
320.312 414.062 1322
-414.062 171.875 1202
218.75 226.562 1328
117.188 -93.75 1123
-398.438 257.812 1223
414.062 -15.625 1489
265.625 70.3125 1181
-257.812 406.25 1283
-226.562 320.312 1359
484.375 320.312 1452
-265.625 187.5 1236
-281.25 0 1161
-281.25 351.562 1259
460.938 -15.625 1483
492.188 -93.75 1458
46.875 46.875 1153
320.312 140.625 1153
85.9375 46.875 1149
437.5 -15.625 1483
-195.312 54.6875 1181
296.875 296.875 1189
-328.125 289.062 1214
109.375 -101.562 1123
-343.75 -62.5 1189
421.875 265.625 1173
-453.125 -23.4375 1302
-273.438 281.25 1227
281.25 70.3125 1185
492.188 -46.875 1458
273.438 -70.3125 1112
-156.25 -210.938 1259
343.75 296.875 1189
-484.375 312.5 1427
296.875 156.25 1153
414.062 429.688 1387
-351.562 109.375 1177
281.25 62.5 1145
-242.188 296.875 1333
-187.5 46.875 1173
343.75 -15.625 1529
-109.375 -203.125 1264
281.25 273.438 1189
-257.812 421.875 1292
-437.5 335.938 1376
23.4375 70.3125 1165
414.062 414.062 1427
398.438 429.688 1381
85.9375 -132.812 1169
-148.438 -226.562 1250
-78.125 -281.25 1470
-234.375 156.25 1338
-281.25 234.375 1206
-101.562 -281.25 1445
85.9375 242.188 1813
78.125 296.875 1843
-250 242.188 1297
23.4375 62.5 1173
-289.062 242.188 1210
-445.312 -109.375 1202
-429.688 15.625 1169
429.688 -23.4375 1477
-156.25 -125 1283
218.75 -7.8125 1130
-281.25 296.875 1250
312.5 406.25 1322
492.188 39.0625 1236
265.625 328.125 1236
-453.125 -46.875 1317
-304.688 312.5 1464
93.75 46.875 1149
351.562 140.625 1149
296.875 -31.25 1130
429.688 132.812 1108
164.062 46.875 1149
367.188 140.625 1145
367.188 312.5 1193
-484.375 328.125 1381
421.875 390.625 1415
-101.562 46.875 1165
-281.25 375 1317
257.812 375 1236
109.375 382.812 1543
351.562 -296.875 1433
-46.875 414.062 1647
281.25 390.625 1338
218.75 -70.3125 1115
109.375 46.875 1145
210.938 367.188 1365
-289.062 375 1322
-414.062 46.875 1161
125 398.438 1516
-375 -70.3125 1245
93.75 187.5 1794
429.688 195.312 1153
492.188 390.625 1370
289.062 296.875 1189
-273.438 148.438 1202
70.3125 320.312 1853
117.188 398.438 1523
445.312 320.312 1433
210.938 93.75 1119
460.938 -203.125 1421
429.688 -179.688 1433
54.6875 351.562 1863
406.25 -15.625 1483
125 46.875 1145
148.438 132.812 1153
406.25 328.125 1427
296.875 -7.8125 1126
-289.062 328.125 1259
-429.688 351.562 1312
-289.062 -78.125 1141
70.3125 46.875 1149
-7.8125 46.875 1153
-171.875 54.6875 1177
289.062 210.938 1169
445.312 -15.625 1483
296.875 148.438 1153
-453.125 -15.625 1185
179.688 328.125 1594
375 203.125 1161
476.562 351.562 1410
273.438 421.875 1349
164.062 93.75 1119
398.438 414.062 1415
39.0625 62.5 1157
62.5 320.312 1853
-476.562 328.125 1404
117.188 -132.812 1202
406.25 414.062 1433
-54.6875 -226.562 1259
-296.875 375 1322
-242.188 -85.9375 1145
171.875 46.875 1149
476.562 421.875 1343
156.25 93.75 1119
-203.125 54.6875 1181
-265.625 179.688 1245
429.688 -15.625 1483
-164.062 54.6875 1177
78.125 343.75 1853
0 -250 1433
-296.875 23.4375 1169
85.9375 62.5 1157
-164.062 -156.25 1273
117.188 46.875 1145
421.875 140.625 1138
-289.062 -39.0625 1149
-85.9375 62.5 1173
335.938 -15.625 1536
-62.5 46.875 1161
476.562 406.25 1349
-148.438 54.6875 1169
0 46.875 1157
-289.062 335.938 1255
-101.562 -257.812 1245
-31.25 46.875 1161
335.938 -93.75 1496
-242.188 429.688 1297
-54.6875 -203.125 1264
78.125 62.5 1153
-328.125 -78.125 1227
46.875 414.062 1433
-250 351.562 1288
-70.3125 46.875 1161
492.188 93.75 1123
140.625 46.875 1145
-414.062 164.062 1197
-54.6875 -179.688 1268
-46.875 429.688 1601
-312.5 359.375 1365
476.562 359.375 1404
312.5 351.562 1365
-453.125 -39.0625 1307
320.312 351.562 1365
-437.5 320.312 1410
-23.4375 46.875 1157
101.562 156.25 1181
-398.438 -23.4375 1161
179.688 46.875 1145
281.25 296.875 1189
0 62.5 1177
-335.938 -132.812 1410
-406.25 -15.625 1165
62.5 46.875 1153
-140.625 46.875 1169
-78.125 -273.438 1250
351.562 -195.312 1464
398.438 406.25 1439
359.375 -15.625 1509
-117.188 54.6875 1165
-390.625 -15.625 1157
-117.188 -203.125 1264
-179.688 54.6875 1177
140.625 -109.375 1161
156.25 46.875 1145
250 -132.812 3333
109.375 -140.625 1214
-85.9375 46.875 1165
289.062 54.6875 1141
-31.25 -242.188 1415
85.9375 257.812 1813
296.875 -23.4375 1123
-226.562 179.688 1376
250 421.875 1255
-164.062 -125 1283
62.5 62.5 1157
-289.062 -46.875 1145
273.438 437.5 1354
156.25 -23.4375 1130
-203.125 398.438 1328
-453.125 -31.25 1302
164.062 -70.3125 1119
-421.875 39.0625 1185
-328.125 -93.75 1227
421.875 375 1410
468.75 429.688 1381
289.062 218.75 1173
117.188 -101.562 1123
-132.812 -179.688 1268
-468.75 343.75 1278
101.562 187.5 1804
-398.438 -70.3125 1173
-390.625 359.375 1349
-15.625 -257.812 1421
-359.375 0 1165
-281.25 226.562 1206
-164.062 -132.812 1283
156.25 -117.188 1219
406.25 429.688 1381
-210.938 54.6875 1177
-429.688 -304.688 3238
-382.812 328.125 1421
93.75 242.188 1823
62.5 421.875 1503
-375 -78.125 1173
242.188 421.875 1255
-273.438 156.25 1206
140.625 -132.812 1223
132.812 429.688 1470
343.75 359.375 1370
382.812 140.625 1145
289.062 429.688 1328
289.062 203.125 1169
-171.875 46.875 1173
132.812 46.875 1145
-132.812 -226.562 1255
70.3125 62.5 1153
-78.125 -140.625 1283
93.75 195.312 1794
-31.25 -265.625 1410
429.688 398.438 1415
-304.688 382.812 1322
453.125 -15.625 1483
0 -257.812 1433
-132.812 46.875 1169
7.8125 46.875 1157
367.188 335.938 1483
-125 46.875 1165
296.875 7.8125 1119
398.438 117.188 1105
109.375 62.5 1181
15.625 46.875 1153
-289.062 132.812 1177
218.75 93.75 1123
335.938 429.688 1322
-335.938 351.562 1365
31.25 46.875 1153
-484.375 351.562 1278
265.625 -70.3125 1112
296.875 0 1123
-210.938 367.188 1343
-78.125 46.875 1161
-46.875 398.438 1696
-320.312 -15.625 1185
78.125 46.875 1149
406.25 382.812 1427
31.25 398.438 1523
-187.5 54.6875 1177
117.188 382.812 1543
-296.875 382.812 1317
-226.562 312.5 1359
0 -140.625 1359
54.6875 390.625 1564
-70.3125 -148.438 1278
218.75 351.562 1264
-445.312 -7.8125 1185
-375 -15.625 1161
-109.375 54.6875 1165
257.812 218.75 1177
148.438 46.875 1145
-328.125 -132.812 1410
-289.062 171.875 1193
265.625 335.938 1227
-109.375 46.875 1165
-101.562 -242.188 1250
70.3125 312.5 1843
-460.938 351.562 1349
23.4375 46.875 1153
218.75 414.062 1250
93.75 429.688 1415
-179.688 78.125 1134
31.25 62.5 1157
-437.5 -132.812 1392
-320.312 375 1322
-15.625 46.875 1153
-93.75 -117.188 1283
-296.875 -7.8125 1161
-265.625 328.125 1259
273.438 62.5 1145
-70.3125 -273.438 1250
242.188 93.75 1119
-273.438 164.062 1206
-281.25 0 1161
-54.6875 -250 1255
265.625 171.875 1161
250 93.75 1119
-453.125 359.375 1322
-296.875 320.312 1458
-414.062 -250 3238
-375 -117.188 1197
-15.625 62.5 1177
-93.75 -250 1250
93.75 46.875 1149
453.125 289.062 1181
-179.688 320.312 1688
-421.875 359.375 1333
-390.625 343.75 1370
-492.188 335.938 1283
-289.062 156.25 1185
-46.875 -250 1427
289.062 226.562 1173
-343.75 -140.625 1433
39.0625 406.25 1516
398.438 140.625 1141
179.688 -78.125 1115
164.062 -125 1214
-46.875 46.875 1161
-54.6875 46.875 1161
101.562 46.875 1149
-406.25 -62.5 1185
414.062 -296.875 3178
-132.812 -265.625 1250
-117.188 46.875 1165
468.75 406.25 1415
390.625 101.562 1108
-289.062 320.312 1259
-54.6875 -265.625 1483
-398.438 -117.188 1193
476.562 414.062 1349
-117.188 -85.9375 1130
-445.312 250 1227
-492.188 -85.9375 1739
-156.25 -85.9375 1134
-195.312 335.938 1557
-195.312 398.438 1328
-242.188 390.625 1307
257.812 93.75 1119
-93.75 -148.438 1283
296.875 140.625 1153
273.438 367.188 1376
273.438 304.688 1189
-164.062 -148.438 1273
460.938 -289.062 1404
-281.25 359.375 1264
54.6875 62.5 1185
453.125 140.625 1141
-132.812 -242.188 1250
0 -218.75 1328
226.562 148.438 1161
281.25 429.688 1338
-62.5 359.375 1776
398.438 429.688 1381
320.312 437.5 1307
304.688 140.625 1149
312.5 140.625 1149
-164.062 46.875 1173
93.75 -109.375 1173
-367.188 109.375 1181
70.3125 445.312 1415
375 359.375 1387
-335.938 265.625 1219
-54.6875 -187.5 1283
85.9375 93.75 1115
-78.125 -117.188 1283
-164.062 -273.438 1245
-265.625 148.438 1202
-453.125 -117.188 1206
-328.125 265.625 1219
476.562 93.75 1123
-140.625 54.6875 1173
-273.438 -85.9375 1145
46.875 46.875 1153
296.875 15.625 1119
414.062 390.625 1421
382.812 304.688 1189
296.875 39.0625 1141
117.188 62.5 1181
117.188 -117.188 1165
390.625 398.438 1445
85.9375 46.875 1149
93.75 382.812 1557
-46.875 390.625 1713
101.562 429.688 1445
-257.812 406.25 1283
257.812 367.188 1232
-335.938 335.938 1404
23.4375 -148.438 1354
296.875 437.5 1312
265.625 93.75 1119
-343.75 351.562 1359
-296.875 39.0625 1189
-429.688 15.625 1169
-140.625 -210.938 1259
484.375 390.625 1398
-375 343.75 1365
421.875 -289.062 1404
-382.812 31.25 1153
-164.062 -117.188 1278
-156.25 46.875 1169
-289.062 70.3125 1134
296.875 171.875 1157
109.375 46.875 1145
15.625 -218.75 1322
273.438 46.875 1145
-429.688 7.8125 1169
-289.062 125 1177
70.3125 46.875 1149
-281.25 242.188 1210
-70.3125 85.9375 1123
343.75 351.562 1392
257.812 -31.25 1123
-351.562 -23.4375 1173
-359.375 -117.188 1214
335.938 -23.4375 1516
273.438 406.25 1338
-23.4375 429.688 1489
-62.5 390.625 1722
296.875 429.688 1312
125 46.875 1145
289.062 195.312 1165
218.75 375 1259
-195.312 78.125 1134
203.125 46.875 1145
273.438 -78.125 1112
54.6875 46.875 1153
23.4375 -218.75 1312
85.9375 265.625 1823
335.938 296.875 1189
226.562 46.875 1145
-203.125 390.625 1328
93.75 62.5 1181
421.875 406.25 1421
234.375 93.75 1119
-179.688 46.875 1169
-390.625 15.625 1153
437.5 390.625 1404
-164.062 -164.062 1268
-406.25 -15.625 1165
-156.25 78.125 1130
-265.625 234.375 1227
-289.062 351.562 1259
398.438 -15.625 1483
-125 -218.75 1259
195.312 195.312 1579
-343.75 265.625 1223
-445.312 320.312 1421
296.875 -7.8125 1126
46.875 -226.562 1333
234.375 148.438 1169
-343.75 -93.75 1206
289.062 62.5 1206
62.5 46.875 1153
265.625 -78.125 1112
117.188 46.875 1145
-70.3125 -117.188 1283
31.25 -140.625 1365
-265.625 328.125 1259
-398.438 367.188 1328
476.562 132.812 1130
-343.75 367.188 1322
296.875 148.438 1153
-23.4375 46.875 1157
-476.562 54.6875 1141
148.438 -164.062 1241
257.812 445.312 1370
203.125 289.062 1496
-320.312 265.625 1219
-406.25 62.5 1138
-320.312 289.062 1210
125 406.25 1503
140.625 62.5 1153
-468.75 335.938 1376
296.875 23.4375 1126
335.938 351.562 1387
398.438 343.75 1427
-289.062 359.375 1264
-265.625 46.875 1177
-414.062 7.8125 1169
-70.3125 -156.25 1273
414.062 437.5 1387
328.125 421.875 1322
101.562 164.062 1181
414.062 421.875 1398
39.0625 46.875 1153
-148.438 46.875 1169
296.875 -15.625 1126
320.312 375 1349
-453.125 171.875 1181
-445.312 -23.4375 1169
-39.0625 46.875 1157
-7.8125 46.875 1153
-39.0625 -257.812 1415
468.75 93.75 1119
-390.625 -62.5 1181
218.75 46.875 1145
187.5 -70.3125 1115
296.875 0 1123
-179.688 -85.9375 1141
-156.25 -140.625 1283
398.438 320.312 1439
-289.062 179.688 1193
-289.062 375 1322
-453.125 -39.0625 1307
-445.312 -46.875 1312
-382.812 -78.125 1173
203.125 421.875 1317
-453.125 -54.6875 1328
31.25 335.938 1873
210.938 -70.3125 1115
-93.75 -210.938 1264
93.75 250 1823
-156.25 54.6875 1173
93.75 -125 1169
-375 281.25 1523
-54.6875 -85.9375 1130
-101.562 46.875 1165
164.062 46.875 1149
-132.812 375 1748
93.75 46.875 1149
468.75 414.062 1387
265.625 375 1365
390.625 421.875 1410
-343.75 343.75 1359
-492.188 320.312 1278
390.625 312.5 1189
304.688 437.5 1307
-54.6875 -234.375 1250
-476.562 312.5 1427
289.062 210.938 1169
132.812 382.812 1739
62.5 421.875 1503
273.438 132.812 1149
265.625 257.812 1185
398.438 414.062 1415
-445.312 343.75 1317
-437.5 -78.125 1259
-179.688 132.812 1197
7.8125 359.375 1624
257.812 -78.125 1115
-210.938 250 1452
296.875 7.8125 1119
93.75 203.125 1804
-242.188 421.875 1297
15.625 62.5 1177
-476.562 343.75 1278
-281.25 343.75 1255
437.5 -289.062 1404
-320.312 109.375 1177
-109.375 -203.125 1264
-85.9375 -117.188 1283
257.812 382.812 1241
-117.188 -226.562 1255
-164.062 -140.625 1278
-257.812 390.625 1283
-289.062 367.188 1349
-31.25 390.625 1529
-93.75 46.875 1165
328.125 414.062 1322
296.875 -70.3125 1112
445.312 -187.5 1427
-109.375 -117.188 1177
-23.4375 -226.562 1333
320.312 296.875 1193
328.125 -31.25 1523
0 -242.188 1433
-453.125 -31.25 1302
-54.6875 62.5 1177
289.062 31.25 1130
-343.75 328.125 1427
-23.4375 -250 1415
-382.812 296.875 1445
-31.25 -250 1415
-164.062 -179.688 1268
-62.5 46.875 1161
375 375 1370
-257.812 398.438 1283
429.688 195.312 1153
-437.5 15.625 1169
-390.625 257.812 1223
265.625 46.875 1145
281.25 -78.125 1112
375 296.875 1189
-296.875 -132.812 3365
-398.438 335.938 1404
31.25 46.875 1153
398.438 398.438 1439
-328.125 242.188 1210
218.75 78.125 1161
234.375 406.25 1245
78.125 46.875 1149
31.25 -85.9375 1123
-390.625 335.938 1404
-210.938 335.938 1445
406.25 289.062 1181
-437.5 359.375 1312
406.25 437.5 1381
70.3125 70.3125 1165
101.562 46.875 1149
468.75 421.875 1343
39.0625 78.125 1149
429.688 296.875 1185
281.25 93.75 1119
203.125 351.562 1427
-265.625 265.625 1232
0 70.3125 1169
132.812 62.5 1153
-7.8125 -226.562 1328
343.75 335.938 1421
468.75 -289.062 3120
-335.938 296.875 1509
-359.375 -39.0625 1173
-85.9375 351.562 1794
-265.625 242.188 1232
-265.625 54.6875 1181
-164.062 265.625 1804
23.4375 46.875 1153
296.875 179.688 1161
492.188 304.688 1181
265.625 437.5 1359
-54.6875 -257.812 1415
78.125 437.5 1415
289.062 234.375 1177
-281.25 -62.5 1145
0 46.875 1157
-375 -62.5 1241
375 140.625 1145
390.625 414.062 1421
-242.188 406.25 1307
429.688 289.062 1181
39.0625 406.25 1516
-460.938 101.562 1185
281.25 437.5 1343
-335.938 -15.625 1173
-62.5 -273.438 1483
109.375 156.25 1181
93.75 242.188 1823
-390.625 351.562 1359
-265.625 375 1278
390.625 429.688 1392
-335.938 -125 1404
0 -265.625 1421
-437.5 351.562 1312
85.9375 62.5 1157
-406.25 101.562 1181
437.5 -15.625 1483
414.062 351.562 1410
492.188 -171.875 1433
257.812 226.562 1177
140.625 390.625 1731
289.062 429.688 1328
421.875 296.875 1185
-343.75 -23.4375 1177
-492.188 179.688 1181
-367.188 -101.562 1210
-31.25 46.875 1161
-281.25 335.938 1255
-335.938 273.438 1219
218.75 320.312 1354
-171.875 54.6875 1177
-164.062 54.6875 1177
15.625 359.375 1624
195.312 46.875 1145
-382.812 -101.562 1202
296.875 164.062 1153
328.125 140.625 1153
-281.25 7.8125 1161
195.312 367.188 1483
460.938 265.625 1173
218.75 -78.125 1112
-289.062 140.625 1181
-39.0625 437.5 1489
-320.312 23.4375 1193
-195.312 312.5 1601
-117.188 62.5 1181
-460.938 226.562 1223
-234.375 218.75 1370
-242.188 320.312 1317
78.125 -226.562 3333
-445.312 0 1181
46.875 62.5 1185
54.6875 351.562 1863
-343.75 359.375 1359
460.938 -15.625 1483
-281.25 -46.875 1145
179.688 -70.3125 1115
-117.188 -164.062 1273
-132.812 54.6875 1173
101.562 195.312 1804
-406.25 390.625 1616
-148.438 -210.938 1259
85.9375 257.812 1813
125 -132.812 1161
62.5 62.5 1157
304.688 359.375 1376
273.438 93.75 1119
289.062 226.562 1173
-437.5 -101.562 1202
289.062 -54.6875 1123
39.0625 62.5 1157
78.125 62.5 1153
-140.625 62.5 1169
265.625 335.938 1227
-93.75 -242.188 1250
109.375 -101.562 1123
-273.438 140.625 1206
429.688 132.812 1108
289.062 203.125 1169
289.062 437.5 1328
117.188 -101.562 1123
-171.875 -195.312 1264
171.875 62.5 1153
460.938 406.25 1415
359.375 -23.4375 1509
-406.25 -54.6875 1185
-226.562 46.875 1173
-281.25 328.125 1259
-398.438 328.125 1415
-289.062 -54.6875 1145
-281.25 -31.25 1149
320.312 351.562 1365
-281.25 -54.6875 1145
156.25 46.875 1145
-93.75 54.6875 1165
-31.25 -265.625 1410
54.6875 390.625 1564
125 62.5 1181
-70.3125 54.6875 1161
375 -289.062 1433
93.75 62.5 1181
328.125 351.562 1365
179.688 46.875 1145
281.25 445.312 1349
-437.5 101.562 1181
-54.6875 -273.438 1483
-7.8125 62.5 1177
-429.688 335.938 1370
-453.125 -23.4375 1302
460.938 132.812 1126
-375 62.5 1141
429.688 406.25 1415
250 421.875 1255
117.188 62.5 1181
-132.812 -250 1250
390.625 367.188 1439
148.438 46.875 1145
281.25 265.625 1185
406.25 351.562 1415
0 -250 1433
85.9375 265.625 1823
296.875 39.0625 1141
7.8125 62.5 1177
101.562 382.812 1550
421.875 257.812 1169
-78.125 -156.25 1283
-54.6875 359.375 1776
-117.188 -117.188 1181
-414.062 -54.6875 1185
-7.8125 -250 1433
351.562 -23.4375 1509
-265.625 312.5 1255
421.875 -15.625 1483
-226.562 281.25 1365
375 351.562 1387
429.688 -15.625 1483
-265.625 257.812 1232
-390.625 -54.6875 1169
-54.6875 -265.625 1483
-281.25 234.375 1206
-289.062 132.812 1177
-257.812 398.438 1283
-140.625 375 1748
210.938 -164.062 3399
453.125 93.75 1123
-93.75 -125 1283
-382.812 343.75 1365
343.75 -164.062 1477
-31.25 62.5 1181
296.875 93.75 1119
0 -125 1333
250 437.5 1255
109.375 164.062 1181
0 -257.812 1433
-250 343.75 1283
-421.875 31.25 1177
-289.062 203.125 1197
-281.25 351.562 1259
-398.438 -93.75 1193
429.688 93.75 1119
335.938 93.75 1123
-421.875 -15.625 1173
125 390.625 1523
296.875 31.25 1130
-421.875 23.4375 1173
-195.312 390.625 1333
109.375 367.188 1794
-390.625 -125 1193
-109.375 -164.062 1278
-359.375 375 1317
7.8125 46.875 1157
-273.438 273.438 1219
93.75 257.812 1823
85.9375 -132.812 1169
437.5 289.062 1177
-257.812 242.188 1232
398.438 390.625 1433
234.375 257.812 1283
476.562 390.625 1392
-335.938 351.562 1365
210.938 375 1359
-281.25 375 1317
-351.562 -140.625 1452
-15.625 46.875 1153
-7.8125 -234.375 1433
-109.375 46.875 1165
304.688 343.75 1376
-429.688 171.875 1177
-273.438 148.438 1202
-70.3125 390.625 1713
398.438 421.875 1404
-281.25 359.375 1264
-351.562 375 1333
460.938 429.688 1387
109.375 62.5 1181
296.875 187.5 1165
-132.812 -171.875 1268
-203.125 406.25 1328
-382.812 -93.75 1189
-390.625 62.5 1134
210.938 62.5 1138
257.812 421.875 1370
23.4375 62.5 1173
-453.125 -54.6875 1328
273.438 414.062 1338
421.875 226.562 1134
-429.688 -7.8125 1169
148.438 62.5 1149
-78.125 46.875 1161
-156.25 -203.125 1259
414.062 289.062 1181
-70.3125 46.875 1161
296.875 62.5 1214
-398.438 320.312 1433
-93.75 -226.562 1259
85.9375 234.375 1813
-343.75 375 1317
382.812 421.875 1410
-265.625 117.188 1177
296.875 406.25 1328
390.625 320.312 1445
437.5 195.312 1153
398.438 429.688 1381
-125 390.625 1688
296.875 0 1123
-15.625 70.3125 1157
-304.688 -23.4375 1157
382.812 429.688 1381
390.625 406.25 1439
-242.188 414.062 1307
-46.875 46.875 1161
406.25 421.875 1404
453.125 132.812 1130
414.062 328.125 1427
-54.6875 390.625 1722
125 414.062 1483
-312.5 -70.3125 1141
-257.812 390.625 1283
-335.938 109.375 1177
-125 375 1748
-132.812 46.875 1169
-320.312 335.938 1404
-437.5 335.938 1376
179.688 62.5 1153
296.875 437.5 1312
281.25 382.812 1349
250 -132.812 3333
476.562 406.25 1349
492.188 -39.0625 1458
226.562 -78.125 1115
179.688 335.938 1579
164.062 62.5 1189
-101.562 -257.812 1245
406.25 398.438 1433
328.125 93.75 1123
-164.062 -234.375 1250
281.25 351.562 1398
-382.812 -78.125 1173
85.9375 296.875 1843
-289.062 335.938 1255
156.25 421.875 1639
-234.375 -156.25 3433
-93.75 343.75 1804
148.438 -164.062 1241
398.438 398.438 1439
-281.25 -62.5 1145
351.562 93.75 1119
382.812 265.625 1177
-296.875 -70.3125 1141
-164.062 -242.188 1250
281.25 -70.3125 1112
7.8125 46.875 1157
398.438 -296.875 1421
-437.5 250 1223
265.625 414.062 1354
39.0625 406.25 1516
273.438 437.5 1354
-210.938 406.25 1322
-281.25 203.125 1197
-281.25 -70.3125 1145
296.875 -70.3125 1112
421.875 289.062 1181
-164.062 242.188 1843
265.625 421.875 1354
-101.562 335.938 1873
-23.4375 445.312 1470
421.875 -179.688 1433
-390.625 -85.9375 1173
312.5 93.75 1123
242.188 398.438 1241
-109.375 -242.188 1255
-335.938 -23.4375 1181
-101.562 54.6875 1165
296.875 7.8125 1119
85.9375 46.875 1149
453.125 -289.062 1410
234.375 -78.125 1115
-281.25 195.312 1193
-367.188 367.188 1328
203.125 414.062 1365
273.438 421.875 1349
-320.312 351.562 1370
-281.25 -78.125 1141
-398.438 -31.25 1165
437.5 265.625 1173
140.625 62.5 1153
-23.4375 62.5 1181
-453.125 -46.875 1317
7.8125 -148.438 1359
250 -78.125 1112
312.5 437.5 1302
-281.25 242.188 1210
-125 -148.438 1278
-335.938 367.188 1328
-257.812 375 1278
-15.625 -226.562 1333
-148.438 54.6875 1169
132.812 406.25 1496
398.438 382.812 1433
218.75 -70.3125 1115
7.8125 359.375 1624
171.875 -78.125 1119
273.438 85.9375 1141
101.562 382.812 1550
-148.438 85.9375 1130
-398.438 351.562 1365
15.625 351.562 1863
289.062 46.875 1141
-23.4375 -234.375 1415
-78.125 -273.438 1250
257.812 390.625 1370
-125 54.6875 1165
39.0625 390.625 1543
125 375 1766
359.375 93.75 1119
351.562 437.5 1359
-257.812 234.375 1227
445.312 132.812 1126
-234.375 -85.9375 1141
421.875 93.75 1119
296.875 148.438 1153
203.125 -78.125 1115
304.688 429.688 1307
492.188 375 1365
382.812 437.5 1381
-335.938 -140.625 1410
-7.8125 46.875 1157
-304.688 343.75 1398
468.75 429.688 1376
125 148.438 1177
-398.438 -54.6875 1185
343.75 375 1343
210.938 -78.125 1119
-242.188 382.812 1288
78.125 312.5 1843
-421.875 -78.125 1245
46.875 414.062 1433
-281.25 226.562 1206
-492.188 -218.75 2503
468.75 -15.625 1483
-414.062 343.75 1370
148.438 93.75 1115
-23.4375 85.9375 1126
390.625 437.5 1381
296.875 15.625 1134
437.5 210.938 1157
62.5 46.875 1153
70.3125 421.875 1415
375 93.75 1115
93.75 203.125 1794
289.062 234.375 1181
-265.625 234.375 1210
375 429.688 1370
15.625 46.875 1157
101.562 203.125 1794
-273.438 359.375 1268
289.062 242.188 1185
125 398.438 1523
289.062 218.75 1173
234.375 296.875 1255
460.938 414.062 1410
-250 312.5 1268
289.062 117.188 1112
281.25 281.25 1189
421.875 218.75 1149
-273.438 343.75 1268
-93.75 -304.688 1483
492.188 -101.562 1452
-54.6875 -265.625 1245
-164.062 78.125 1134
-265.625 46.875 1177
-164.062 -265.625 1245
-203.125 78.125 1134
-54.6875 -257.812 1245
-78.125 -210.938 1264
156.25 429.688 1503
-54.6875 -250 1255
-335.938 343.75 1387
-117.188 -265.625 1250
414.062 93.75 1115
210.938 421.875 1312
265.625 343.75 1227
445.312 -15.625 1483
-429.688 -23.4375 1189
390.625 429.688 1392
234.375 31.25 1141
296.875 132.812 1145
-437.5 7.8125 1185
296.875 429.688 1322
296.875 156.25 1157
492.188 -109.375 1452
54.6875 46.875 1153
70.3125 62.5 1177
101.562 195.312 1785
-250 320.312 1268
-70.3125 -140.625 1283
406.25 390.625 1433
406.25 132.812 1141
390.625 289.062 1185
-257.812 398.438 1283
-476.562 171.875 1177
125 -109.375 1165
296.875 164.062 1157
429.688 -296.875 3064
54.6875 62.5 1177
296.875 -46.875 1123
-187.5 437.5 1398
101.562 164.062 1185
109.375 382.812 1550
-164.062 -250 1250
218.75 148.438 1169
117.188 335.938 1863
-281.25 -39.0625 1153
171.875 62.5 1185
-296.875 15.625 1193
-265.625 218.75 1210
335.938 -39.0625 1523
-257.812 406.25 1283
429.688 -187.5 1433
15.625 359.375 1609
492.188 -289.062 3120
-7.8125 -257.812 1415
289.062 54.6875 1153
195.312 62.5 1153
39.0625 46.875 1153
132.812 62.5 1177
-250 54.6875 1173
-289.062 125 1177
-460.938 54.6875 1141
-289.062 7.8125 1157
93.75 46.875 1149
93.75 250 1823
-382.812 359.375 1338
117.188 46.875 1149
-140.625 101.562 1134
-421.875 164.062 1189
320.312 132.812 1157
-500 250 1236
-320.312 -15.625 1181
273.438 296.875 1193
70.3125 46.875 1149
-421.875 -62.5 1255
-273.438 132.812 1181
484.375 414.062 1410
46.875 46.875 1153
492.188 -203.125 1427
476.562 429.688 1381
23.4375 46.875 1153
250 437.5 1255
-62.5 -195.312 1268
-289.062 54.6875 1161
359.375 -296.875 1433
117.188 390.625 1536
-109.375 -296.875 1464
429.688 -171.875 1433
-343.75 312.5 1452
-289.062 0 1161
-273.438 70.3125 1134
-273.438 70.3125 1134
-273.438 375 1317
414.062 437.5 1381
132.812 -101.562 1119
-140.625 46.875 1173
351.562 375 1343
148.438 62.5 1181
-335.938 39.0625 1206
171.875 46.875 1149
-429.688 351.562 1328
398.438 132.812 1141
-62.5 -218.75 1264
-304.688 46.875 1189
-125 62.5 1165
0 -265.625 1415
289.062 210.938 1173
-85.9375 -226.562 1259
296.875 179.688 1165
468.75 398.438 1415
382.812 398.438 1343
-312.5 -31.25 1193
31.25 62.5 1181
390.625 312.5 1189
39.0625 398.438 1529
-437.5 -78.125 1292
-304.688 -7.8125 1197
406.25 -15.625 1496
398.438 351.562 1439
-281.25 187.5 1193
78.125 62.5 1173
257.812 437.5 1255
328.125 390.625 1328
-257.812 390.625 1283
-335.938 -117.188 1232
351.562 398.438 1333
-15.625 421.875 1496
-421.875 31.25 1177
-312.5 109.375 1177
273.438 445.312 1354
-7.8125 437.5 1470
187.5 62.5 1185
132.812 -125 1157
296.875 62.5 1214
-281.25 320.312 1255
375 421.875 1359
-101.562 -117.188 1181
85.9375 273.438 1833
-273.438 39.0625 1173
296.875 195.312 1169
-382.812 257.812 1223
-398.438 31.25 1185
-265.625 398.438 1283
-289.062 -132.812 3433
273.438 304.688 1189
-289.062 117.188 1177
0 -226.562 1333
-406.25 -117.188 1189
101.562 -101.562 1126
289.062 46.875 1145
-382.812 46.875 1165
0 46.875 1157
296.875 187.5 1165
351.562 117.188 1112
-445.312 -62.5 1354
-101.562 -164.062 1278
-164.062 250 1843
156.25 -132.812 1232
398.438 289.062 1185
93.75 265.625 1833
-46.875 359.375 1766
367.188 -296.875 1433
296.875 39.0625 1145
93.75 257.812 1823
335.938 -54.6875 1516
-93.75 -117.188 1278
257.812 406.25 1250
257.812 398.438 1250
-140.625 -164.062 1273
-164.062 -226.562 1255
257.812 382.812 1241
414.062 406.25 1433
382.812 367.188 1381
-265.625 210.938 1210
-320.312 -93.75 1223
140.625 -7.8125 1130
-164.062 210.938 1785
382.812 -15.625 1509
-15.625 -257.812 1415
445.312 -23.4375 1483
85.9375 62.5 1181
437.5 132.812 1134
-265.625 304.688 1250
390.625 414.062 1404
-195.312 62.5 1149
-117.188 54.6875 1169
-109.375 -257.812 1250
320.312 -31.25 1557
359.375 132.812 1149
328.125 132.812 1153
54.6875 414.062 1439
70.3125 320.312 1853
281.25 62.5 1185
492.188 218.75 1149
265.625 437.5 1370
-265.625 296.875 1245
390.625 398.438 1343
390.625 132.812 1138
421.875 382.812 1415
-359.375 -62.5 1177
226.562 296.875 1349
-414.062 296.875 1477
140.625 437.5 1445
179.688 62.5 1185
-31.25 -250 1415
375 132.812 1141
156.25 -125 1227
414.062 -15.625 1489
312.5 132.812 1149
164.062 -125 1223
468.75 390.625 1410
-312.5 382.812 1312
93.75 62.5 1181
-164.062 -250 1250
-85.9375 -250 1250
-476.562 351.562 1328
328.125 367.188 1359
265.625 351.562 1232
-312.5 375 1317
-164.062 -257.812 1245
-46.875 406.25 1663
148.438 445.312 1477
453.125 406.25 1415
-187.5 398.438 1333
-132.812 -242.188 1255
-70.3125 -273.438 1255
-296.875 382.812 1317
484.375 398.438 1415
109.375 164.062 1181
273.438 437.5 1359
93.75 210.938 1804
289.062 226.562 1177
-429.688 -31.25 1189
70.3125 421.875 1415
-31.25 46.875 1165
-281.25 218.75 1206
234.375 218.75 1302
-421.875 -85.9375 1241
-453.125 31.25 1206
-335.938 335.938 1387
-375 15.625 1161
-257.812 375 1278
-39.0625 46.875 1161
-281.25 210.938 1202
203.125 62.5 1149
-210.938 429.688 1370
-445.312 -31.25 1307
492.188 203.125 1157
289.062 250 1185
-429.688 367.188 1312
265.625 -70.3125 1112
-164.062 62.5 1169
335.938 132.812 1149
343.75 367.188 1354
296.875 390.625 1338
-390.625 7.8125 1165
-164.062 -234.375 1250
-203.125 265.625 1470
-281.25 -70.3125 1141
-78.125 54.6875 1165
148.438 7.8125 1134
359.375 406.25 1338
-46.875 390.625 1705
-328.125 335.938 1387
-281.25 -78.125 1141
-93.75 -273.438 1245
-289.062 382.812 1317
367.188 132.812 1141
296.875 31.25 1141
125 62.5 1177
-109.375 54.6875 1173
93.75 -101.562 1130
140.625 -117.188 1161
-351.562 -70.3125 1255
-390.625 -78.125 1181
85.9375 390.625 1557
-15.625 -234.375 1421
296.875 -15.625 1130
-359.375 304.688 1470
-179.688 54.6875 1181
-109.375 -164.062 1278
-437.5 0 1193
-296.875 54.6875 1161
-359.375 367.188 1328
375 414.062 1365
46.875 343.75 1873
-78.125 70.3125 1149
-171.875 46.875 1173
296.875 -31.25 1126
351.562 -171.875 1470
-429.688 226.562 1219
-250 429.688 1292
-101.562 -273.438 1245
-281.25 289.062 1250
-382.812 -125 1197
343.75 406.25 1322
281.25 437.5 1354
-164.062 226.562 1843
-281.25 203.125 1202
421.875 -179.688 1433
296.875 -23.4375 1126
-125 -117.188 1278
484.375 203.125 1161
453.125 421.875 1404
125 -101.562 1165
101.562 -117.188 1169
140.625 421.875 1477
-460.938 -117.188 1349
-335.938 -109.375 1232
367.188 414.062 1354
257.812 421.875 1255
101.562 171.875 1785
289.062 148.438 1157
296.875 320.312 1185
359.375 429.688 1354
429.688 210.938 1145
351.562 -23.4375 1509
273.438 429.688 1359
-85.9375 70.3125 1149
289.062 93.75 1115
382.812 429.688 1392
328.125 390.625 1328
-257.812 70.3125 1134
117.188 62.5 1177
375 429.688 1370
296.875 23.4375 1138
164.062 62.5 1189
296.875 -39.0625 1126
-117.188 375 1757
140.625 62.5 1177
375 429.688 1370
-289.062 23.4375 1161
382.812 414.062 1365
-250 304.688 1264
-257.812 218.75 1232
484.375 218.75 1145
-429.688 0 1181
78.125 93.75 1115
484.375 335.938 1427
31.25 359.375 1624
445.312 406.25 1415
-93.75 -203.125 1264
289.062 257.812 1185
-375 -125 1206
-367.188 289.062 1509
375 398.438 1338
265.625 421.875 1365
-453.125 -46.875 1317
437.5 421.875 1410
-257.812 359.375 1268
-312.5 -78.125 1232
-359.375 296.875 1503
390.625 382.812 1359
343.75 -31.25 1516
445.312 -289.062 1410
257.812 398.438 1250
-7.8125 -226.562 1333
-93.75 343.75 1813
46.875 367.188 1564
-265.625 289.062 1245
-164.062 218.75 1776
78.125 421.875 1421
492.188 281.25 1177
-140.625 54.6875 1181
-195.312 398.438 1333
-93.75 -257.812 1250
460.938 421.875 1392
281.25 226.562 1173
117.188 -93.75 1123
-296.875 -70.3125 1134
375 289.062 1185
70.3125 312.5 1853
367.188 -39.0625 1503
492.188 -46.875 1477
351.562 132.812 1153
-453.125 -39.0625 1312
257.812 -78.125 1115
15.625 -132.812 1354
398.438 375 1445
296.875 203.125 1169
375 437.5 1376
15.625 359.375 1609
304.688 382.812 1343
367.188 289.062 1189
242.188 62.5 1189
-78.125 351.562 1794
171.875 -78.125 1119
39.0625 62.5 1181
-281.25 179.688 1193
-398.438 0 1169
-390.625 -85.9375 1185
-109.375 -171.875 1273
367.188 429.688 1359
437.5 335.938 1410
-250 421.875 1292
382.812 351.562 1470
210.938 -70.3125 1119
-421.875 101.562 1181
15.625 85.9375 1126
304.688 132.812 1149
39.0625 335.938 1873
-164.062 -242.188 1250
476.562 375 1398
-304.688 109.375 1177
195.312 351.562 1516
265.625 445.312 1354
429.688 -179.688 1433
156.25 62.5 1181
281.25 -78.125 1115
-265.625 296.875 1245
-406.25 296.875 1477
234.375 359.375 1255
-367.188 62.5 1138
421.875 359.375 1410
-23.4375 -234.375 1415
-468.75 93.75 1185
226.562 351.562 1273
343.75 93.75 1115
367.188 93.75 1115
-23.4375 -85.9375 1130
-265.625 281.25 1232
-390.625 -93.75 1202
-390.625 101.562 1173
-359.375 335.938 1404
148.438 -148.438 1236
-39.0625 62.5 1177
203.125 101.562 1112
210.938 351.562 1410
375 -23.4375 1503
54.6875 414.062 1439
296.875 62.5 1214
-304.688 -117.188 1259
-320.312 265.625 1219
-468.75 351.562 1338
-304.688 359.375 1365
265.625 -85.9375 1115
-242.188 375 1288
-78.125 -148.438 1283
296.875 429.688 1322
492.188 257.812 1173
304.688 429.688 1317
-39.0625 -210.938 1370
476.562 -289.062 3092
-421.875 -93.75 1241
171.875 62.5 1185
453.125 390.625 1410
-78.125 -226.562 1264
-414.062 171.875 1193
492.188 -39.0625 1470
-406.25 -31.25 1181
296.875 171.875 1161
-375 257.812 1223
-54.6875 -156.25 1278
-429.688 -70.3125 1259
179.688 62.5 1185
-265.625 335.938 1259
367.188 -23.4375 1503
296.875 195.312 1169
484.375 367.188 1404
-335.938 -93.75 1206
109.375 62.5 1181
-109.375 -273.438 1250
484.375 -54.6875 1470
273.438 304.688 1189
-382.812 -15.625 1161
218.75 304.688 1349
-54.6875 -132.812 1283
429.688 195.312 1157
-39.0625 -250 1421
-351.562 359.375 1343
-281.25 -54.6875 1149
-468.75 320.312 1404
-328.125 265.625 1219
-367.188 -101.562 1214
273.438 179.688 1165
-62.5 312.5 1863
148.438 62.5 1181
460.938 93.75 1115
-39.0625 359.375 1766
460.938 390.625 1410
390.625 289.062 1185
289.062 382.812 1349
468.75 382.812 1410
257.812 437.5 1255
351.562 -257.812 1439
-132.812 78.125 1134
195.312 62.5 1153
-273.438 31.25 1173
93.75 265.625 1833
164.062 -132.812 1223
-242.188 62.5 1145
-187.5 7.8125 1165
437.5 390.625 1410
-132.812 273.438 1853
-390.625 7.8125 1165
476.562 335.938 1421
-375 -39.0625 1169
234.375 312.5 1232
242.188 375 1241
-335.938 382.812 1322
-265.625 46.875 1177
-23.4375 437.5 1503
273.438 171.875 1165
460.938 -289.062 1404
-351.562 -132.812 1445
296.875 164.062 1157
85.9375 296.875 1843
-453.125 78.125 1141
242.188 390.625 1245
-468.75 54.6875 1141
85.9375 273.438 1833
-484.375 171.875 1185
-250 414.062 1288
-179.688 367.188 1333
281.25 445.312 1354
-484.375 335.938 1328
-218.75 429.688 1359
46.875 390.625 1550
390.625 375 1370
117.188 382.812 1543
250 437.5 1255
-234.375 429.688 1307
-289.062 320.312 1452
468.75 414.062 1392
-429.688 78.125 1138
320.312 132.812 1157
-164.062 -85.9375 1138
62.5 62.5 1177
-132.812 54.6875 1181
265.625 359.375 1236
-414.062 -31.25 1189
93.75 273.438 1833
-281.25 367.188 1359
-156.25 -281.25 1470
125 46.875 1149
289.062 140.625 1153
-257.812 414.062 1292
445.312 335.938 1410
171.875 437.5 1529
-15.625 -226.562 1333
7.8125 359.375 1601
-414.062 39.0625 1185
-179.688 429.688 1398
406.25 289.062 1185
382.812 421.875 1410
296.875 375 1354
289.062 46.875 1145
359.375 437.5 1365
437.5 -226.562 1415
421.875 210.938 1153
187.5 46.875 1145
257.812 265.625 1197
-257.812 265.625 1232
-148.438 304.688 1873
367.188 398.438 1338
-132.812 -117.188 1278
31.25 46.875 1153
406.25 210.938 1165
-289.062 -31.25 1157
-101.562 46.875 1165
101.562 7.8125 1138
257.812 406.25 1250
-164.062 -257.812 1245
273.438 445.312 1354
-296.875 109.375 1177
187.5 -70.3125 1119
265.625 429.688 1365
