ply
format ascii 1.0
comment Created by Open3D
element vertex 2327
property double x
property double y
property double z
end_header
-203.125 -250 1259
-54.6875 296.875 1705
140.625 156.25 1302
484.375 -117.188 2908
-234.375 125 2040
-210.938 398.438 1557
-23.4375 304.688 1688
187.5 398.438 1536
148.438 156.25 1302
62.5 156.25 1307
-328.125 -46.875 1223
54.6875 281.25 1572
39.0625 304.688 1688
-171.875 -39.0625 1223
78.125 289.062 1713
-406.25 -437.5 1387
132.812 156.25 1302
-23.4375 281.25 1503
-265.625 -46.875 1227
-304.688 359.375 1564
203.125 179.688 1317
-148.438 414.062 1757
210.938 218.75 1572
289.062 148.438 1292
-257.812 -46.875 1227
-171.875 132.812 2065
156.25 203.125 1572
-257.812 281.25 1624
-132.812 281.25 1688
-62.5 296.875 1705
54.6875 289.062 1713
140.625 -437.5 1338
210.938 -312.5 1421
-54.6875 234.375 1536
-54.6875 304.688 1680
-70.3125 31.25 1181
62.5 304.688 1688
-218.75 250 1616
117.188 250 1632
62.5 250 1609
203.125 304.688 1705
-125 414.062 1757
-484.375 109.375 1550
179.688 250 1609
46.875 304.688 1680
398.438 -164.062 3539
-62.5 -234.375 1632
140.625 304.688 1696
-460.938 289.062 1529
-289.062 156.25 1959
187.5 156.25 1302
-414.062 -375 1227
23.4375 312.5 1671
304.688 273.438 1392
242.188 156.25 1297
54.6875 -445.312 1365
445.312 -164.062 3468
-54.6875 171.875 1322
39.0625 312.5 1688
15.625 210.938 1529
-203.125 367.188 1564
-148.438 296.875 1671
-320.312 148.438 1981
179.688 -460.938 1370
0 281.25 1529
234.375 179.688 1317
-195.312 31.25 1245
-429.688 -289.062 1241
484.375 -164.062 2958
85.9375 257.812 1785
242.188 179.688 1322
-210.938 164.062 1757
-187.5 250 1632
78.125 250 1813
-187.5 203.125 1739
93.75 257.812 1785
476.562 -164.062 3433
-46.875 343.75 1616
468.75 -304.688 3238
15.625 312.5 1663
7.8125 312.5 1671
-242.188 242.188 1624
46.875 -171.875 1523
-148.438 156.25 1993
-289.062 140.625 2381
-46.875 304.688 1680
70.3125 -171.875 1529
148.438 -437.5 1333
125 242.188 1609
39.0625 -179.688 1543
-101.562 148.438 1317
-453.125 -54.6875 1210
-117.188 -39.0625 1227
218.75 -390.625 1359
62.5 234.375 1536
-289.062 125 2028
39.0625 289.062 1713
-179.688 46.875 1268
70.3125 250 1609
7.8125 250 1509
-210.938 140.625 2065
-46.875 31.25 1227
-234.375 -171.875 1134
359.375 179.688 2286
226.562 179.688 1317
-78.125 289.062 1536
156.25 156.25 1302
203.125 -437.5 1349
-250 -328.125 1624
46.875 257.812 1557
-187.5 132.812 2065
421.875 -164.062 3468
-62.5 -250 1624
-23.4375 195.312 1550
85.9375 429.688 1739
-78.125 171.875 1322
54.6875 39.0625 1227
31.25 273.438 1550
125 250 1609
54.6875 250 1572
-234.375 203.125 1713
-273.438 125 2040
-78.125 382.812 1543
-148.438 -54.6875 1197
203.125 -429.688 1343
-15.625 289.062 1543
-203.125 -164.062 1138
54.6875 156.25 1307
117.188 179.688 1317
250 179.688 1322
148.438 203.125 1572
23.4375 304.688 1671
179.688 406.25 1543
-390.625 -367.188 1381
117.188 -164.062 1509
39.0625 343.75 1632
148.438 -164.062 1523
31.25 304.688 1688
-460.938 -226.562 1273
-414.062 -398.438 1365
187.5 289.062 1748
125 -164.062 1509
-359.375 -46.875 1223
-242.188 -328.125 1624
23.4375 39.0625 1227
93.75 265.625 1785
78.125 359.375 1601
-132.812 414.062 1757
-320.312 125 2040
70.3125 39.0625 1223
46.875 289.062 1713
-156.25 -39.0625 1223
70.3125 265.625 1609
140.625 414.062 1543
460.938 -109.375 3433
-414.062 273.438 1557
-367.188 -46.875 1223
46.875 265.625 1557
62.5 289.062 1722
-179.688 132.812 2053
78.125 265.625 1785
-117.188 414.062 1557
-453.125 -250 1259
70.3125 414.062 1543
-7.8125 39.0625 1232
-390.625 382.812 1564
484.375 -70.3125 2883
109.375 429.688 1739
-85.9375 382.812 1557
-70.3125 296.875 1529
-85.9375 375 1564
15.625 304.688 1671
-289.062 -226.562 1173
7.8125 203.125 1543
429.688 -164.062 3468
-218.75 164.062 1766
195.312 296.875 1731
-468.75 281.25 1529
46.875 203.125 1550
-85.9375 0 1177
-218.75 140.625 2053
-382.812 289.062 1671
-7.8125 289.062 1543
179.688 -164.062 1523
117.188 257.812 1632
125 265.625 1776
70.3125 171.875 1312
117.188 -343.75 1398
171.875 250 1609
-171.875 -179.688 1134
-296.875 125 2028
148.438 289.062 1713
-500 304.688 1523
-453.125 304.688 1543
-304.688 -46.875 1223
-484.375 281.25 1529
-484.375 -367.188 1202
7.8125 281.25 1536
-171.875 164.062 1970
-296.875 156.25 1959
125 328.125 1647
15.625 281.25 1543
109.375 328.125 1647
117.188 304.688 1705
70.3125 289.062 1722
-54.6875 304.688 1680
156.25 203.125 1572
-226.562 250 1616
-320.312 -343.75 1278
382.812 -109.375 1415
-85.9375 304.688 1496
-7.8125 281.25 1536
-453.125 -343.75 1206
-226.562 164.062 1776
171.875 242.188 1609
-39.0625 31.25 1223
-289.062 -46.875 1227
-46.875 171.875 1322
-250 226.562 1647
-414.062 -54.6875 1214
203.125 203.125 1594
-398.438 -54.6875 1210
195.312 195.312 1594
-39.0625 375 1564
156.25 289.062 1713
70.3125 257.812 1609
156.25 304.688 1705
156.25 304.688 1705
-164.062 375 1550
351.562 -164.062 1543
-7.8125 203.125 1536
210.938 -195.312 1509
-390.625 343.75 1572
78.125 -445.312 1354
-54.6875 281.25 1543
-445.312 281.25 1529
0 312.5 1680
125 156.25 1302
171.875 296.875 1713
140.625 289.062 1579
-23.4375 273.438 1496
164.062 296.875 1705
226.562 273.438 1572
-117.188 0 1177
-164.062 265.625 1663
-70.3125 171.875 1317
109.375 257.812 1766
273.438 375 1483
-70.3125 289.062 1543
117.188 -335.938 1410
-414.062 -304.688 1241
179.688 296.875 1543
156.25 125 1236
-421.875 273.438 1557
-164.062 -54.6875 1197
109.375 156.25 1302
-218.75 210.938 1713
-250 234.375 1632
468.75 -273.438 3178
-343.75 -351.562 1359
-343.75 -351.562 1359
-156.25 -54.6875 1206
132.812 -437.5 1343
-140.625 -54.6875 1197
-421.875 210.938 1748
-375 -320.312 1317
-468.75 218.75 1464
70.3125 304.688 1680
-171.875 210.938 1731
109.375 -320.312 1415
148.438 250 1601
-70.3125 304.688 1509
-500 -320.312 1210
-289.062 -203.125 1177
-156.25 210.938 1722
-62.5 171.875 1322
171.875 289.062 1713
-39.0625 273.438 1529
-171.875 125 2053
-250 281.25 1616
-218.75 -328.125 1601
-234.375 296.875 1639
-242.188 320.312 1624
125 257.812 1609
132.812 296.875 1696
132.812 250 1616
164.062 203.125 1572
164.062 250 1609
-296.875 -210.938 1177
31.25 156.25 1307
-132.812 -54.6875 1193
-406.25 -390.625 1370
-62.5 304.688 1688
-179.688 -54.6875 1197
-421.875 398.438 1731
-468.75 -351.562 1202
101.562 320.312 1671
-375 -46.875 1223
-460.938 367.188 1572
-140.625 -39.0625 1223
414.062 -164.062 3503
125 304.688 1705
484.375 -265.625 3092
-125 -39.0625 1223
164.062 289.062 1705
-195.312 132.812 2053
171.875 -164.062 1516
171.875 304.688 1713
93.75 226.562 1639
-54.6875 289.062 1543
-390.625 -46.875 1223
-304.688 125 2028
179.688 289.062 1722
195.312 289.062 1529
171.875 203.125 1586
54.6875 304.688 1696
-343.75 304.688 1639
23.4375 289.062 1557
156.25 -437.5 1333
-78.125 437.5 1722
54.6875 250 1564
273.438 46.875 1223
-359.375 390.625 1757
117.188 382.812 1564
140.625 250 1609
-281.25 -46.875 1223
-218.75 -46.875 1232
-250 398.438 1543
-218.75 296.875 1639
-304.688 156.25 1959
39.0625 289.062 1713
164.062 242.188 1609
359.375 171.875 2317
-46.875 281.25 1543
-476.562 -54.6875 1219
-445.312 257.812 1523
62.5 257.812 1609
195.312 242.188 1564
117.188 289.062 1713
218.75 289.062 1529
148.438 289.062 1572
-70.3125 281.25 1536
-70.3125 281.25 1536
359.375 195.312 2241
195.312 273.438 1748
93.75 382.812 1557
234.375 320.312 1496
-398.438 289.062 1655
-179.688 -328.125 1572
132.812 -335.938 1398
195.312 234.375 1564
-85.9375 265.625 1433
187.5 273.438 1757
125 289.062 1713
156.25 296.875 1705
203.125 226.562 1557
195.312 179.688 1317
-78.125 296.875 1516
-226.562 289.062 1624
7.8125 289.062 1543
156.25 -164.062 1516
85.9375 -171.875 1529
-187.5 -179.688 1134
23.4375 312.5 1680
-78.125 265.625 1572
-46.875 304.688 1680
-218.75 273.438 1632
93.75 312.5 1680
218.75 273.438 1557
132.812 289.062 1696
31.25 289.062 1557
7.8125 304.688 1680
289.062 328.125 1433
-117.188 31.25 1232
187.5 179.688 1317
187.5 289.062 1529
-85.9375 281.25 1433
85.9375 328.125 1655
-15.625 203.125 1543
-15.625 281.25 1503
-171.875 203.125 1731
-109.375 234.375 1410
62.5 109.375 1245
7.8125 281.25 1523
-234.375 164.062 1970
109.375 -23.4375 1206
-476.562 -367.188 1206
210.938 273.438 1557
187.5 296.875 1543
-39.0625 171.875 1322
125 242.188 1616
-406.25 -289.062 1259
-320.312 203.125 1873
164.062 -437.5 1333
-93.75 312.5 1477
164.062 -101.562 1317
-390.625 -15.625 1181
343.75 203.125 2212
156.25 273.438 1586
-351.562 23.4375 1241
-460.938 -304.688 1227
156.25 242.188 1601
-437.5 15.625 1245
-335.938 -359.375 1376
406.25 -164.062 3503
-85.9375 289.062 1445
-78.125 289.062 1543
-54.6875 31.25 1227
-78.125 281.25 1543
-492.188 -54.6875 1219
-320.312 148.438 1981
101.562 289.062 1705
-375 187.5 1883
117.188 296.875 1713
93.75 304.688 1705
171.875 273.438 1757
210.938 289.062 1543
148.438 296.875 1696
343.75 93.75 1245
125 179.688 1317
125 296.875 1705
-390.625 -54.6875 1210
-484.375 210.938 1509
453.125 -164.062 3468
203.125 289.062 1536
140.625 289.062 1579
-218.75 140.625 2065
226.562 273.438 1572
-85.9375 171.875 1322
203.125 296.875 1536
-156.25 312.5 1655
-203.125 -328.125 1601
-242.188 -226.562 1210
-367.188 -375 1365
203.125 273.438 1557
-296.875 125 2028
-78.125 171.875 1317
-437.5 -257.812 1259
-195.312 -328.125 1609
-23.4375 304.688 1696
54.6875 -171.875 1523
-15.625 312.5 1680
54.6875 257.812 1579
-23.4375 265.625 1503
-476.562 273.438 1523
-78.125 304.688 1509
-273.438 -54.6875 1206
156.25 289.062 1572
-23.4375 312.5 1680
140.625 296.875 1696
164.062 296.875 1705
-31.25 312.5 1671
148.438 421.875 1543
70.3125 273.438 1579
-148.438 -39.0625 1219
195.312 296.875 1529
7.8125 39.0625 1232
-234.375 -234.375 1223
187.5 242.188 1564
62.5 -171.875 1523
125 273.438 1572
-156.25 -328.125 1601
-132.812 -39.0625 1219
70.3125 382.812 1564
-85.9375 250 1415
414.062 -132.812 3503
218.75 218.75 1550
-171.875 -54.6875 1197
187.5 250 1586
-226.562 171.875 1776
179.688 304.688 1713
-23.4375 -93.75 1333
-226.562 398.438 1543
-421.875 -54.6875 1214
226.562 289.062 1529
-351.562 390.625 1757
164.062 273.438 1586
-453.125 234.375 1509
195.312 250 1609
171.875 242.188 1609
-382.812 390.625 1757
-218.75 289.062 1624
117.188 273.438 1748
-187.5 -328.125 1616
-171.875 -328.125 1609
101.562 296.875 1705
-210.938 210.938 1739
-234.375 250 1616
140.625 414.062 1543
171.875 289.062 1713
85.9375 367.188 1579
179.688 296.875 1543
-359.375 -343.75 1302
85.9375 289.062 1722
-296.875 -46.875 1223
-328.125 140.625 2005
125 289.062 1713
-46.875 273.438 1550
210.938 179.688 1317
164.062 -164.062 1516
-257.812 -54.6875 1206
-257.812 -164.062 1134
-117.188 -328.125 1564
39.0625 156.25 1307
-335.938 -46.875 1219
109.375 289.062 1705
-23.4375 414.062 1550
-140.625 375 1550
117.188 304.688 1696
-421.875 -46.875 1214
140.625 -164.062 1509
492.188 -78.125 2883
437.5 -164.062 3468
-289.062 125 2040
156.25 429.688 1748
-250 320.312 1632
-203.125 164.062 1794
-70.3125 289.062 1543
117.188 289.062 1713
-296.875 -203.125 1181
-46.875 382.812 1550
468.75 -296.875 3208
375 -164.062 3539
-62.5 304.688 1688
-62.5 382.812 1557
148.438 289.062 1572
15.625 179.688 1328
-70.3125 304.688 1509
-421.875 -296.875 1241
-93.75 257.812 1421
-117.188 -39.0625 1223
101.562 289.062 1705
367.188 171.875 2317
210.938 289.062 1543
164.062 304.688 1705
140.625 304.688 1671
62.5 382.812 1557
476.562 -265.625 3178
-109.375 -328.125 1609
-429.688 -390.625 1359
-414.062 234.375 1757
164.062 289.062 1705
-335.938 390.625 1557
-85.9375 281.25 1433
421.875 -132.812 3539
156.25 250 1601
54.6875 265.625 1572
-54.6875 320.312 1655
-484.375 289.062 1529
-445.312 250 1557
62.5 265.625 1572
-359.375 -257.812 1359
-187.5 132.812 2065
93.75 289.062 1722
-304.688 171.875 1926
179.688 250 1586
85.9375 296.875 1705
-429.688 -257.812 1259
359.375 179.688 2286
453.125 -117.188 3468
101.562 304.688 1705
171.875 296.875 1713
179.688 273.438 1748
242.188 296.875 1439
148.438 429.688 1731
-171.875 265.625 1655
7.8125 312.5 1671
132.812 289.062 1696
7.8125 289.062 1543
218.75 203.125 1550
148.438 203.125 1572
0 312.5 1680
140.625 203.125 1572
93.75 296.875 1713
-140.625 -328.125 1609
132.812 273.438 1572
203.125 195.312 1594
62.5 257.812 1609
-7.8125 218.75 1516
-445.312 242.188 1557
117.188 242.188 1616
-468.75 -375 1210
-234.375 289.062 1616
-195.312 289.062 1632
218.75 289.062 1529
140.625 273.438 1572
0 281.25 1516
226.562 273.438 1572
132.812 296.875 1696
148.438 304.688 1688
-421.875 343.75 1557
-328.125 203.125 1757
-406.25 289.062 1655
-187.5 203.125 1731
109.375 296.875 1705
-179.688 281.25 1632
78.125 304.688 1688
179.688 179.688 1322
343.75 171.875 1297
-31.25 273.438 1503
-171.875 375 1550
-85.9375 265.625 1433
-382.812 351.562 1564
179.688 289.062 1722
-93.75 281.25 1433
-335.938 203.125 1757
70.3125 39.0625 1223
-218.75 -179.688 1138
-85.9375 -109.375 1359
54.6875 7.8125 1169
54.6875 351.562 1609
-359.375 -390.625 1354
46.875 7.8125 1169
-234.375 -218.75 1214
-226.562 164.062 1776
85.9375 304.688 1705
-468.75 -54.6875 1214
-7.8125 289.062 1543
23.4375 289.062 1557
-421.875 -304.688 1236
-312.5 125 2053
218.75 -398.438 1359
-148.438 -54.6875 1197
-218.75 320.312 1624
195.312 304.688 1529
-468.75 226.562 1464
218.75 -187.5 1601
210.938 273.438 1557
351.562 203.125 2212
-359.375 -179.688 1141
-39.0625 273.438 1529
-476.562 203.125 1489
-148.438 156.25 1993
109.375 179.688 1317
476.562 -281.25 3178
484.375 -289.062 2958
-148.438 -179.688 1134
-492.188 320.312 1536
62.5 195.312 1322
-203.125 -179.688 1134
-203.125 320.312 1632
125 273.438 1572
-492.188 -335.938 1206
54.6875 257.812 1579
85.9375 281.25 1757
-156.25 218.75 1705
78.125 -171.875 1529
421.875 -164.062 3503
-187.5 70.3125 1981
414.062 -164.062 3503
0 289.062 1543
-281.25 320.312 1624
-85.9375 304.688 1489
-226.562 -54.6875 1206
250 335.938 1452
78.125 39.0625 1223
62.5 -445.312 1354
46.875 -445.312 1365
-460.938 304.688 1529
-179.688 85.9375 2005
-242.188 -54.6875 1206
210.938 210.938 1557
78.125 289.062 1722
-148.438 140.625 2016
70.3125 289.062 1722
-23.4375 281.25 1496
-31.25 382.812 1550
156.25 296.875 1705
46.875 93.75 1255
140.625 -437.5 1338
117.188 250 1616
-23.4375 304.688 1696
-476.562 265.625 1516
179.688 242.188 1609
-148.438 -328.125 1609
46.875 234.375 1529
187.5 296.875 1543
109.375 -437.5 1343
-359.375 -351.562 1302
-210.938 -54.6875 1202
-46.875 242.188 1523
148.438 179.688 1317
78.125 296.875 1713
109.375 390.625 1550
210.938 -312.5 1415
-164.062 164.062 1981
312.5 62.5 1227
125 296.875 1705
85.9375 289.062 1722
-453.125 -226.562 1273
-468.75 -226.562 1273
-156.25 304.688 1647
125 -164.062 1509
-179.688 320.312 1655
195.312 -132.812 1278
-210.938 132.812 2053
226.562 289.062 1529
85.9375 187.5 1312
62.5 289.062 1722
257.812 46.875 1223
429.688 -164.062 3503
109.375 -164.062 1509
-218.75 132.812 2053
-187.5 -54.6875 1197
109.375 289.062 1705
-109.375 31.25 1232
-31.25 312.5 1671
234.375 46.875 1227
-101.562 -328.125 1557
492.188 -265.625 3092
-31.25 304.688 1688
-437.5 257.812 1523
-23.4375 312.5 1680
78.125 187.5 1312
132.812 312.5 1671
-437.5 -62.5 1202
-179.688 203.125 1731
-390.625 179.688 1904
117.188 296.875 1713
210.938 296.875 1529
-187.5 164.062 1970
203.125 226.562 1557
203.125 179.688 1317
-218.75 -54.6875 1202
-23.4375 195.312 1550
117.188 273.438 1748
85.9375 296.875 1705
101.562 296.875 1705
195.312 273.438 1748
109.375 187.5 1317
-429.688 281.25 1550
70.3125 273.438 1579
23.4375 156.25 1307
-250 -156.25 1141
85.9375 273.438 1766
140.625 289.062 1579
85.9375 156.25 1302
-304.688 125 2028
-179.688 250 1647
218.75 179.688 1322
187.5 289.062 1529
-234.375 250 1616
234.375 312.5 1503
85.9375 179.688 1312
15.625 281.25 1536
-15.625 289.062 1543
203.125 289.062 1536
148.438 312.5 1671
101.562 289.062 1705
-476.562 -226.562 1273
-429.688 289.062 1557
-70.3125 171.875 1317
-210.938 320.312 1632
125 -437.5 1338
148.438 296.875 1696
-46.875 234.375 1523
-164.062 234.375 1663
-195.312 -54.6875 1202
23.4375 -171.875 1523
164.062 296.875 1705
382.812 -164.062 3539
367.188 -164.062 1523
101.562 179.688 1317
140.625 296.875 1696
210.938 -390.625 1376
-203.125 -54.6875 1202
132.812 -164.062 1509
117.188 -164.062 1509
-281.25 -54.6875 1206
-203.125 296.875 1647
-101.562 31.25 1232
-257.812 -273.438 1223
101.562 390.625 1543
39.0625 39.0625 1227
93.75 289.062 1722
-195.312 -39.0625 1223
-320.312 -46.875 1223
78.125 273.438 1748
-187.5 -156.25 1141
195.312 421.875 1536
23.4375 -187.5 1572
-187.5 -39.0625 1223
-296.875 179.688 1915
132.812 406.25 1543
-250 -54.6875 1202
210.938 -179.688 1496
-78.125 304.688 1509
-156.25 -156.25 1141
156.25 390.625 1550
203.125 312.5 1680
492.188 -195.312 3010
109.375 304.688 1696
-101.562 429.688 1731
148.438 273.438 1579
187.5 304.688 1543
-304.688 156.25 1959
-179.688 -39.0625 1223
-15.625 39.0625 1232
101.562 39.0625 1223
171.875 312.5 1680
-500 -54.6875 1206
109.375 312.5 1671
-242.188 296.875 1639
171.875 -164.062 1516
0 39.0625 1227
148.438 -164.062 1516
-39.0625 304.688 1688
117.188 312.5 1671
195.312 46.875 1227
70.3125 289.062 1722
70.3125 179.688 1312
70.3125 296.875 1680
-7.8125 39.0625 1232
7.8125 250 1503
93.75 296.875 1713
226.562 265.625 1572
-46.875 304.688 1680
78.125 289.062 1722
195.312 242.188 1564
-390.625 -312.5 1439
-109.375 85.9375 1268
132.812 179.688 1317
195.312 -164.062 1523
125 390.625 1543
140.625 312.5 1671
85.9375 289.062 1722
-343.75 -179.688 1138
78.125 179.688 1312
-304.688 -46.875 1223
-15.625 203.125 1543
164.062 179.688 1317
-218.75 148.438 2005
93.75 390.625 1543
62.5 296.875 1722
-343.75 -46.875 1219
39.0625 242.188 1516
-101.562 234.375 1410
101.562 312.5 1671
93.75 39.0625 1219
367.188 179.688 2286
187.5 273.438 1757
-78.125 382.812 1550
93.75 304.688 1705
-226.562 148.438 1981
179.688 -132.812 1292
-23.4375 289.062 1496
210.938 312.5 1671
-210.938 -46.875 1232
-46.875 312.5 1671
125 414.062 1543
171.875 390.625 1550
-85.9375 304.688 1489
148.438 250 1601
-179.688 -54.6875 1197
-218.75 210.938 1713
179.688 312.5 1680
46.875 -171.875 1523
23.4375 351.562 1609
195.312 312.5 1680
-171.875 281.25 1639
54.6875 -171.875 1523
-187.5 85.9375 2005
39.0625 7.8125 1173
125 312.5 1671
-54.6875 273.438 1557
210.938 7.8125 1173
148.438 -179.688 1516
171.875 296.875 1713
156.25 312.5 1671
-62.5 367.188 1572
203.125 296.875 1536
-226.562 -39.0625 1219
-125 375 1557
-289.062 359.375 1564
164.062 437.5 1731
203.125 46.875 1227
-132.812 -54.6875 1193
62.5 289.062 1722
-46.875 273.438 1550
179.688 -164.062 1523
70.3125 273.438 1579
-164.062 -39.0625 1219
156.25 -164.062 1516
-7.8125 281.25 1523
406.25 -164.062 3503
-484.375 -54.6875 1223
218.75 -421.875 1349
-93.75 -62.5 1268
-85.9375 171.875 1322
109.375 210.938 1601
-140.625 -54.6875 1197
101.562 -195.312 1509
101.562 187.5 1317
-406.25 -375 1370
203.125 -195.312 1509
-367.188 -398.438 1404
-437.5 -367.188 1202
-171.875 -54.6875 1197
46.875 296.875 1705
-234.375 164.062 1970
70.3125 304.688 1680
234.375 164.062 1307
164.062 312.5 1680
226.562 312.5 1523
-132.812 -179.688 1134
-429.688 -54.6875 1210
156.25 179.688 1317
-250 164.062 1785
-210.938 210.938 1739
-460.938 -226.562 1273
132.812 -335.938 1398
132.812 -437.5 1343
484.375 -273.438 3120
-492.188 312.5 1529
132.812 296.875 1696
-250 -273.438 1223
132.812 -460.938 1349
-15.625 312.5 1680
-203.125 210.938 1739
-367.188 15.625 1236
203.125 257.812 1776
-375 15.625 1236
476.562 -117.188 3399
-210.938 164.062 1776
343.75 210.938 2198
-164.062 -54.6875 1197
-54.6875 281.25 1543
-242.188 -234.375 1210
218.75 218.75 1550
179.688 203.125 1586
78.125 156.25 1302
54.6875 289.062 1579
171.875 -460.938 1365
-7.8125 -156.25 1483
78.125 296.875 1713
-429.688 -445.312 1376
328.125 218.75 1338
218.75 -179.688 1579
54.6875 273.438 1579
-375 -312.5 1328
-148.438 304.688 1663
203.125 31.25 1181
382.812 -109.375 1410
-46.875 265.625 1550
-23.4375 281.25 1496
-93.75 171.875 1322
195.312 -125 1278
171.875 250 1586
-234.375 -164.062 1138
359.375 -148.438 1509
93.75 312.5 1680
187.5 -171.875 1523
-31.25 312.5 1671
164.062 -164.062 1516
-156.25 -54.6875 1206
46.875 289.062 1579
101.562 296.875 1705
70.3125 296.875 1680
-179.688 250 1647
195.312 296.875 1529
109.375 296.875 1705
375 -164.062 3539
-351.562 -179.688 1138
7.8125 156.25 1307
93.75 179.688 1317
171.875 312.5 1680
-445.312 -367.188 1202
62.5 179.688 1312
195.312 31.25 1185
359.375 210.938 2212
132.812 390.625 1543
-460.938 -367.188 1206
-164.062 -179.688 1134
-218.75 -54.6875 1202
109.375 312.5 1671
7.8125 281.25 1523
-39.0625 312.5 1671
39.0625 289.062 1713
39.0625 296.875 1713
62.5 273.438 1579
-31.25 250 1523
-398.438 187.5 1863
-70.3125 250 1601
-429.688 210.938 1748
492.188 -289.062 2958
-226.562 210.938 1705
203.125 312.5 1680
320.312 226.562 1349
-148.438 -54.6875 1197
-226.562 132.812 1993
85.9375 312.5 1671
-31.25 289.062 1543
-140.625 -39.0625 1223
179.688 390.625 1543
-210.938 -54.6875 1202
148.438 390.625 1543
242.188 46.875 1185
31.25 -171.875 1523
85.9375 273.438 1766
359.375 -164.062 1543
-242.188 -164.062 1134
117.188 242.188 1616
-343.75 -343.75 1292
-195.312 203.125 1739
70.3125 179.688 1312
-39.0625 281.25 1543
85.9375 179.688 1312
-31.25 304.688 1688
218.75 46.875 1227
15.625 46.875 1236
54.6875 179.688 1322
179.688 257.812 1579
0 257.812 1509
195.312 257.812 1794
234.375 312.5 1503
-187.5 203.125 1731
132.812 312.5 1671
-171.875 218.75 1722
140.625 312.5 1671
85.9375 390.625 1550
156.25 257.812 1609
-468.75 203.125 1489
132.812 -328.125 1404
468.75 -265.625 3178
23.4375 304.688 1557
203.125 226.562 1557
-203.125 289.062 1624
195.312 -429.688 1349
-31.25 312.5 1671
70.3125 312.5 1671
-70.3125 273.438 1536
78.125 179.688 1312
-226.562 -54.6875 1206
-218.75 -156.25 1145
-218.75 289.062 1624
31.25 289.062 1557
101.562 312.5 1671
-140.625 148.438 2016
62.5 289.062 1722
148.438 312.5 1671
54.6875 242.188 1536
54.6875 390.625 1550
-125 -39.0625 1223
-39.0625 304.688 1688
-445.312 -226.562 1273
-39.0625 289.062 1543
-46.875 304.688 1680
54.6875 289.062 1579
-351.562 -46.875 1223
7.8125 226.562 1516
132.812 382.812 1557
-39.0625 421.875 1739
-171.875 289.062 1671
-234.375 250 1616
-218.75 132.812 2053
-210.938 -39.0625 1223
23.4375 289.062 1557
148.438 289.062 1572
-265.625 -226.562 1169
0 226.562 1509
85.9375 296.875 1705
-54.6875 312.5 1680
70.3125 390.625 1543
-382.812 -46.875 1223
-187.5 117.188 2040
125 312.5 1671
54.6875 296.875 1705
-195.312 320.312 1639
-171.875 -39.0625 1219
-187.5 -164.062 1138
78.125 273.438 1748
-54.6875 304.688 1680
187.5 312.5 1680
85.9375 -164.062 1503
-328.125 -359.375 1381
-328.125 -46.875 1223
-195.312 265.625 1624
7.8125 390.625 1550
15.625 304.688 1550
-132.812 -39.0625 1219
171.875 257.812 1586
-164.062 164.062 1981
78.125 289.062 1722
46.875 289.062 1579
-242.188 -242.188 1214
210.938 46.875 1223
78.125 242.188 1632
164.062 46.875 1223
-257.812 234.375 1647
-195.312 -54.6875 1197
-85.9375 382.812 1550
164.062 390.625 1550
-218.75 148.438 2090
101.562 250 1624
226.562 46.875 1181
-156.25 -39.0625 1223
109.375 39.0625 1219
54.6875 250 1550
-242.188 289.062 1616
-312.5 125 2053
39.0625 304.688 1696
93.75 242.188 1632
117.188 -437.5 1343
-203.125 -54.6875 1202
78.125 390.625 1550
15.625 281.25 1536
-265.625 -54.6875 1206
-242.188 -54.6875 1202
156.25 304.688 1696
-54.6875 273.438 1564
140.625 -164.062 1509
117.188 421.875 1543
156.25 -78.125 1307
-179.688 273.438 1639
85.9375 234.375 1639
210.938 257.812 1609
15.625 39.0625 1185
-468.75 273.438 1516
367.188 -164.062 1529
109.375 195.312 1586
46.875 304.688 1696
-7.8125 304.688 1543
390.625 -164.062 3539
-226.562 289.062 1616
203.125 187.5 1317
-289.062 -250 1236
-101.562 257.812 1415
-421.875 -429.688 1381
101.562 -460.938 1354
125 421.875 1543
-62.5 304.688 1509
39.0625 289.062 1557
-250 -46.875 1227
-414.062 289.062 1557
-296.875 -54.6875 1210
-117.188 281.25 1439
-187.5 -54.6875 1197
-85.9375 437.5 1722
54.6875 273.438 1579
78.125 218.75 1572
140.625 390.625 1543
78.125 304.688 1696
296.875 304.688 1415
46.875 187.5 1322
-343.75 390.625 1557
-15.625 0 1169
406.25 15.625 1169
-351.562 -335.938 1297
54.6875 156.25 1302
-250 -54.6875 1202
-453.125 257.812 1529
-460.938 -273.438 1250
398.438 -78.125 1338
-367.188 -46.875 1223
117.188 312.5 1663
39.0625 -171.875 1523
117.188 -328.125 1415
125 -164.062 1516
31.25 296.875 1731
343.75 226.562 2143
-304.688 -54.6875 1210
78.125 312.5 1671
-359.375 -46.875 1223
-218.75 -39.0625 1227
46.875 273.438 1550
93.75 226.562 1639
-484.375 375 1550
-15.625 281.25 1503
101.562 234.375 1624
125 -335.938 1404
187.5 234.375 1564
132.812 -179.688 1509
132.812 257.812 1601
46.875 179.688 1317
70.3125 218.75 1572
-234.375 289.062 1624
148.438 -437.5 1338
101.562 -164.062 1516
-320.312 -179.688 1138
132.812 203.125 1572
179.688 273.438 1748
187.5 273.438 1766
-46.875 312.5 1671
-164.062 250 1632
46.875 296.875 1705
132.812 250 1609
187.5 203.125 1586
93.75 250 1624
-343.75 406.25 1739
-148.438 -39.0625 1223
195.312 273.438 1757
140.625 257.812 1601
62.5 390.625 1550
-257.812 421.875 1731
-367.188 -390.625 1370
-234.375 132.812 2028
-203.125 -234.375 1219
-289.062 -46.875 1223
-179.688 250 1639
-484.375 -351.562 1197
39.0625 156.25 1307
-257.812 164.062 1947
-296.875 -46.875 1223
-117.188 226.562 1392
-257.812 -54.6875 1206
-117.188 -39.0625 1223
187.5 -164.062 1529
109.375 -164.062 1516
-218.75 -54.6875 1197
-148.438 140.625 2053
31.25 -179.688 1550
-179.688 -54.6875 1197
93.75 117.188 1236
-468.75 -367.188 1206
62.5 296.875 1713
7.8125 304.688 1543
31.25 289.062 1550
-210.938 132.812 2065
62.5 312.5 1671
-164.062 132.812 2053
54.6875 312.5 1671
85.9375 -460.938 1359
-31.25 250 1516
-468.75 -351.562 1202
-15.625 304.688 1543
70.3125 250 1609
-453.125 289.062 1523
85.9375 312.5 1671
-312.5 -46.875 1223
62.5 179.688 1312
31.25 -195.312 1529
-492.188 -171.875 1145
-320.312 -54.6875 1210
-39.0625 39.0625 1232
203.125 -179.688 1509
-273.438 -54.6875 1206
-62.5 281.25 1543
70.3125 312.5 1671
-117.188 218.75 1392
171.875 -164.062 1523
23.4375 250 1509
-398.438 -445.312 1398
-382.812 -304.688 1458
-312.5 156.25 1970
101.562 156.25 1297
492.188 -273.438 2984
156.25 289.062 1713
-46.875 289.062 1543
-335.938 -54.6875 1214
-187.5 101.562 2016
148.438 273.438 1609
70.3125 289.062 1731
54.6875 179.688 1317
93.75 312.5 1671
125 -148.438 1477
195.312 -179.688 1503
-414.062 -46.875 1219
-437.5 187.5 1713
-289.062 -54.6875 1210
328.125 93.75 1250
-210.938 -179.688 1134
-289.062 109.375 2028
-62.5 312.5 1509
-171.875 187.5 1766
31.25 304.688 1705
117.188 289.062 1705
78.125 -164.062 1503
85.9375 250 1609
46.875 -437.5 1370
109.375 312.5 1663
-15.625 156.25 1312
-250 242.188 1624
109.375 -460.938 1387
187.5 390.625 1550
101.562 390.625 1543
156.25 257.812 1601
179.688 390.625 1550
23.4375 296.875 1550
484.375 -195.312 2958
390.625 15.625 1169
-164.062 0 1177
-117.188 265.625 1427
-437.5 -226.562 1273
-54.6875 304.688 1536
0 390.625 1550
39.0625 296.875 1713
-226.562 132.812 2053
23.4375 289.062 1550
-382.812 187.5 1833
-156.25 0 1177
109.375 -335.938 1415
203.125 273.438 1757
195.312 312.5 1509
320.312 234.375 1349
-312.5 -54.6875 1210
140.625 250 1601
-179.688 203.125 1739
328.125 -156.25 1529
-242.188 -46.875 1227
125 250 1601
-500 304.688 1516
-187.5 -46.875 1232
-62.5 304.688 1509
-226.562 148.438 2065
85.9375 289.062 1722
70.3125 273.438 1579
-164.062 -54.6875 1214
-437.5 -304.688 1232
195.312 -125 1278
-39.0625 312.5 1671
-296.875 -7.8125 1177
-54.6875 0 1177
-218.75 140.625 2090
203.125 -132.812 1278
164.062 273.438 1766
-375 -304.688 1365
-390.625 -46.875 1223
93.75 187.5 1328
-375 -351.562 1322
78.125 117.188 1241
-335.938 -179.688 1141
-54.6875 312.5 1536
54.6875 39.0625 1177
445.312 15.625 1165
117.188 257.812 1601
-195.312 -7.8125 1177
-382.812 39.0625 1959
-132.812 -54.6875 1193
132.812 242.188 1609
156.25 281.25 1731
406.25 -62.5 1312
125 257.812 1601
179.688 257.812 1609
-140.625 31.25 1245
70.3125 203.125 1586
-218.75 210.938 1713
-210.938 -54.6875 1202
-437.5 -375 1206
101.562 -437.5 1349
171.875 289.062 1748
-406.25 195.312 1843
31.25 7.8125 1169
132.812 -164.062 1516
-226.562 -46.875 1227
476.562 -273.438 3120
-203.125 132.812 2065
210.938 -70.3125 1297
-195.312 132.812 2065
-78.125 0 1177
-23.4375 304.688 1696
15.625 179.688 1328
109.375 -437.5 1349
468.75 -273.438 3178
171.875 273.438 1757
85.9375 117.188 1241
15.625 289.062 1543
78.125 179.688 1312
-390.625 -445.312 1398
-46.875 23.4375 1181
46.875 312.5 1671
-78.125 312.5 1516
117.188 -164.062 1516
0 296.875 1543
140.625 -437.5 1343
-101.562 0 1177
-70.3125 273.438 1739
148.438 -164.062 1523
-281.25 281.25 1655
179.688 -164.062 1529
-164.062 281.25 1663
148.438 273.438 1609
156.25 273.438 1757
140.625 281.25 1739
-156.25 31.25 1245
-500 -171.875 1145
-367.188 -179.688 1141
195.312 281.25 1748
-273.438 -195.312 1165
-125 -109.375 1169
117.188 273.438 1748
210.938 226.562 1564
-234.375 -39.0625 1210
23.4375 179.688 1317
7.8125 289.062 1543
179.688 -132.812 1288
210.938 390.625 1536
148.438 281.25 1739
-203.125 140.625 2065
39.0625 390.625 1550
39.0625 179.688 1317
195.312 390.625 1543
351.562 203.125 2226
54.6875 -468.75 1392
-242.188 132.812 2028
78.125 226.562 1647
39.0625 312.5 1680
351.562 210.938 2212
125 -328.125 1415
140.625 257.812 1601
93.75 -460.938 1354
203.125 7.8125 1173
109.375 257.812 1794
-93.75 31.25 1227
7.8125 296.875 1543
460.938 -156.25 3468
-468.75 195.312 1489
125 -437.5 1343
101.562 117.188 1236
54.6875 312.5 1671
-328.125 -54.6875 1214
-242.188 -39.0625 1210
85.9375 226.562 1639
-70.3125 304.688 1509
-421.875 210.938 1748
-78.125 39.0625 1232
31.25 179.688 1317
125 273.438 1748
-195.312 289.062 1624
-343.75 343.75 1586
-70.3125 312.5 1516
125 281.25 1739
203.125 437.5 1579
62.5 312.5 1671
132.812 273.438 1609
101.562 273.438 1766
179.688 289.062 1748
31.25 296.875 1731
-7.8125 179.688 1322
-265.625 -54.6875 1206
187.5 46.875 1223
203.125 281.25 1748
93.75 -164.062 1516
343.75 210.938 2212
0 289.062 1543
-39.0625 289.062 1529
187.5 281.25 1748
132.812 281.25 1739
-304.688 -54.6875 1210
117.188 -335.938 1410
210.938 -335.938 1398
23.4375 156.25 1307
-273.438 -54.6875 1206
468.75 -281.25 3178
-343.75 -335.938 1283
468.75 -132.812 3503
492.188 -156.25 2958
-429.688 -289.062 1241
-179.688 296.875 1663
132.812 289.062 1705
359.375 -164.062 1543
0 218.75 1523
31.25 312.5 1680
171.875 390.625 1550
85.9375 -437.5 1354
164.062 281.25 1739
62.5 39.0625 1223
39.0625 39.0625 1223
195.312 273.438 1757
179.688 281.25 1748
164.062 289.062 1713
109.375 281.25 1739
-54.6875 39.0625 1232
-218.75 148.438 2090
93.75 195.312 1328
54.6875 148.438 1297
148.438 414.062 1536
187.5 273.438 1766
187.5 414.062 1529
156.25 414.062 1536
203.125 273.438 1757
-257.812 -164.062 1134
132.812 257.812 1601
156.25 390.625 1550
23.4375 289.062 1550
93.75 390.625 1550
-78.125 304.688 1503
109.375 273.438 1766
-429.688 -226.562 1273
-62.5 304.688 1509
-226.562 156.25 1981
218.75 390.625 1536
140.625 273.438 1601
101.562 -328.125 1421
-31.25 39.0625 1236
335.938 218.75 1338
164.062 -164.062 1516
-210.938 257.812 1616
195.312 289.062 1536
171.875 281.25 1748
-7.8125 210.938 1529
-78.125 281.25 1739
-257.812 -273.438 1219
-359.375 -54.6875 1214
-234.375 132.812 2028
-257.812 -39.0625 1219
-320.312 -54.6875 1210
210.938 289.062 1536
-296.875 -54.6875 1210
-437.5 -289.062 1241
70.3125 -445.312 1354
-187.5 125 2053
-171.875 -54.6875 1197
-54.6875 289.062 1536
7.8125 289.062 1543
-320.312 125 2040
85.9375 390.625 1550
203.125 -140.625 1278
78.125 234.375 1639
-335.938 -351.562 1376
179.688 234.375 1579
179.688 46.875 1227
101.562 -460.938 1354
-406.25 281.25 1594
15.625 296.875 1543
-23.4375 390.625 1543
-195.312 125 2053
-460.938 -265.625 1255
484.375 -156.25 2958
39.0625 242.188 1516
109.375 390.625 1543
101.562 257.812 1616
-492.188 -343.75 1202
93.75 257.812 1616
-218.75 -226.562 1219
-7.8125 296.875 1543
109.375 289.062 1713
-7.8125 390.625 1550
85.9375 281.25 1748
85.9375 273.438 1766
-375 -54.6875 1210
-15.625 390.625 1543
-187.5 -39.0625 1223
-367.188 -54.6875 1210
0 304.688 1543
164.062 414.062 1529
-195.312 296.875 1639
-7.8125 304.688 1543
-62.5 289.062 1543
15.625 304.688 1696
-367.188 -39.0625 1210
-171.875 250 1632
-375 -46.875 1223
-164.062 -39.0625 1223
257.812 164.062 1302
93.75 273.438 1776
62.5 179.688 1312
-210.938 375 1557
-101.562 250 1415
-171.875 320.312 1655
15.625 289.062 1543
-242.188 -54.6875 1202
93.75 -437.5 1349
46.875 312.5 1671
-171.875 -39.0625 1223
140.625 414.062 1536
-382.812 -54.6875 1210
-70.3125 382.812 1550
46.875 179.688 1317
70.3125 -437.5 1354
156.25 281.25 1731
-31.25 156.25 1312
132.812 390.625 1543
-250 132.812 2053
15.625 312.5 1680
-257.812 -54.6875 1206
-46.875 289.062 1543
156.25 429.688 1757
101.562 289.062 1722
-195.312 375 1557
39.0625 289.062 1557
-296.875 -179.688 1141
-179.688 414.062 1757
281.25 164.062 1302
-273.438 164.062 1959
-195.312 429.688 1731
125 289.062 1705
-296.875 -234.375 1169
-171.875 164.062 1970
117.188 -328.125 1415
117.188 -328.125 1415
-23.4375 296.875 1529
62.5 429.688 1739
257.812 46.875 1181
70.3125 -164.062 1503
-195.312 -39.0625 1227
-281.25 -179.688 1138
-328.125 281.25 1705
78.125 273.438 1579
-62.5 414.062 1536
-250 -226.562 1169
101.562 273.438 1766
-226.562 210.938 1713
-203.125 210.938 1739
-226.562 414.062 1748
-203.125 257.812 1616
-445.312 -46.875 1214
195.312 203.125 1586
-179.688 281.25 1639
15.625 281.25 1536
-242.188 -218.75 1214
-343.75 -54.6875 1206
320.312 226.562 1338
-140.625 304.688 1680
-250 -54.6875 1202
234.375 164.062 1302
250 46.875 1181
-203.125 304.688 1655
398.438 414.062 1757
93.75 234.375 1639
-398.438 -46.875 1227
46.875 -171.875 1523
-70.3125 304.688 1509
125 -164.062 1516
-203.125 -164.062 1138
-242.188 164.062 1959
132.812 281.25 1739
0 179.688 1322
93.75 117.188 1236
-335.938 -54.6875 1214
-148.438 -54.6875 1197
-281.25 -54.6875 1206
-304.688 -179.688 1138
0 289.062 1543
93.75 289.062 1722
148.438 -429.688 1343
117.188 242.188 1609
-234.375 164.062 1981
7.8125 179.688 1322
-156.25 -54.6875 1206
-187.5 296.875 1655
7.8125 304.688 1543
-265.625 164.062 1959
156.25 109.375 1255
70.3125 226.562 1543
-437.5 304.688 1550
78.125 -460.938 1381
-289.062 -54.6875 1210
203.125 195.312 1601
15.625 39.0625 1185
-54.6875 367.188 1572
-78.125 304.688 1503
-257.812 -179.688 1130
132.812 320.312 1663
31.25 312.5 1680
7.8125 296.875 1543
70.3125 273.438 1579
-468.75 226.562 1483
156.25 46.875 1223
-468.75 -265.625 1250
54.6875 -171.875 1523
-382.812 257.812 1688
23.4375 312.5 1680
140.625 281.25 1739
-312.5 -54.6875 1210
-23.4375 304.688 1696
54.6875 -117.188 1381
117.188 281.25 1739
-421.875 296.875 1557
195.312 -117.188 1278
-429.688 -375 1210
-234.375 398.438 1550
203.125 281.25 1748
-273.438 -218.75 1169
125 281.25 1739
0 296.875 1543
-7.8125 289.062 1543
226.562 289.062 1550
-242.188 -265.625 1223
-187.5 78.125 1970
468.75 -156.25 3468
-171.875 273.438 1655
-85.9375 304.688 1509
148.438 312.5 1671
-375 -320.312 1312
-54.6875 414.062 1543
-15.625 304.688 1543
-281.25 164.062 1959
171.875 273.438 1757
85.9375 273.438 1766
-218.75 -156.25 1145
109.375 281.25 1739
-250 -156.25 1141
-101.562 -281.25 1410
156.25 -171.875 1516
-281.25 -234.375 1206
46.875 289.062 1713
148.438 46.875 1223
-250 -39.0625 1214
39.0625 312.5 1680
351.562 179.688 1297
-242.188 289.062 1616
117.188 -335.938 1410
125 -335.938 1404
195.312 164.062 1307
-390.625 273.438 1609
-476.562 -171.875 1141
414.062 -171.875 3503
-429.688 -46.875 1219
-421.875 -234.375 1273
328.125 195.312 1312
-250 234.375 1639
-343.75 -46.875 1223
156.25 -156.25 1496
140.625 312.5 1663
125 304.688 1688
101.562 -164.062 1516
195.312 281.25 1748
476.562 -156.25 3468
-367.188 -46.875 1223
23.4375 -187.5 1572
15.625 179.688 1328
187.5 289.062 1557
179.688 414.062 1536
164.062 7.8125 1165
-429.688 296.875 1550
164.062 273.438 1766
-226.562 296.875 1632
179.688 -187.5 1516
-226.562 156.25 1981
-226.562 148.438 2065
-312.5 -179.688 1138
46.875 -187.5 1529
23.4375 281.25 1550
-62.5 312.5 1509
-242.188 -179.688 1130
85.9375 117.188 1241
109.375 -335.938 1415
156.25 -281.25 1439
273.438 164.062 1307
101.562 281.25 1739
93.75 281.25 1739
39.0625 -171.875 1523
218.75 164.062 1302
148.438 281.25 1739
101.562 320.312 1671
-265.625 -46.875 1227
-70.3125 289.062 1509
117.188 289.062 1705
-328.125 -179.688 1141
62.5 226.562 1543
218.75 -195.312 1624
-78.125 312.5 1516
-218.75 296.875 1624
78.125 117.188 1241
-367.188 -335.938 1307
203.125 289.062 1529
70.3125 281.25 1579
-242.188 132.812 2028
-429.688 328.125 1579
367.188 -132.812 1477
-328.125 -46.875 1223
132.812 312.5 1663
-484.375 -335.938 1206
-382.812 -179.688 1145
-132.812 -179.688 1134
-250 218.75 1680
164.062 281.25 1739
-421.875 226.562 1731
-203.125 -54.6875 1202
-210.938 -226.562 1219
414.062 15.625 1165
-437.5 -46.875 1214
15.625 203.125 1536
-453.125 -46.875 1210
-195.312 -54.6875 1197
-234.375 203.125 1722
210.938 218.75 1572
179.688 281.25 1748
125 312.5 1671
-328.125 -54.6875 1214
210.938 242.188 1572
-398.438 -242.188 1297
54.6875 179.688 1317
148.438 250 1601
-46.875 39.0625 1232
437.5 -7.8125 1206
304.688 85.9375 1245
-445.312 -320.312 1223
179.688 320.312 1529
54.6875 195.312 1322
-156.25 164.062 1981
-367.188 320.312 1624
-156.25 -39.0625 1223
93.75 -460.938 1354
140.625 250 1601
343.75 15.625 1165
-351.562 -46.875 1227
-414.062 -54.6875 1206
-7.8125 7.8125 1173
187.5 281.25 1748
62.5 7.8125 1169
-187.5 -54.6875 1197
-210.938 257.812 1616
125 320.312 1663
195.312 328.125 1509
70.3125 257.812 1601
-460.938 -296.875 1232
-468.75 -296.875 1232
-15.625 289.062 1543
46.875 39.0625 1227
-468.75 -304.688 1223
109.375 273.438 1766
-234.375 156.25 1981
78.125 273.438 1579
187.5 -117.188 1283
-70.3125 312.5 1516
-421.875 -46.875 1219
-304.688 -343.75 1297
78.125 218.75 1572
93.75 273.438 1776
164.062 -70.3125 1292
85.9375 218.75 1647
78.125 257.812 1594
-179.688 132.812 2053
164.062 312.5 1523
-187.5 250 1632
156.25 320.312 1663
-476.562 234.375 1483
-203.125 140.625 2065
-265.625 -210.938 1165
-250 -218.75 1161
-320.312 140.625 2016
171.875 406.25 1536
328.125 234.375 1354
328.125 226.562 1338
242.188 46.875 1223
187.5 -429.688 1343
-7.8125 187.5 1322
70.3125 273.438 1579
15.625 312.5 1680
187.5 242.188 1564
171.875 328.125 1655
-398.438 -54.6875 1210
-85.9375 312.5 1470
101.562 328.125 1655
23.4375 289.062 1550
117.188 312.5 1663
-187.5 -39.0625 1223
-492.188 -320.312 1214
164.062 320.312 1671
-234.375 -46.875 1232
-335.938 -46.875 1223
-140.625 -54.6875 1197
109.375 320.312 1663
78.125 281.25 1748
132.812 281.25 1739
-460.938 -171.875 1141
-296.875 -359.375 1392
-320.312 -54.6875 1210
-62.5 -171.875 1516
85.9375 46.875 1223
109.375 -328.125 1421
226.562 46.875 1181
-70.3125 289.062 1509
7.8125 156.25 1307
-179.688 -179.688 1134
85.9375 -164.062 1509
-195.312 -179.688 1134
140.625 46.875 1223
85.9375 281.25 1748
109.375 312.5 1663
-289.062 164.062 1959
54.6875 -179.688 1543
-375 85.9375 2005
367.188 -187.5 3503
-203.125 328.125 1632
-429.688 -54.6875 1202
7.8125 312.5 1680
-421.875 -375 1214
-15.625 296.875 1543
187.5 203.125 1586
179.688 312.5 1523
-281.25 -195.312 1169
164.062 437.5 1739
54.6875 257.812 1557
-390.625 -54.6875 1210
-179.688 -39.0625 1223
-7.8125 179.688 1322
-257.812 31.25 1245
-390.625 187.5 1894
156.25 312.5 1671
7.8125 179.688 1322
210.938 320.312 1509
-23.4375 281.25 1496
23.4375 179.688 1317
-7.8125 296.875 1543
-437.5 -320.312 1223
-46.875 242.188 1523
-31.25 304.688 1529
-171.875 257.812 1632
171.875 320.312 1523
0 179.688 1322
195.312 320.312 1509
171.875 281.25 1748
62.5 273.438 1579
93.75 312.5 1671
125 -320.312 1415
85.9375 -460.938 1359
132.812 -140.625 1458
210.938 164.062 1302
171.875 414.062 1536
-23.4375 289.062 1536
-93.75 156.25 1312
-257.812 164.062 1947
-273.438 -179.688 1138
62.5 -437.5 1354
195.312 414.062 1529
-187.5 -164.062 1134
-203.125 257.812 1616
-468.75 -273.438 1250
-101.562 171.875 1328
78.125 210.938 1572
218.75 187.5 1317
101.562 -437.5 1349
156.25 250 1601
156.25 -437.5 1333
367.188 195.312 2241
62.5 -164.062 1503
-31.25 296.875 1529
31.25 -179.688 1550
93.75 320.312 1671
93.75 281.25 1739
85.9375 296.875 1713
-476.562 15.625 1250
-78.125 289.062 1503
54.6875 273.438 1579
195.312 15.625 1173
-257.812 -226.562 1169
273.438 46.875 1181
78.125 226.562 1647
125 273.438 1748
54.6875 226.562 1536
31.25 179.688 1317
195.312 273.438 1757
125 46.875 1223
148.438 312.5 1671
203.125 312.5 1509
85.9375 226.562 1639
187.5 320.312 1516
-242.188 250 1616
0 312.5 1671
203.125 414.062 1529
-85.9375 304.688 1509
-15.625 179.688 1328
-296.875 -54.6875 1210
7.8125 210.938 1529
-343.75 -54.6875 1206
-375 -54.6875 1210
-23.4375 226.562 1516
-367.188 -54.6875 1210
-164.062 210.938 1722
85.9375 273.438 1766
-265.625 132.812 2053
-210.938 -39.0625 1227
-195.312 257.812 1624
-359.375 -54.6875 1214
367.188 187.5 2271
-304.688 -54.6875 1210
-15.625 250 1509
-226.562 156.25 1981
132.812 320.312 1663
179.688 296.875 1523
156.25 289.062 1713
-218.75 -39.0625 1227
101.562 312.5 1671
-31.25 289.062 1529
-273.438 -39.0625 1214
-257.812 132.812 2053
140.625 312.5 1663
85.9375 312.5 1671
-234.375 164.062 1981
-39.0625 289.062 1529
78.125 289.062 1722
132.812 7.8125 1165
132.812 -320.312 1415
54.6875 289.062 1579
-203.125 281.25 1632
148.438 414.062 1536
171.875 -429.688 1338
179.688 257.812 1609
140.625 179.688 1317
109.375 281.25 1739
23.4375 281.25 1550
39.0625 179.688 1317
7.8125 289.062 1543
375 -117.188 1433
335.938 171.875 1292
-468.75 -335.938 1206
-492.188 -218.75 1264
187.5 296.875 1557
156.25 273.438 1757
203.125 320.312 1509
-468.75 281.25 1523
93.75 -164.062 1516
0 210.938 1529
-250 -179.688 1130
78.125 -164.062 1503
117.188 -320.312 1421
-351.562 -54.6875 1206
-31.25 250 1516
78.125 320.312 1671
-39.0625 304.688 1529
78.125 164.062 1307
-218.75 257.812 1616
195.312 234.375 1557
-359.375 -46.875 1223
-218.75 304.688 1639
-31.25 281.25 1496
-382.812 -46.875 1223
70.3125 281.25 1579
468.75 -156.25 3468
179.688 164.062 1307
-406.25 -54.6875 1210
453.125 -156.25 3468
109.375 312.5 1663
-187.5 171.875 1766
-62.5 39.0625 1232
46.875 281.25 1550
-85.9375 289.062 1452
-164.062 289.062 1671
-210.938 140.625 2065
54.6875 281.25 1579
171.875 312.5 1523
414.062 -46.875 1278
-382.812 -54.6875 1210
39.0625 281.25 1557
-23.4375 296.875 1529
132.812 250 1609
-31.25 218.75 1516
-226.562 375 1550
-437.5 -171.875 1141
125 312.5 1671
-85.9375 39.0625 1236
-156.25 312.5 1655
-195.312 171.875 1766
117.188 -171.875 1529
125 320.312 1663
-210.938 328.125 1632
140.625 250 1601
187.5 312.5 1516
85.9375 320.312 1671
-203.125 312.5 1632
62.5 320.312 1663
164.062 164.062 1307
-484.375 -171.875 1141
70.3125 273.438 1579
-242.188 -39.0625 1210
62.5 164.062 1307
171.875 296.875 1713
218.75 -429.688 1333
203.125 -187.5 1516
-195.312 414.062 1757
140.625 320.312 1663
-187.5 265.625 1624
-335.938 -54.6875 1214
-468.75 -46.875 1210
85.9375 281.25 1748
-250 132.812 2053
-85.9375 31.25 1227
140.625 257.812 1601
-46.875 296.875 1529
343.75 226.562 2143
-171.875 226.562 1696
62.5 226.562 1543
-328.125 132.812 2040
62.5 273.438 1579
156.25 296.875 1705
289.062 148.438 1292
78.125 273.438 1579
132.812 257.812 1601
-210.938 414.062 1757
-46.875 414.062 1543
148.438 273.438 1609
78.125 -437.5 1354
-7.8125 304.688 1543
54.6875 -164.062 1503
-453.125 -367.188 1202
54.6875 273.438 1579
78.125 312.5 1671
31.25 250 1516
23.4375 312.5 1680
218.75 242.188 1572
-15.625 289.062 1543
-414.062 273.438 1536
-195.312 281.25 1624
78.125 281.25 1748
-226.562 -39.0625 1223
187.5 257.812 1609
117.188 312.5 1663
-39.0625 296.875 1529
210.938 257.812 1609
148.438 320.312 1663
-195.312 257.812 1624
93.75 312.5 1671
-328.125 125 2040
156.25 320.312 1663
171.875 164.062 1307
179.688 -125 1288
164.062 257.812 1616
-476.562 -351.562 1202
171.875 257.812 1609
-203.125 140.625 2065
156.25 257.812 1601
382.812 -101.562 1392
-7.8125 312.5 1688
-70.3125 429.688 1739
-156.25 140.625 2053
-15.625 257.812 1509
156.25 312.5 1671
-460.938 296.875 1529
195.312 -171.875 1509
-460.938 328.125 1579
320.312 15.625 1169
62.5 281.25 1579
140.625 -140.625 1458
-460.938 -46.875 1210
-265.625 -179.688 1134
-234.375 156.25 1981
15.625 289.062 1543
195.312 242.188 1557
195.312 312.5 1509
179.688 312.5 1523
62.5 289.062 1579
-54.6875 304.688 1536
-171.875 210.938 1722
195.312 257.812 1609
-476.562 265.625 1516
-195.312 132.812 2065
140.625 421.875 1536
-39.0625 312.5 1671
62.5 312.5 1671
140.625 164.062 1307
-156.25 164.062 1981
164.062 296.875 1713
101.562 312.5 1671
-421.875 -226.562 1273
117.188 320.312 1663
-242.188 164.062 1959
-382.812 398.438 1748
117.188 -156.25 1489
-250 406.25 1557
187.5 234.375 1564
-203.125 257.812 1616
-484.375 -46.875 1210
70.3125 421.875 1543
101.562 320.312 1671
-468.75 367.188 1543
195.312 296.875 1536
-164.062 281.25 1663
-421.875 289.062 1557
-421.875 -54.6875 1206
132.812 46.875 1223
-15.625 296.875 1543
-23.4375 179.688 1328
-468.75 -320.312 1219
117.188 296.875 1705
179.688 320.312 1529
-234.375 -39.0625 1210
265.625 398.438 1496
-289.062 164.062 1959
109.375 445.312 1722
-85.9375 -304.688 1503
125 203.125 1572
-257.812 -210.938 1165
-476.562 218.75 1483
-70.3125 15.625 1177
164.062 312.5 1523
-23.4375 203.125 1543
-281.25 164.062 1959
-125 257.812 1415
125 390.625 1550
-414.062 218.75 1785
109.375 -164.062 1516
-93.75 351.562 1509
85.9375 312.5 1671
125 296.875 1705
-70.3125 156.25 1312
148.438 257.812 1601
54.6875 117.188 1236
-39.0625 289.062 1529
156.25 117.188 1236
-210.938 -179.688 1134
-7.8125 179.688 1322
-156.25 289.062 1680
-398.438 187.5 1883
39.0625 273.438 1550
218.75 210.938 1572
125 257.812 1601
203.125 -226.562 1477
-445.312 -234.375 1268
-343.75 250 1757
148.438 250 1601
0 289.062 1543
70.3125 312.5 1671
15.625 390.625 1550
-375 187.5 1883
210.938 320.312 1509
-78.125 289.062 1503
31.25 289.062 1550
-203.125 -39.0625 1227
179.688 273.438 1748
93.75 320.312 1671
-242.188 250 1616
382.812 -125 1458
-328.125 148.438 1993
179.688 265.625 1609
85.9375 289.062 1722
-31.25 390.625 1550
-468.75 -265.625 1250
-226.562 -179.688 1134
-281.25 414.062 1739
-46.875 289.062 1543
156.25 250 1601
62.5 -78.125 1307
179.688 257.812 1609
7.8125 203.125 1536
-15.625 179.688 1328
-414.062 -54.6875 1206
-265.625 -54.6875 1206
140.625 257.812 1601
-375 -335.938 1312
7.8125 218.75 1523
85.9375 -164.062 1509
62.5 328.125 1655
-484.375 -320.312 1219
148.438 164.062 1307
109.375 289.062 1713
117.188 335.938 1639
54.6875 257.812 1557
109.375 320.312 1663
7.8125 179.688 1322
-31.25 296.875 1529
148.438 312.5 1671
-382.812 -304.688 1458
7.8125 312.5 1680
164.062 289.062 1713
0 179.688 1322
-156.25 257.812 1632
-54.6875 281.25 1536
101.562 281.25 1739
156.25 335.938 1647
70.3125 320.312 1663
-187.5 -179.688 1134
-203.125 -179.688 1134
-406.25 -171.875 1138
23.4375 289.062 1550
125 164.062 1307
-421.875 -171.875 1141
-429.688 -242.188 1268
-234.375 210.938 1705
93.75 203.125 1624
273.438 15.625 1169
-171.875 -179.688 1134
15.625 39.0625 1185
-85.9375 289.062 1452
-218.75 257.812 1616
23.4375 250 1509
218.75 210.938 1572
101.562 273.438 1766
-93.75 304.688 1470
132.812 -335.938 1404
148.438 -156.25 1496
-429.688 -171.875 1141
-218.75 -179.688 1134
-101.562 -85.9375 1297
7.8125 328.125 1647
-312.5 -54.6875 1210
-453.125 -171.875 1138
226.562 257.812 1594
117.188 281.25 1739
-421.875 304.688 1557
218.75 46.875 1223
-468.75 -171.875 1145
117.188 -328.125 1415
117.188 -437.5 1343
203.125 273.438 1757
164.062 -453.125 1343
-101.562 39.0625 1236
-132.812 39.0625 1245
-85.9375 328.125 1483
132.812 -437.5 1343
-164.062 140.625 2053
281.25 15.625 1169
-31.25 7.8125 1177
210.938 390.625 1536
-210.938 140.625 2065
296.875 46.875 1219
70.3125 226.562 1543
70.3125 234.375 1543
164.062 -156.25 1496
171.875 390.625 1550
132.812 273.438 1609
31.25 -203.125 1516
-23.4375 312.5 1680
-445.312 242.188 1557
-78.125 304.688 1503
78.125 7.8125 1169
70.3125 7.8125 1169
0 312.5 1671
78.125 351.562 1609
-250 242.188 1624
46.875 273.438 1550
78.125 312.5 1671
101.562 242.188 1632
195.312 265.625 1776
-414.062 -46.875 1219
109.375 312.5 1663
-281.25 -46.875 1223
359.375 203.125 2226
218.75 343.75 1543
-195.312 -39.0625 1227
-265.625 132.812 2053
203.125 328.125 1509
-296.875 -203.125 1185
93.75 -437.5 1349
101.562 296.875 1713
-375 -171.875 1141
187.5 320.312 1516
195.312 320.312 1509
156.25 265.625 1601
437.5 -156.25 3468
-289.062 -54.6875 1210
-15.625 203.125 1543
-218.75 328.125 1632
-406.25 -54.6875 1210
-226.562 156.25 1981
125 -281.25 1439
