ply
format ascii 1.0
comment Created by Open3D
element vertex 2381
property double x
property double y
property double z
end_header
-242.188 -140.625 1007
-273.438 -187.5 987
-398.438 -289.062 1019
-93.75 70.3125 908
-304.688 -140.625 1080
398.438 101.562 1169
109.375 -78.125 1119
-484.375 -234.375 2958
23.4375 398.438 943
-476.562 -78.125 871
437.5 46.875 1108
-429.688 -250 1034
-421.875 -117.188 878
46.875 210.938 887
85.9375 -39.0625 1084
-156.25 367.188 946
-476.562 7.8125 940
31.25 335.938 873
484.375 -39.0625 1019
-328.125 -148.438 1057
476.562 -23.4375 1034
367.188 304.688 1010
-257.812 -210.938 989
-382.812 -304.688 1007
-257.812 -23.4375 970
-421.875 -210.938 1022
-468.75 -62.5 882
-109.375 125 908
-296.875 -125 995
-367.188 70.3125 964
62.5 171.875 913
-179.688 117.188 943
-437.5 -312.5 3178
-273.438 -125 1004
-70.3125 289.062 849
-250 -195.312 992
-343.75 -15.625 923
-375 -78.125 867
-39.0625 273.438 843
171.875 -78.125 1365
-281.25 -265.625 1034
296.875 93.75 1197
218.75 -7.8125 1297
-296.875 -132.812 998
101.562 -156.25 1214
62.5 187.5 903
437.5 101.562 1210
62.5 93.75 973
179.688 -273.438 3064
-421.875 -203.125 1028
492.188 226.562 1094
-31.25 296.875 849
93.75 -23.4375 1070
-382.812 -7.8125 923
54.6875 148.438 928
46.875 195.312 894
-351.562 -46.875 896
-421.875 -70.3125 875
39.0625 289.062 837
-367.188 23.4375 948
93.75 70.3125 998
398.438 -54.6875 1022
351.562 -62.5 1031
421.875 85.9375 1149
-289.062 -140.625 995
70.3125 117.188 951
70.3125 93.75 970
445.312 31.25 1090
-460.938 -85.9375 867
-312.5 -304.688 1025
46.875 234.375 869
70.3125 70.3125 989
218.75 -15.625 1312
-179.688 -15.625 1025
31.25 320.312 858
-117.188 171.875 906
-375 -93.75 867
-265.625 -234.375 1050
-476.562 39.0625 987
-265.625 242.188 858
85.9375 -54.6875 1101
78.125 -39.0625 1087
203.125 46.875 1236
93.75 -109.375 1157
85.9375 -46.875 1090
-257.812 -140.625 1004
-171.875 -109.375 962
218.75 46.875 1245
210.938 39.0625 1245
62.5 179.688 908
-257.812 -265.625 1067
-265.625 -289.062 1060
-320.312 -203.125 1016
-273.438 -93.75 954
-382.812 -93.75 867
-85.9375 281.25 843
-500 -31.25 1016
62.5 125 948
-179.688 132.812 933
39.0625 281.25 839
85.9375 23.4375 1028
-445.312 -31.25 906
-289.062 226.562 858
-281.25 -140.625 998
-140.625 273.438 849
-398.438 31.25 959
-421.875 -23.4375 910
-171.875 148.438 894
-343.75 31.25 956
54.6875 171.875 913
-54.6875 429.688 933
-242.188 -109.375 1004
78.125 46.875 1007
15.625 281.25 841
-382.812 -265.625 1004
-242.188 -148.438 1001
-468.75 -453.125 2767
54.6875 187.5 901
78.125 15.625 1034
-187.5 257.812 851
-476.562 187.5 875
15.625 453.125 928
-328.125 218.75 860
-164.062 -320.312 3120
-437.5 -328.125 3120
-382.812 23.4375 948
437.5 54.6875 1115
93.75 -156.25 1214
-257.812 234.375 858
140.625 406.25 943
93.75 -101.562 1141
-171.875 132.812 908
70.3125 125 948
-367.188 -117.188 878
-367.188 257.812 910
-382.812 -132.812 894
-281.25 -148.438 1007
-171.875 164.062 875
31.25 359.375 915
-273.438 -187.5 987
210.938 23.4375 1268
70.3125 101.562 964
-273.438 -117.188 1004
-351.562 -210.938 1007
-187.5 -70.3125 954
-335.938 -312.5 1004
-453.125 -218.75 1060
-359.375 328.125 954
460.938 7.8125 1063
85.9375 -85.9375 1130
-109.375 117.188 910
-226.562 -85.9375 946
-195.312 -93.75 954
-375 -46.875 891
-492.188 -7.8125 935
31.25 343.75 891
-218.75 -117.188 1057
31.25 304.688 841
171.875 39.0625 1245
-289.062 -117.188 989
62.5 140.625 935
70.3125 117.188 951
-156.25 210.938 878
-195.312 171.875 901
-398.438 -164.062 1041
-164.062 156.25 887
-242.188 -164.062 1004
-250 -195.312 992
-187.5 0 1031
-164.062 -125 1041
226.562 -46.875 1349
-289.062 -242.188 1025
23.4375 445.312 933
93.75 -164.062 1223
-281.25 -304.688 1054
46.875 226.562 875
78.125 -289.062 3092
31.25 390.625 948
-429.688 -195.312 1041
-101.562 125 913
-210.938 398.438 940
-460.938 -390.625 2883
-164.062 -296.875 3178
-101.562 78.125 906
-257.812 -195.312 992
54.6875 179.688 908
-171.875 125 940
234.375 -265.625 3064
203.125 62.5 1227
-281.25 -23.4375 981
-257.812 -226.562 1063
-171.875 -23.4375 1025
-429.688 0 930
-328.125 -304.688 1013
-312.5 -218.75 1016
-164.062 179.688 878
468.75 -7.8125 1047
93.75 -93.75 1138
390.625 156.25 1153
-250 -93.75 946
-62.5 109.375 943
-437.5 -234.375 1041
-375 -210.938 1007
-343.75 -7.8125 930
406.25 109.375 1193
101.562 -265.625 3149
7.8125 304.688 847
-359.375 -78.125 869
210.938 31.25 1255
-476.562 -132.812 896
62.5 78.125 981
351.562 289.062 1038
226.562 0 1288
-250 -203.125 995
-421.875 -117.188 878
31.25 320.312 858
-304.688 -203.125 1022
-242.188 132.812 925
437.5 132.812 1181
-140.625 281.25 860
101.562 -164.062 1227
-476.562 -117.188 880
-296.875 -179.688 1044
-125 281.25 856
-171.875 187.5 894
78.125 70.3125 989
70.3125 62.5 998
62.5 148.438 928
-164.062 -85.9375 964
-429.688 -70.3125 873
-484.375 15.625 1004
78.125 7.8125 1041
-242.188 -101.562 1004
226.562 85.9375 1210
375 117.188 1189
78.125 -46.875 1090
-367.188 -335.938 1044
-351.562 -78.125 889
23.4375 351.562 901
-250 -210.938 995
453.125 23.4375 1080
-414.062 7.8125 935
46.875 273.438 843
-210.938 -85.9375 943
-101.562 93.75 908
-117.188 -140.625 1177
70.3125 93.75 970
-164.062 -62.5 998
-406.25 46.875 973
31.25 335.938 873
414.062 265.625 973
-437.5 -31.25 906
31.25 328.125 869
-179.688 23.4375 1022
367.188 -70.3125 1019
-398.438 46.875 973
101.562 -148.438 1206
-320.312 -140.625 1070
-414.062 -187.5 1025
398.438 -54.6875 1022
-351.562 -39.0625 903
-281.25 -242.188 1031
-242.188 -140.625 1007
39.0625 273.438 843
-484.375 -39.0625 903
-296.875 -195.312 1034
-312.5 -242.188 1016
-484.375 -453.125 2767
-390.625 -62.5 880
31.25 296.875 837
429.688 62.5 1126
-398.438 398.438 1338
39.0625 328.125 871
62.5 132.812 940
-289.062 -304.688 1047
445.312 39.0625 1101
281.25 7.8125 1119
-406.25 -210.938 1013
437.5 242.188 978
-85.9375 93.75 910
-429.688 -257.812 1038
-250 -187.5 998
-171.875 101.562 928
62.5 85.9375 975
-289.062 429.688 1536
-406.25 -187.5 1019
-156.25 85.9375 928
-257.812 -257.812 1063
-445.312 -109.375 871
46.875 179.688 908
-500 320.312 956
-242.188 257.812 862
-195.312 7.8125 1034
70.3125 85.9375 975
78.125 0 1050
203.125 54.6875 1232
-468.75 -406.25 2883
-101.562 429.688 935
39.0625 281.25 839
210.938 15.625 1273
54.6875 164.062 918
-125 148.438 898
218.75 -7.8125 1297
54.6875 156.25 925
62.5 171.875 913
-281.25 -93.75 959
-460.938 -7.8125 923
-257.812 -31.25 970
-250 -195.312 992
476.562 -23.4375 1034
-156.25 125 903
85.9375 -15.625 1060
-367.188 -62.5 880
-273.438 -93.75 954
-343.75 -250 1001
-273.438 -195.312 987
78.125 62.5 998
-468.75 -125 885
46.875 187.5 901
-335.938 23.4375 951
-289.062 -171.875 1060
-187.5 -85.9375 954
-226.562 -85.9375 946
-250 -117.188 1007
179.688 -70.3125 1359
15.625 398.438 940
31.25 320.312 858
46.875 210.938 887
70.3125 23.4375 1028
-218.75 -171.875 1028
62.5 117.188 951
203.125 39.0625 1245
171.875 320.312 1007
-7.8125 296.875 841
-171.875 203.125 882
-406.25 296.875 970
-367.188 -109.375 873
54.6875 125 948
101.562 -171.875 1236
140.625 -117.188 2812
421.875 78.125 1138
-273.438 -296.875 1054
85.9375 -101.562 1145
-140.625 70.3125 915
-195.312 148.438 918
-343.75 23.4375 948
54.6875 171.875 913
54.6875 171.875 913
-242.188 -101.562 1004
70.3125 117.188 951
-210.938 171.875 903
-242.188 -132.812 1010
-179.688 125 938
359.375 -54.6875 1031
-492.188 -54.6875 891
62.5 164.062 918
132.812 296.875 1019
31.25 273.438 843
-359.375 -70.3125 873
-398.438 -15.625 915
-85.9375 265.625 843
-273.438 -273.438 1044
-156.25 -101.562 973
39.0625 265.625 847
54.6875 140.625 935
289.062 375 970
-234.375 273.438 882
-429.688 -125 885
-289.062 273.438 898
218.75 -23.4375 1317
-109.375 78.125 906
-476.562 39.0625 987
54.6875 132.812 938
-429.688 -101.562 867
125 -125 1173
-210.938 390.625 935
62.5 132.812 940
15.625 367.188 920
-312.5 273.438 906
-203.125 -93.75 1022
-375 -328.125 1034
-226.562 -93.75 946
-117.188 117.188 903
54.6875 179.688 908
234.375 -54.6875 1359
-500 -39.0625 896
210.938 46.875 1241
351.562 -62.5 1031
-250 -187.5 998
-398.438 23.4375 946
-250 -179.688 1001
39.0625 250 860
-125 101.562 910
70.3125 15.625 1034
15.625 445.312 928
-281.25 -210.938 987
-210.938 156.25 913
-125 78.125 910
-250 -140.625 1007
210.938 39.0625 1245
-296.875 -312.5 1047
70.3125 31.25 1022
-156.25 132.812 903
-281.25 -132.812 995
93.75 -109.375 1157
210.938 -7.8125 1292
-460.938 -109.375 869
-148.438 156.25 891
39.0625 320.312 860
-273.438 -195.312 987
-93.75 101.562 915
-406.25 -195.312 1019
-257.812 -242.188 1063
78.125 -7.8125 1054
62.5 125 948
70.3125 46.875 1007
-304.688 -132.812 998
-312.5 -218.75 1016
93.75 -117.188 1165
-320.312 -273.438 1013
-179.688 171.875 873
78.125 54.6875 1001
101.562 -156.25 1214
484.375 226.562 1097
-257.812 -132.812 1007
70.3125 101.562 964
-351.562 46.875 970
-351.562 -39.0625 903
-468.75 351.562 1232
445.312 -257.812 1019
31.25 312.5 845
85.9375 -54.6875 1101
-304.688 -148.438 1080
226.562 39.0625 1173
-460.938 7.8125 938
109.375 -164.062 1232
62.5 101.562 967
-359.375 39.0625 962
-273.438 -109.375 1004
-335.938 375 948
15.625 453.125 928
-148.438 101.562 908
-265.625 -109.375 1031
85.9375 -62.5 1105
468.75 7.8125 1063
-476.562 -70.3125 878
70.3125 328.125 995
-257.812 -250 1063
-289.062 -210.938 987
-390.625 15.625 943
226.562 -31.25 1328
-101.562 132.812 913
-273.438 -179.688 995
-406.25 -39.0625 898
367.188 273.438 1031
-367.188 -39.0625 896
-132.812 273.438 849
-304.688 -164.062 1054
70.3125 109.375 959
70.3125 109.375 959
-296.875 -140.625 998
62.5 156.25 925
-78.125 132.812 903
-164.062 140.625 903
-156.25 203.125 885
-195.312 187.5 891
-437.5 -164.062 1177
-171.875 148.438 894
70.3125 54.6875 1001
-250 -179.688 1001
-414.062 -179.688 1031
460.938 0 1060
-132.812 109.375 903
-437.5 406.25 1333
46.875 203.125 891
-312.5 -117.188 1138
70.3125 85.9375 975
-375 54.6875 975
31.25 320.312 858
-476.562 -437.5 2789
453.125 15.625 1073
-296.875 -187.5 1041
70.3125 78.125 984
85.9375 0 1050
-242.188 -125 1010
-273.438 -187.5 987
312.5 -195.312 964
31.25 296.875 837
93.75 -179.688 1245
468.75 -15.625 1044
460.938 -187.5 954
492.188 -62.5 1001
453.125 117.188 1193
-273.438 -296.875 1054
-500 -23.4375 998
359.375 289.062 1031
-351.562 -31.25 903
46.875 171.875 913
242.188 -46.875 1112
406.25 -117.188 970
406.25 -117.188 970
429.688 62.5 1126
-210.938 -78.125 943
406.25 93.75 1165
226.562 -7.8125 1297
453.125 7.8125 1060
375 -70.3125 1019
-367.188 -70.3125 873
-164.062 -132.812 1038
398.438 -46.875 1028
-421.875 304.688 962
421.875 101.562 1173
-367.188 -242.188 1001
-101.562 140.625 913
-312.5 -125 1149
93.75 -125 1177
-234.375 -101.562 1001
-359.375 -62.5 882
39.0625 257.812 851
78.125 46.875 1007
54.6875 164.062 918
359.375 304.688 1022
476.562 -31.25 1031
-375 -62.5 882
-468.75 0 933
39.0625 234.375 871
484.375 -46.875 1013
31.25 304.688 841
476.562 234.375 1090
31.25 312.5 845
-460.938 -15.625 920
-250 -125 1004
-132.812 132.812 896
-375 -101.562 869
-390.625 -93.75 864
445.312 31.25 1090
-273.438 -117.188 1004
78.125 -54.6875 1097
-351.562 -226.562 1004
54.6875 203.125 891
-273.438 -187.5 987
484.375 -101.562 970
-226.562 -93.75 946
-210.938 164.062 908
-500 359.375 1126
-343.75 0 933
54.6875 148.438 928
390.625 109.375 1193
-132.812 -218.75 1268
62.5 148.438 928
203.125 46.875 1236
-179.688 46.875 1001
85.9375 -109.375 1157
78.125 -62.5 1105
15.625 390.625 946
210.938 15.625 1273
-273.438 -15.625 981
-429.688 -125 885
-296.875 -117.188 992
-273.438 -250 1038
-148.438 109.375 903
-296.875 -210.938 1025
-265.625 -281.25 1057
70.3125 101.562 964
-320.312 -234.375 1010
-23.4375 289.062 843
62.5 125 948
62.5 156.25 925
-250 -171.875 1001
54.6875 117.188 951
-125 117.188 903
78.125 31.25 1022
-375 -257.812 1004
-460.938 -335.938 3037
-320.312 31.25 998
-328.125 -257.812 1007
226.562 -54.6875 1359
218.75 -31.25 1328
-484.375 23.4375 998
39.0625 218.75 878
-304.688 382.812 943
62.5 164.062 918
-242.188 -117.188 1010
-367.188 -101.562 869
460.938 0 1060
54.6875 156.25 925
-476.562 -78.125 871
62.5 70.3125 989
-132.812 304.688 887
70.3125 0 1047
-273.438 406.25 1564
-296.875 -320.312 1060
-359.375 -250 1001
218.75 23.4375 1268
78.125 -15.625 1060
-93.75 93.75 908
-85.9375 132.812 908
-296.875 -289.062 1028
-367.188 0 930
-179.688 109.375 948
85.9375 -125 1177
-195.312 164.062 906
-476.562 -312.5 3064
62.5 109.375 959
453.125 15.625 1073
117.188 -148.438 1210
-156.25 421.875 940
203.125 15.625 1273
-289.062 -101.562 967
-328.125 -250 1007
-359.375 -85.9375 869
-250 -93.75 946
-281.25 -140.625 998
195.312 15.625 1273
218.75 15.625 1273
-148.438 117.188 901
-117.188 109.375 908
-421.875 -164.062 1054
54.6875 109.375 959
210.938 -23.4375 1312
39.0625 312.5 845
31.25 359.375 915
-273.438 -242.188 1038
70.3125 39.0625 1013
-375 -132.812 894
39.0625 -289.062 3120
-476.562 -54.6875 889
-289.062 -312.5 1050
54.6875 164.062 918
-500 -54.6875 891
-414.062 -257.812 1013
101.562 -171.875 1236
-328.125 -109.375 1130
-414.062 -203.125 1022
93.75 -46.875 1090
-140.625 132.812 898
-429.688 -70.3125 873
-359.375 -70.3125 873
218.75 39.0625 1255
-250 -179.688 1001
226.562 -39.0625 1338
-343.75 15.625 943
-281.25 -304.688 1054
-476.562 -453.125 2767
492.188 -265.625 1057
70.3125 78.125 984
-390.625 -140.625 889
62.5 148.438 928
234.375 -31.25 1328
468.75 -15.625 1044
-398.438 -281.25 1013
31.25 296.875 837
-250 -164.062 1001
70.3125 93.75 970
218.75 -15.625 1312
78.125 93.75 970
-265.625 -210.938 989
31.25 304.688 841
78.125 -70.3125 1108
78.125 109.375 959
382.812 -31.25 1044
-226.562 -117.188 1001
78.125 -23.4375 1067
62.5 54.6875 1001
78.125 39.0625 1013
46.875 164.062 918
46.875 195.312 894
-484.375 -117.188 880
-140.625 70.3125 915
-304.688 -265.625 1019
-54.6875 132.812 938
-351.562 -31.25 903
-257.812 -210.938 989
-296.875 -156.25 1077
429.688 54.6875 1119
148.438 -250 3149
93.75 -132.812 1181
-273.438 -179.688 995
-500 -132.812 894
-46.875 375 954
-117.188 132.812 903
351.562 109.375 1189
62.5 117.188 951
-140.625 109.375 903
460.938 -7.8125 1054
164.062 453.125 918
-359.375 54.6875 973
93.75 15.625 1038
-171.875 -46.875 1001
-171.875 187.5 894
445.312 -156.25 935
414.062 85.9375 1149
85.9375 -70.3125 1108
218.75 -23.4375 1317
-359.375 -62.5 882
-109.375 132.812 908
-109.375 54.6875 913
-304.688 -148.438 1080
78.125 148.438 930
210.938 7.8125 1278
-171.875 140.625 903
-273.438 -171.875 998
445.312 140.625 1169
-125 156.25 903
234.375 -39.0625 1338
390.625 101.562 1173
-39.0625 156.25 925
406.25 125 1181
39.0625 210.938 887
-257.812 109.375 943
-492.188 0 1013
-226.562 296.875 906
54.6875 171.875 913
445.312 31.25 1090
15.625 382.812 954
-164.062 164.062 880
-226.562 78.125 973
421.875 78.125 1138
-289.062 -156.25 1010
-273.438 -125 1004
-250 -171.875 1001
-195.312 -93.75 954
460.938 195.312 1126
-164.062 414.062 943
-187.5 -101.562 956
-250 -156.25 1001
-382.812 -70.3125 873
367.188 437.5 930
335.938 93.75 1177
-164.062 93.75 925
-351.562 -23.4375 913
15.625 453.125 928
85.9375 -132.812 1185
-468.75 -85.9375 867
85.9375 -78.125 1123
218.75 62.5 1232
-187.5 93.75 959
15.625 375 959
62.5 93.75 973
-171.875 -117.188 1057
-179.688 132.812 933
-265.625 -148.438 1004
343.75 117.188 1189
-85.9375 148.438 908
-312.5 -210.938 1019
-390.625 85.9375 951
23.4375 289.062 837
273.438 85.9375 1202
-460.938 -226.562 2933
-210.938 -93.75 1022
-242.188 -93.75 943
-148.438 85.9375 928
437.5 46.875 1108
-187.5 132.812 930
-125 367.188 948
398.438 132.812 1169
85.9375 -7.8125 1050
460.938 0 1067
93.75 -125 1169
46.875 250 858
-351.562 39.0625 967
304.688 -226.562 981
70.3125 7.8125 1038
54.6875 156.25 923
-281.25 -7.8125 1031
70.3125 -15.625 1057
328.125 93.75 1181
70.3125 93.75 970
-156.25 125 898
-234.375 -109.375 1001
-476.562 -125 885
375 -46.875 1038
-414.062 23.4375 951
39.0625 203.125 889
-375 -250 1001
70.3125 85.9375 973
-421.875 367.188 1343
31.25 265.625 845
70.3125 70.3125 987
195.312 31.25 1255
93.75 -140.625 1185
-375 -70.3125 875
203.125 39.0625 1245
-359.375 -54.6875 894
39.0625 242.188 862
-109.375 46.875 913
203.125 31.25 1255
31.25 289.062 837
-156.25 62.5 984
70.3125 -7.8125 1050
-203.125 93.75 956
-296.875 -148.438 998
-382.812 -15.625 920
62.5 140.625 933
70.3125 -23.4375 1063
62.5 148.438 928
-250 -187.5 1007
-171.875 109.375 913
62.5 46.875 1007
-242.188 -117.188 1010
-257.812 -125 1010
-406.25 31.25 962
31.25 250 856
31.25 312.5 851
-179.688 203.125 878
-164.062 85.9375 925
-187.5 101.562 954
85.9375 -85.9375 1126
31.25 296.875 837
-421.875 7.8125 943
78.125 31.25 1019
15.625 445.312 930
312.5 -234.375 981
62.5 85.9375 973
-265.625 -31.25 970
187.5 -23.4375 1307
-125 117.188 903
-429.688 -78.125 871
62.5 117.188 948
492.188 -257.812 1047
-164.062 148.438 896
414.062 203.125 1108
101.562 -164.062 1223
-437.5 -109.375 869
-320.312 -265.625 1010
62.5 78.125 981
-398.438 242.188 903
468.75 -23.4375 1041
-429.688 -210.938 1028
-390.625 257.812 923
46.875 156.25 920
62.5 39.0625 1013
-296.875 -125 995
-179.688 -23.4375 1025
-500 -15.625 989
93.75 -179.688 1241
-406.25 -46.875 894
210.938 54.6875 1232
-375 -171.875 1028
-265.625 -218.75 989
-304.688 273.438 908
46.875 148.438 928
78.125 -31.25 1070
210.938 0 1288
-179.688 109.375 946
46.875 179.688 906
-468.75 39.0625 984
-367.188 -171.875 1031
234.375 -23.4375 1123
226.562 -46.875 1343
-390.625 -93.75 864
226.562 -23.4375 1312
-343.75 7.8125 951
-140.625 117.188 898
226.562 -62.5 1359
281.25 210.938 1097
-484.375 -117.188 875
78.125 -85.9375 1126
31.25 351.562 908
0 406.25 935
218.75 7.8125 1173
-210.938 -93.75 946
-382.812 -85.9375 867
218.75 -31.25 1328
70.3125 62.5 992
-179.688 -109.375 975
85.9375 -281.25 3120
367.188 -273.438 1034
-296.875 -320.312 1057
-359.375 -7.8125 928
-265.625 -273.438 1054
85.9375 31.25 1019
-335.938 -148.438 1060
-273.438 -101.562 954
54.6875 101.562 962
234.375 -62.5 1354
-101.562 93.75 913
-234.375 -93.75 943
70.3125 78.125 981
39.0625 296.875 839
-273.438 -203.125 989
-460.938 -15.625 923
-437.5 -328.125 3149
-250 -109.375 1013
-179.688 148.438 880
-437.5 -78.125 871
-109.375 62.5 906
39.0625 304.688 847
437.5 78.125 1138
-70.3125 148.438 903
-101.562 85.9375 908
-375 -257.812 1001
-132.812 156.25 903
-492.188 -54.6875 891
-132.812 -125 987
46.875 187.5 901
-468.75 -125 885
-320.312 -257.812 1010
-382.812 -78.125 871
-281.25 -304.688 1057
-156.25 195.312 887
421.875 70.3125 1134
226.562 -15.625 1173
-78.125 15.625 1025
62.5 179.688 903
-375 -117.188 875
-406.25 -312.5 1028
62.5 156.25 923
-109.375 85.9375 908
-156.25 187.5 867
-492.188 7.8125 1004
-484.375 31.25 989
-156.25 117.188 898
-289.062 -148.438 1001
-289.062 -148.438 1001
-296.875 117.188 930
101.562 -85.9375 1126
-429.688 -31.25 910
-367.188 -93.75 869
-460.938 -46.875 896
31.25 242.188 862
15.625 453.125 1034
-148.438 140.625 901
-132.812 -179.688 1219
-62.5 101.562 943
-429.688 -117.188 875
-351.562 -273.438 1004
351.562 -296.875 1063
46.875 242.188 860
382.812 -46.875 1031
-351.562 -15.625 923
-460.938 -218.75 1060
62.5 132.812 938
195.312 -218.75 3120
453.125 15.625 1077
281.25 46.875 1153
-289.062 -156.25 1004
-203.125 164.062 906
-367.188 -46.875 896
-273.438 -218.75 987
492.188 -62.5 1001
-375 -125 880
-250 -156.25 1004
-250 -148.438 1004
375 398.438 956
54.6875 140.625 933
54.6875 195.312 894
39.0625 234.375 869
-54.6875 140.625 928
31.25 289.062 837
54.6875 210.938 885
476.562 -31.25 1034
-93.75 156.25 918
93.75 -54.6875 1094
-226.562 -93.75 943
-429.688 -218.75 1028
-70.3125 125 943
-359.375 -39.0625 901
-171.875 117.188 913
23.4375 351.562 908
304.688 -218.75 970
-304.688 -101.562 970
-93.75 46.875 913
492.188 -70.3125 992
23.4375 304.688 845
484.375 -54.6875 1010
-343.75 -125 891
70.3125 85.9375 973
-257.812 414.062 1564
54.6875 93.75 967
-500 -54.6875 891
-304.688 -203.125 1028
-265.625 -187.5 998
445.312 23.4375 1084
62.5 109.375 956
-148.438 93.75 915
-312.5 -140.625 1077
-335.938 -140.625 1073
-429.688 195.312 871
-179.688 -218.75 1268
85.9375 -93.75 1134
484.375 78.125 1236
23.4375 343.75 901
23.4375 312.5 851
210.938 23.4375 1259
62.5 62.5 992
-132.812 140.625 901
70.3125 31.25 1019
-257.812 -203.125 992
-203.125 179.688 896
226.562 62.5 1219
-429.688 -203.125 1031
-492.188 -62.5 885
93.75 -140.625 1185
62.5 101.562 962
-179.688 85.9375 925
-226.562 -62.5 948
-359.375 -218.75 1004
62.5 140.625 933
-320.312 390.625 1579
-257.812 -234.375 1067
-250 7.8125 1022
-187.5 117.188 940
-187.5 -101.562 954
-265.625 -101.562 951
437.5 39.0625 1101
-257.812 -195.312 995
-429.688 -250 1025
62.5 70.3125 984
-429.688 -179.688 1050
-359.375 -54.6875 894
476.562 -39.0625 1028
85.9375 -148.438 1197
492.188 -54.6875 1007
39.0625 195.312 891
218.75 -39.0625 1338
-148.438 273.438 854
-250 -250 1084
-125 132.812 903
46.875 171.875 908
70.3125 23.4375 1025
-70.3125 117.188 946
-296.875 -101.562 970
-484.375 -70.3125 882
62.5 132.812 938
234.375 281.25 1041
-382.812 -93.75 867
23.4375 296.875 839
-437.5 -125 882
93.75 -148.438 1197
-289.062 -15.625 1038
-476.562 -62.5 885
-429.688 -117.188 875
-281.25 -15.625 1044
-304.688 -234.375 1019
-304.688 -117.188 987
414.062 85.9375 1153
226.562 -234.375 3149
-468.75 -70.3125 878
-382.812 -195.312 1013
-250 -117.188 1010
-93.75 281.25 849
-70.3125 109.375 943
367.188 281.25 1013
-351.562 -187.5 1016
-351.562 -23.4375 918
54.6875 187.5 898
-156.25 421.875 1458
-304.688 -195.312 1034
-257.812 -210.938 989
31.25 343.75 898
101.562 -140.625 1189
-156.25 -250 3120
78.125 -39.0625 1080
-273.438 -109.375 962
-492.188 -23.4375 918
-429.688 -70.3125 878
-171.875 156.25 882
-492.188 179.688 878
70.3125 78.125 981
-500 -23.4375 918
-296.875 -179.688 1054
234.375 -54.6875 1354
31.25 257.812 849
-414.062 218.75 878
-171.875 -125 1044
-359.375 -46.875 896
78.125 -93.75 1138
-62.5 -203.125 1250
-500 -187.5 1404
-109.375 93.75 913
-382.812 -46.875 894
54.6875 132.812 938
210.938 7.8125 1273
-179.688 148.438 880
-421.875 -234.375 1016
-171.875 132.812 903
15.625 367.188 918
46.875 140.625 933
-179.688 132.812 906
359.375 281.25 1022
468.75 -23.4375 1041
46.875 132.812 938
-421.875 -312.5 1047
-343.75 234.375 873
203.125 -242.188 3149
-265.625 -195.312 995
23.4375 304.688 845
453.125 7.8125 1070
-304.688 -132.812 998
-304.688 -132.812 998
218.75 0 1169
70.3125 15.625 1031
429.688 54.6875 1123
-257.812 -156.25 1001
-375 -54.6875 891
-101.562 70.3125 906
-351.562 -15.625 923
-218.75 -62.5 948
-179.688 187.5 891
-257.812 -93.75 946
70.3125 62.5 992
-367.188 -78.125 873
250 62.5 1185
460.938 -7.8125 1057
54.6875 179.688 906
-296.875 -93.75 970
-257.812 -203.125 992
7.8125 398.438 938
23.4375 335.938 882
70.3125 -39.0625 1080
226.562 -62.5 1359
-289.062 -304.688 1050
-234.375 304.688 928
-195.312 0 1034
54.6875 125 943
70.3125 70.3125 987
39.0625 289.062 839
-343.75 -312.5 1004
-406.25 -289.062 1019
226.562 15.625 1169
-382.812 23.4375 951
-125 78.125 908
-484.375 -78.125 875
31.25 281.25 839
414.062 93.75 1165
-351.562 -242.188 1001
85.9375 -15.625 1057
-140.625 414.062 940
-445.312 -31.25 910
-351.562 31.25 962
406.25 85.9375 1157
-359.375 -226.562 1004
226.562 -257.812 3092
-250 -164.062 1007
-421.875 -23.4375 913
-250 -140.625 1010
-164.062 -148.438 1019
382.812 -62.5 1022
101.562 -62.5 1101
0 398.438 938
-250 -62.5 954
-156.25 -117.188 975
54.6875 148.438 928
468.75 320.312 1019
-367.188 -7.8125 925
70.3125 54.6875 998
-78.125 148.438 903
7.8125 406.25 935
-476.562 296.875 959
421.875 70.3125 1134
39.0625 179.688 906
-179.688 -156.25 1031
46.875 187.5 901
-109.375 109.375 915
414.062 210.938 1101
-132.812 -210.938 1255
85.9375 -101.562 1138
-179.688 93.75 925
-367.188 -85.9375 869
203.125 23.4375 1259
-242.188 -195.312 998
78.125 -46.875 1087
429.688 62.5 1126
453.125 195.312 1119
70.3125 132.812 938
23.4375 328.125 873
-359.375 -257.812 1001
-257.812 -195.312 995
351.562 -54.6875 1038
-304.688 -109.375 970
-375 -117.188 875
-273.438 -289.062 1054
-101.562 117.188 915
-132.812 164.062 869
-109.375 -312.5 3120
-398.438 -148.438 894
-437.5 0 933
-390.625 -265.625 1004
93.75 -156.25 1206
-460.938 7.8125 940
492.188 -257.812 1047
62.5 125 943
-445.312 0 935
-445.312 -234.375 1047
23.4375 273.438 843
218.75 -23.4375 1312
31.25 304.688 843
148.438 320.312 1004
54.6875 179.688 906
39.0625 281.25 839
-304.688 -265.625 1022
-250 -109.375 1013
406.25 101.562 1181
-187.5 171.875 871
343.75 -62.5 1038
281.25 -70.3125 1060
-296.875 -109.375 970
23.4375 289.062 839
-93.75 148.438 923
437.5 31.25 1090
453.125 0 1063
15.625 -195.312 1250
-304.688 -125 995
195.312 39.0625 1241
62.5 54.6875 998
23.4375 296.875 839
359.375 -62.5 1031
85.9375 -156.25 1206
-101.562 148.438 923
-203.125 148.438 915
-414.062 -218.75 1013
-187.5 125 935
70.3125 0 1047
-398.438 -164.062 1047
70.3125 -46.875 1087
-132.812 78.125 913
-250 -132.812 1010
54.6875 171.875 910
445.312 23.4375 1084
54.6875 117.188 948
46.875 164.062 915
-296.875 -312.5 1047
-101.562 132.812 915
-460.938 -23.4375 915
-500 -7.8125 984
-257.812 -203.125 992
-484.375 31.25 989
-281.25 -187.5 995
70.3125 70.3125 987
-414.062 31.25 962
46.875 226.562 871
437.5 39.0625 1101
70.3125 -31.25 1070
-31.25 289.062 843
-179.688 -218.75 1268
62.5 101.562 962
218.75 62.5 1232
-171.875 -132.812 1041
39.0625 187.5 898
-281.25 -125 998
210.938 31.25 1255
-257.812 54.6875 987
93.75 -148.438 1197
85.9375 -117.188 1161
23.4375 320.312 862
-156.25 156.25 887
-265.625 -257.812 1050
-437.5 -210.938 1044
39.0625 210.938 885
-203.125 171.875 901
-148.438 296.875 887
210.938 -7.8125 1288
-320.312 -164.062 1054
-429.688 -117.188 875
203.125 31.25 1255
203.125 31.25 1255
-437.5 -78.125 871
460.938 -7.8125 1057
54.6875 140.625 933
31.25 226.562 871
-156.25 54.6875 989
31.25 234.375 869
62.5 117.188 948
-460.938 -320.312 3037
-382.812 -93.75 867
-265.625 -265.625 1054
-351.562 -250 1001
54.6875 195.312 894
453.125 7.8125 1070
54.6875 203.125 889
-406.25 -101.562 867
-273.438 0 1028
-359.375 -101.562 873
-351.562 -7.8125 928
46.875 179.688 906
-234.375 -85.9375 943
-140.625 125 898
54.6875 187.5 898
414.062 265.625 973
-140.625 101.562 906
218.75 -39.0625 1338
-257.812 -117.188 1010
62.5 93.75 970
195.312 23.4375 1259
-257.812 -187.5 998
-437.5 -23.4375 918
-257.812 -93.75 946
-492.188 -93.75 867
429.688 54.6875 1123
-140.625 70.3125 915
226.562 23.4375 1169
218.75 -7.8125 1173
-187.5 187.5 889
85.9375 -93.75 1134
-140.625 429.688 1445
-492.188 -46.875 898
-421.875 -70.3125 878
-343.75 -203.125 1010
70.3125 46.875 1004
453.125 46.875 1112
429.688 46.875 1108
218.75 -31.25 1328
-429.688 -195.312 1034
-359.375 -46.875 896
-23.4375 296.875 851
390.625 -54.6875 1025
390.625 -54.6875 1025
-421.875 -31.25 910
-414.062 -195.312 1022
-375 -109.375 869
-437.5 -125 882
62.5 125 943
-359.375 46.875 975
-375 -335.938 1041
70.3125 62.5 992
54.6875 109.375 956
-164.062 414.062 940
-250 -101.562 1010
-273.438 -117.188 1019
476.562 -39.0625 1028
-23.4375 289.062 843
-62.5 140.625 930
54.6875 78.125 978
-398.438 -93.75 867
-171.875 -140.625 1034
54.6875 171.875 910
210.938 46.875 1236
-359.375 210.938 867
179.688 359.375 978
-437.5 195.312 873
-367.188 -78.125 873
335.938 15.625 1097
-179.688 148.438 880
85.9375 -109.375 1153
31.25 375 956
15.625 351.562 908
-414.062 -312.5 1041
-156.25 101.562 906
-484.375 -171.875 1404
-85.9375 109.375 920
-351.562 -351.562 1041
-164.062 140.625 903
54.6875 218.75 878
54.6875 85.9375 973
-289.062 -93.75 962
-210.938 -93.75 946
-296.875 -234.375 1025
-484.375 -117.188 875
-281.25 -179.688 995
390.625 -46.875 1028
-382.812 -62.5 882
-351.562 -257.812 1001
70.3125 78.125 981
-265.625 -226.562 1057
-203.125 15.625 1022
-140.625 179.688 864
218.75 31.25 1177
-54.6875 0 1038
-304.688 -195.312 1034
-273.438 -109.375 962
54.6875 179.688 906
-164.062 -39.0625 1028
-46.875 296.875 856
445.312 31.25 1090
-140.625 109.375 901
-117.188 -125 1161
-343.75 -320.312 1001
-140.625 132.812 898
-179.688 140.625 901
70.3125 7.8125 1038
-328.125 218.75 858
-296.875 -132.812 998
-15.625 -195.312 1241
39.0625 203.125 887
7.8125 375 956
-187.5 164.062 875
203.125 23.4375 1255
39.0625 171.875 908
-234.375 -93.75 943
-484.375 39.0625 978
-484.375 39.0625 978
-304.688 -187.5 1044
-492.188 15.625 995
210.938 0 1283
-195.312 -320.312 3092
-265.625 -85.9375 943
-335.938 -304.688 1016
62.5 117.188 946
-132.812 101.562 906
93.75 -171.875 1227
-218.75 -226.562 1268
62.5 15.625 1028
62.5 23.4375 1025
-117.188 -312.5 3120
-257.812 -187.5 1001
23.4375 320.312 869
-281.25 0 1025
-359.375 -210.938 1007
-367.188 -70.3125 887
-54.6875 101.562 951
-203.125 164.062 878
93.75 -164.062 1214
-46.875 -304.688 3120
101.562 -70.3125 1112
-109.375 132.812 918
78.125 -101.562 1138
-445.312 375 1338
-164.062 -140.625 1007
-289.062 375 946
78.125 -54.6875 1094
-289.062 -140.625 998
-281.25 -93.75 954
-367.188 62.5 967
132.812 242.188 1063
484.375 -54.6875 1013
-429.688 -265.625 1022
203.125 39.0625 1241
-351.562 23.4375 954
226.562 171.875 1126
-218.75 164.062 903
468.75 -23.4375 1044
-187.5 -93.75 954
-468.75 -390.625 2908
54.6875 70.3125 981
-296.875 -171.875 998
-421.875 -179.688 1041
-304.688 -179.688 1054
-70.3125 101.562 943
296.875 -234.375 984
46.875 148.438 925
-250 -125 1004
-476.562 -125 882
85.9375 -164.062 1219
-257.812 -195.312 998
-7.8125 406.25 935
-70.3125 335.938 910
-304.688 -140.625 992
-375 -187.5 1019
46.875 171.875 908
148.438 46.875 1227
-148.438 70.3125 918
-132.812 -210.938 1255
-132.812 78.125 908
31.25 320.312 873
-296.875 226.562 858
39.0625 273.438 841
445.312 23.4375 1087
-132.812 328.125 918
-7.8125 296.875 843
406.25 328.125 1004
-343.75 382.812 1579
-351.562 -203.125 1010
210.938 70.3125 1219
445.312 93.75 1210
-460.938 187.5 875
-281.25 -226.562 984
-328.125 -296.875 1019
31.25 218.75 875
-296.875 -148.438 995
62.5 39.0625 1010
-250 -132.812 1007
203.125 46.875 1236
62.5 46.875 1004
-273.438 7.8125 1022
-429.688 -164.062 1050
54.6875 132.812 935
109.375 -101.562 1141
70.3125 -7.8125 1050
-257.812 -179.688 1001
-289.062 226.562 858
-281.25 -296.875 1050
-398.438 390.625 1322
-398.438 390.625 1322
-281.25 -187.5 992
-359.375 -39.0625 908
-265.625 242.188 858
-429.688 -109.375 867
210.938 54.6875 1227
210.938 62.5 1219
-265.625 -125 1010
-242.188 -54.6875 951
54.6875 101.562 959
62.5 93.75 967
-289.062 -132.812 998
-484.375 -70.3125 882
54.6875 164.062 913
-257.812 -148.438 1007
-437.5 -125 878
335.938 93.75 1185
-359.375 31.25 964
-406.25 78.125 951
-281.25 -195.312 989
85.9375 -101.562 1138
31.25 -195.312 1250
-7.8125 -281.25 3178
-500 -78.125 873
93.75 -132.812 1173
-250 -140.625 1007
210.938 -7.8125 1288
-101.562 93.75 915
281.25 -156.25 1007
-179.688 -320.312 3120
-460.938 -328.125 3064
343.75 -62.5 1041
-132.812 148.438 906
62.5 109.375 954
46.875 156.25 920
-179.688 109.375 946
-351.562 -7.8125 938
-210.938 -93.75 948
-70.3125 -203.125 1250
39.0625 -281.25 3149
-382.812 398.438 1387
-54.6875 -304.688 3120
-437.5 -234.375 1025
-250 398.438 1586
226.562 -54.6875 1349
-78.125 -195.312 1241
492.188 -250 1038
453.125 7.8125 1073
-179.688 125 908
46.875 117.188 946
304.688 -156.25 984
-320.312 -218.75 1019
218.75 -46.875 1338
-429.688 0 938
62.5 54.6875 998
-375 -62.5 885
218.75 226.562 1084
-320.312 -210.938 1022
-101.562 54.6875 913
-265.625 -250 1060
-195.312 195.312 885
351.562 -54.6875 1044
-125 132.812 906
-250 -195.312 1007
-23.4375 296.875 851
-468.75 187.5 875
-281.25 -117.188 962
-195.312 -117.188 1034
-179.688 -117.188 967
-453.125 257.812 954
39.0625 -187.5 1241
62.5 328.125 992
31.25 242.188 862
93.75 -39.0625 1080
-414.062 -273.438 1010
-281.25 -125 1013
-304.688 -156.25 998
23.4375 289.062 839
-179.688 164.062 880
-117.188 54.6875 913
23.4375 296.875 841
-367.188 39.0625 970
-187.5 -218.75 1264
62.5 85.9375 970
-257.812 -328.125 3120
-257.812 234.375 856
-398.438 203.125 869
-187.5 -320.312 3120
-171.875 -39.0625 1025
-234.375 -93.75 943
-367.188 23.4375 954
-101.562 421.875 940
203.125 54.6875 1227
70.3125 62.5 992
-109.375 54.6875 913
445.312 62.5 1126
-109.375 -210.938 1255
-257.812 -171.875 1004
-421.875 -226.562 1010
-78.125 -203.125 1245
62.5 7.8125 1034
54.6875 171.875 908
23.4375 390.625 948
-117.188 132.812 908
78.125 -62.5 1097
-437.5 -320.312 1057
-359.375 382.812 1572
-164.062 195.312 887
-234.375 296.875 913
-429.688 -234.375 1019
-265.625 -164.062 998
-195.312 132.812 925
-140.625 117.188 898
-265.625 -210.938 987
492.188 -78.125 989
-429.688 -312.5 1054
-445.312 -78.125 873
-476.562 187.5 875
15.625 289.062 837
-109.375 289.062 867
23.4375 265.625 845
-304.688 -296.875 1031
460.938 -15.625 1047
85.9375 -179.688 1236
445.312 164.062 1145
-312.5 -125 987
23.4375 312.5 860
-492.188 179.688 878
62.5 -7.8125 1047
70.3125 54.6875 998
445.312 15.625 1084
-359.375 -31.25 913
-273.438 -281.25 1050
7.8125 453.125 1038
-289.062 -93.75 954
-281.25 -187.5 992
-164.062 54.6875 989
-296.875 -164.062 998
-125 109.375 908
-140.625 -210.938 1255
-359.375 46.875 975
-476.562 0 943
15.625 445.312 928
-445.312 -23.4375 920
-375 -101.562 867
-421.875 23.4375 956
70.3125 -62.5 1097
460.938 -7.8125 1060
85.9375 -31.25 1067
-304.688 -320.312 1047
-265.625 -257.812 1060
31.25 210.938 880
281.25 273.438 1044
-312.5 -203.125 1031
-476.562 46.875 975
-296.875 -62.5 1022
-164.062 62.5 984
-343.75 -226.562 1010
39.0625 164.062 915
-250 -117.188 1004
62.5 109.375 954
54.6875 93.75 967
-398.438 46.875 975
-218.75 406.25 943
-296.875 -312.5 1050
-265.625 -242.188 1060
-15.625 -195.312 1241
-484.375 39.0625 978
203.125 39.0625 1241
-273.438 -85.9375 954
203.125 23.4375 1255
-375 -39.0625 903
54.6875 132.812 935
320.312 132.812 1169
23.4375 281.25 839
70.3125 0 1044
54.6875 164.062 913
85.9375 -117.188 1157
78.125 -78.125 1115
-382.812 -257.812 1001
-117.188 70.3125 906
-367.188 234.375 882
-406.25 234.375 896
85.9375 -171.875 1223
-421.875 -257.812 1010
78.125 -117.188 1157
-421.875 -93.75 867
195.312 62.5 1219
-367.188 31.25 962
46.875 179.688 903
-210.938 93.75 956
39.0625 187.5 898
-187.5 109.375 946
-382.812 -132.812 891
210.938 15.625 1268
-93.75 140.625 906
203.125 15.625 1268
7.8125 -296.875 3149
-281.25 -171.875 995
-500 0 973
210.938 -15.625 1292
-257.812 -93.75 943
70.3125 -54.6875 1090
46.875 164.062 915
-390.625 351.562 962
-476.562 -54.6875 891
-210.938 179.688 891
78.125 -70.3125 1105
54.6875 54.6875 995
23.4375 304.688 845
-289.062 -23.4375 978
-117.188 140.625 923
46.875 109.375 954
39.0625 156.25 918
-179.688 187.5 889
39.0625 195.312 889
-367.188 -62.5 889
-109.375 257.812 847
-343.75 -156.25 1054
23.4375 296.875 841
-210.938 31.25 1001
312.5 140.625 1157
-15.625 281.25 841
62.5 31.25 1016
15.625 328.125 875
54.6875 156.25 920
-492.188 382.812 1219
-132.812 117.188 901
132.812 -85.9375 1365
78.125 -187.5 1245
-132.812 273.438 849
-359.375 -234.375 1004
-7.8125 398.438 938
-250 -125 1004
-375 -140.625 894
31.25 312.5 862
328.125 93.75 1185
-234.375 -93.75 943
-117.188 54.6875 913
-382.812 210.938 864
70.3125 -15.625 1057
-257.812 -164.062 1004
218.75 -31.25 1322
-257.812 -179.688 1001
-453.125 -31.25 910
54.6875 85.9375 970
-398.438 -140.625 894
-460.938 -109.375 867
-367.188 210.938 864
-335.938 -257.812 1007
31.25 257.812 851
85.9375 -109.375 1149
-320.312 -125 1141
-187.5 257.812 851
-367.188 -257.812 1001
70.3125 148.438 928
54.6875 125 940
-125 125 906
-414.062 93.75 938
179.688 -273.438 3092
-156.25 140.625 901
-187.5 93.75 930
-289.062 -304.688 1054
70.3125 46.875 1004
398.438 109.375 1189
382.812 -62.5 1019
-421.875 -304.688 1041
-265.625 -125 1010
-460.938 -375 2984
-359.375 -257.812 1001
46.875 132.812 935
-132.812 78.125 908
-492.188 23.4375 989
-296.875 -156.25 998
54.6875 62.5 989
-226.562 242.188 856
-179.688 -117.188 967
-484.375 -78.125 875
390.625 -54.6875 1028
23.4375 359.375 920
62.5 85.9375 970
-265.625 -210.938 987
39.0625 257.812 851
484.375 -62.5 1007
-375 -70.3125 880
203.125 31.25 1255
-187.5 164.062 875
78.125 335.938 989
46.875 140.625 933
-109.375 93.75 915
-359.375 -23.4375 918
414.062 78.125 1149
367.188 -46.875 1034
-226.562 250 858
-250 -93.75 943
-101.562 46.875 915
-273.438 390.625 943
-164.062 -93.75 967
85.9375 54.6875 995
85.9375 -125 1165
-351.562 15.625 951
-195.312 242.188 851
-429.688 195.312 871
-195.312 -101.562 954
-23.4375 281.25 839
375 -62.5 1028
-414.062 375 1338
492.188 78.125 1227
-257.812 -171.875 1004
-343.75 -195.312 1019
39.0625 265.625 845
226.562 -46.875 1338
-468.75 -429.688 2835
359.375 39.0625 1115
7.8125 367.188 959
-375 -164.062 1038
-171.875 101.562 910
46.875 171.875 908
-140.625 414.062 940
-351.562 46.875 975
-23.4375 -195.312 1250
-281.25 -179.688 995
7.8125 445.312 935
-265.625 -132.812 1007
-171.875 414.062 938
-257.812 -101.562 943
-367.188 -54.6875 894
39.0625 148.438 925
-406.25 46.875 975
429.688 54.6875 1119
-359.375 39.0625 970
-203.125 250 851
-351.562 0 943
171.875 320.312 1004
-257.812 -156.25 1004
-54.6875 -203.125 1250
15.625 320.312 867
476.562 -46.875 1019
-226.562 15.625 1019
-382.812 70.3125 959
-312.5 226.562 858
375 -46.875 1038
62.5 -15.625 1054
-304.688 -101.562 970
-382.812 -273.438 1001
-250 -117.188 1004
-437.5 -320.312 1057
-421.875 -156.25 1057
93.75 -156.25 1206
-140.625 156.25 903
132.812 -101.562 2744
46.875 125 943
62.5 78.125 978
-289.062 -195.312 989
-468.75 -382.812 2933
-367.188 414.062 1529
-242.188 -109.375 1001
-320.312 -273.438 1016
-335.938 414.062 1550
-429.688 -164.062 1050
62.5 101.562 959
-468.75 -70.3125 880
203.125 7.8125 1273
-70.3125 101.562 943
-171.875 148.438 896
-429.688 -23.4375 918
351.562 -62.5 1034
460.938 -23.4375 1044
85.9375 -179.688 1236
421.875 93.75 1153
-414.062 39.0625 973
-382.812 -250 1001
23.4375 273.438 841
-140.625 281.25 864
-390.625 -85.9375 867
-195.312 101.562 951
445.312 -7.8125 1057
54.6875 46.875 1007
54.6875 78.125 978
-359.375 -335.938 1050
54.6875 117.188 946
-390.625 -78.125 873
-109.375 85.9375 908
-445.312 -78.125 873
-289.062 -7.8125 1031
54.6875 156.25 920
70.3125 -78.125 1115
-187.5 -218.75 1264
421.875 62.5 1130
-296.875 -210.938 987
-109.375 421.875 935
-140.625 -210.938 1255
187.5 15.625 1264
-117.188 46.875 915
-164.062 187.5 869
-289.062 -62.5 956
-187.5 -109.375 956
-296.875 -281.25 1031
54.6875 148.438 925
-156.25 273.438 860
-281.25 -109.375 962
-382.812 273.438 943
-187.5 148.438 878
-148.438 -210.938 1255
226.562 -31.25 1123
62.5 117.188 946
-78.125 117.188 946
93.75 -171.875 1227
-78.125 -203.125 1245
-312.5 -148.438 998
-242.188 281.25 896
15.625 343.75 901
195.312 54.6875 1227
125 -281.25 3120
257.812 78.125 1193
-320.312 375 943
398.438 234.375 975
-187.5 101.562 933
85.9375 -132.812 1173
62.5 93.75 967
78.125 -125 1165
-62.5 -304.688 3120
195.312 46.875 1232
-218.75 171.875 898
70.3125 -23.4375 1063
-195.312 117.188 940
-218.75 156.25 910
23.4375 242.188 860
-484.375 390.625 1236
39.0625 -187.5 1241
210.938 -7.8125 1288
-351.562 7.8125 943
-437.5 -226.562 1028
-210.938 171.875 901
-406.25 203.125 869
70.3125 -7.8125 1050
-406.25 -304.688 1016
-382.812 -289.062 1007
-375 -93.75 867
-460.938 -367.188 2984
-265.625 234.375 858
-273.438 -257.812 1047
46.875 156.25 920
46.875 164.062 915
-375 -242.188 1001
-117.188 265.625 845
-445.312 -250 1041
437.5 156.25 1153
-195.312 -164.062 1038
-273.438 -273.438 1054
-195.312 132.812 925
-437.5 -70.3125 878
-414.062 -156.25 1060
343.75 335.938 998
-234.375 -85.9375 943
-320.312 -328.125 1025
273.438 85.9375 1206
39.0625 140.625 933
-281.25 234.375 858
156.25 39.0625 1236
-156.25 250 849
-375 -85.9375 869
-265.625 -210.938 987
-296.875 -93.75 962
218.75 -54.6875 1349
171.875 -273.438 3092
-335.938 218.75 860
226.562 -62.5 1354
226.562 -39.0625 1123
203.125 15.625 1268
-429.688 -289.062 1038
-437.5 -31.25 910
-203.125 -320.312 3120
70.3125 -289.062 3120
-171.875 117.188 903
78.125 -85.9375 1123
7.8125 -195.312 1250
210.938 23.4375 1181
62.5 62.5 992
-273.438 -85.9375 954
-437.5 -117.188 875
-453.125 359.375 1302
23.4375 289.062 839
70.3125 46.875 1004
234.375 -62.5 1354
-296.875 -242.188 1028
-242.188 421.875 1564
46.875 101.562 962
-148.438 257.812 849
-117.188 257.812 847
62.5 0 1041
-367.188 54.6875 973
-312.5 -101.562 978
281.25 85.9375 1197
-187.5 250 851
-289.062 -304.688 1054
-54.6875 281.25 841
-101.562 54.6875 913
-257.812 -109.375 1013
218.75 -46.875 1338
-187.5 156.25 875
-390.625 -117.188 873
203.125 70.3125 1214
-195.312 -101.562 954
-179.688 195.312 885
-140.625 429.688 1458
-398.438 78.125 954
15.625 351.562 910
-382.812 -54.6875 891
7.8125 382.812 951
453.125 0 1063
-109.375 62.5 906
-382.812 -125 875
-421.875 -187.5 1034
-195.312 -320.312 3092
0 289.062 837
-320.312 -132.812 998
-132.812 210.938 875
460.938 257.812 1067
-390.625 23.4375 954
23.4375 257.812 849
-257.812 -148.438 1007
-414.062 46.875 975
-296.875 -156.25 998
31.25 226.562 871
-398.438 -320.312 1010
460.938 -15.625 1047
-148.438 187.5 869
39.0625 171.875 908
-54.6875 273.438 841
-117.188 62.5 906
218.75 -39.0625 1333
78.125 7.8125 1034
70.3125 156.25 923
-93.75 132.812 906
273.438 -156.25 1022
-101.562 78.125 908
-203.125 242.188 851
-289.062 -234.375 1034
-234.375 117.188 935
460.938 117.188 1189
-273.438 -195.312 989
-218.75 -93.75 946
-304.688 -156.25 998
-367.188 218.75 864
-429.688 -171.875 1050
-375 218.75 867
210.938 -23.4375 1307
-164.062 257.812 849
-140.625 54.6875 915
484.375 -265.625 1050
-218.75 -226.562 1268
-179.688 -62.5 998
109.375 -62.5 1101
-476.562 -7.8125 935
-210.938 148.438 915
-257.812 -164.062 1004
7.8125 281.25 837
-390.625 -85.9375 867
492.188 -250 1038
62.5 70.3125 981
70.3125 -250 3149
218.75 -15.625 1302
-273.438 -117.188 1031
-109.375 281.25 854
-421.875 343.75 951
0 281.25 837
250 78.125 1197
23.4375 296.875 841
414.062 -156.25 940
-148.438 70.3125 918
-421.875 390.625 1338
-492.188 -70.3125 882
46.875 210.938 880
-117.188 -210.938 1255
460.938 140.625 1169
-468.75 -437.5 2859
15.625 273.438 841
-320.312 -109.375 978
-257.812 -156.25 1004
-179.688 132.812 903
15.625 335.938 885
62.5 109.375 954
335.938 -62.5 1041
54.6875 70.3125 981
390.625 328.125 1004
-382.812 -109.375 869
7.8125 414.062 930
-54.6875 -304.688 3120
39.0625 179.688 903
-156.25 -171.875 1210
437.5 23.4375 1090
-281.25 -210.938 984
93.75 -70.3125 1108
31.25 304.688 849
437.5 31.25 1097
-148.438 414.062 946
-195.312 -218.75 1264
85.9375 -140.625 1185
476.562 -15.625 1047
-179.688 156.25 882
398.438 93.75 1169
-500 7.8125 967
-375 0 935
-367.188 -226.562 1004
-281.25 -164.062 998
-187.5 7.8125 1028
-171.875 -148.438 1025
62.5 -289.062 3149
445.312 15.625 1084
-304.688 -304.688 1034
-234.375 -93.75 943
-164.062 421.875 1458
-328.125 -234.375 1013
-421.875 -218.75 1019
-468.75 187.5 875
31.25 203.125 887
437.5 7.8125 1077
-117.188 109.375 913
70.3125 -85.9375 1123
-125 -312.5 3120
-406.25 375 1338
15.625 304.688 847
78.125 -78.125 1115
-359.375 -312.5 1001
39.0625 250 858
445.312 7.8125 1073
-281.25 -203.125 987
54.6875 109.375 956
54.6875 148.438 925
429.688 46.875 1112
-492.188 31.25 984
-218.75 31.25 1004
-125 140.625 906
-148.438 429.688 1452
-359.375 -23.4375 918
-359.375 -15.625 923
-304.688 226.562 858
-85.9375 -203.125 1245
-304.688 -148.438 992
-460.938 -23.4375 918
-445.312 -125 880
54.6875 140.625 933
-476.562 -296.875 3149
-179.688 85.9375 925
-164.062 101.562 906
7.8125 351.562 910
0 -195.312 1250
-101.562 265.625 845
31.25 242.188 862
62.5 85.9375 970
-234.375 -226.562 1268
-414.062 31.25 964
-437.5 -117.188 875
-171.875 85.9375 928
62.5 93.75 967
-132.812 132.812 901
-296.875 414.062 1516
31.25 187.5 898
468.75 -31.25 1041
-281.25 -242.188 1047
-265.625 -203.125 989
-164.062 164.062 869
-351.562 7.8125 954
-23.4375 -195.312 1245
-429.688 -265.625 1016
-390.625 -93.75 867
-335.938 -250 1007
31.25 195.312 891
-195.312 140.625 887
-296.875 -93.75 954
-117.188 117.188 918
-460.938 257.812 959
-429.688 -179.688 1041
-281.25 -296.875 1063
492.188 -78.125 992
31.25 179.688 903
-335.938 -289.062 1016
-382.812 -117.188 875
70.3125 -31.25 1067
-179.688 179.688 871
93.75 -85.9375 1119
-453.125 -320.312 1060
0 -296.875 3149
437.5 46.875 1115
-312.5 -125 992
-140.625 78.125 910
23.4375 281.25 839
492.188 -242.188 1019
39.0625 132.812 935
-484.375 187.5 875
476.562 -46.875 1019
46.875 148.438 925
-367.188 -54.6875 906
15.625 289.062 837
-140.625 101.562 908
-398.438 351.562 956
210.938 -15.625 1297
70.3125 39.0625 1013
46.875 203.125 887
-93.75 265.625 843
-312.5 -109.375 973
-140.625 -312.5 3120
-273.438 -218.75 981
-289.062 -187.5 992
117.188 -281.25 3120
7.8125 453.125 938
-437.5 -70.3125 878
31.25 218.75 875
-312.5 -304.688 1034
54.6875 117.188 946
125 -85.9375 1359
-93.75 281.25 849
-156.25 70.3125 915
203.125 7.8125 1273
-242.188 -101.562 1001
78.125 -93.75 1134
-445.312 -109.375 869
-375 -78.125 878
-296.875 -15.625 1038
-320.312 -117.188 989
-171.875 101.562 908
421.875 62.5 1134
-187.5 -156.25 1031
320.312 140.625 1157
46.875 156.25 918
-171.875 414.062 940
-265.625 -195.312 998
-187.5 -23.4375 1034
375 156.25 1145
218.75 -23.4375 1126
-140.625 148.438 906
218.75 70.3125 1219
-367.188 -46.875 906
-468.75 -85.9375 871
62.5 15.625 1028
468.75 62.5 1245
85.9375 -132.812 1173
-179.688 -125 975
-210.938 421.875 1496
-109.375 140.625 915
-117.188 140.625 925
-218.75 -93.75 951
-351.562 -312.5 1004
148.438 171.875 1119
-359.375 398.438 1572
-312.5 -117.188 989
-367.188 -218.75 1007
429.688 132.812 1173
62.5 23.4375 1022
-320.312 -140.625 1153
-445.312 -78.125 873
23.4375 250 854
-15.625 -179.688 1223
-226.562 140.625 923
-281.25 -289.062 1057
15.625 320.312 864
-492.188 -117.188 873
-265.625 -148.438 1001
46.875 195.312 889
-117.188 54.6875 913
31.25 210.938 880
-468.75 -421.875 2859
-390.625 -242.188 1001
-78.125 273.438 843
39.0625 187.5 898
54.6875 109.375 956
-140.625 62.5 910
-132.812 179.688 898
54.6875 62.5 989
195.312 39.0625 1236
-195.312 125 933
-289.062 -125 1007
54.6875 140.625 933
-195.312 437.5 1483
85.9375 -125 1169
351.562 -171.875 956
-437.5 -265.625 1022
-484.375 -78.125 878
-359.375 -250 1001
-500 179.688 878
-39.0625 289.062 845
-320.312 -312.5 1034
-375 -85.9375 875
-78.125 0 1038
335.938 -125 989
23.4375 234.375 867
-375 31.25 962
460.938 -15.625 1050
54.6875 39.0625 1013
-421.875 46.875 975
492.188 -85.9375 984
-54.6875 289.062 845
-367.188 -70.3125 896
-101.562 85.9375 913
-382.812 62.5 964
-437.5 203.125 873
39.0625 164.062 915
-101.562 148.438 918
15.625 328.125 875
62.5 62.5 989
-453.125 -31.25 913
-226.562 -226.562 1268
31.25 289.062 837
-132.812 171.875 906
351.562 289.062 1016
-148.438 -210.938 1259
-179.688 -46.875 1025
85.9375 -46.875 1084
-125 265.625 845
460.938 125 1181
15.625 -296.875 3149
-132.812 125 903
-421.875 -210.938 1019
15.625 296.875 839
-367.188 210.938 867
414.062 78.125 1141
343.75 62.5 1141
39.0625 125 943
218.75 -54.6875 1349
-445.312 -125 880
437.5 31.25 1097
-109.375 85.9375 913
-195.312 250 851
-281.25 -218.75 984
62.5 70.3125 981
445.312 250 1070
70.3125 -39.0625 1077
-78.125 156.25 918
31.25 343.75 915
62.5 85.9375 970
93.75 -164.062 1214
234.375 70.3125 1206
-445.312 195.312 873
46.875 117.188 946
-265.625 -93.75 940
-437.5 -210.938 1028
-273.438 -187.5 992
-164.062 203.125 880
-179.688 -85.9375 967
398.438 328.125 1004
-156.25 101.562 906
-312.5 328.125 954
375 414.062 943
62.5 78.125 978
54.6875 70.3125 981
-296.875 -148.438 998
-375 210.938 867
-164.062 156.25 878
-257.812 -140.625 1001
406.25 93.75 1161
-257.812 -101.562 946
-367.188 -304.688 1004
343.75 -54.6875 1044
78.125 -140.625 1185
-406.25 -320.312 1025
23.4375 273.438 841
437.5 62.5 1126
-453.125 -328.125 1060
-468.75 -23.4375 918
187.5 453.125 918
-359.375 -242.188 1004
218.75 -265.625 3064
-492.188 -78.125 873
-218.75 -171.875 1038
-187.5 -109.375 970
210.938 7.8125 1157
-265.625 -203.125 989
171.875 -78.125 1359
203.125 54.6875 1227
-320.312 -265.625 1016
-195.312 187.5 889
-218.75 414.062 1496
-304.688 -132.812 995
-359.375 31.25 962
-296.875 -304.688 1047
-93.75 101.562 940
-101.562 156.25 915
484.375 -62.5 1007
-367.188 -242.188 1001
-335.938 -242.188 1010
-320.312 -140.625 1153
289.062 -210.938 970
54.6875 101.562 959
429.688 46.875 1112
484.375 -46.875 1016
62.5 7.8125 1034
429.688 39.0625 1108
-390.625 7.8125 943
-210.938 -320.312 3149
-382.812 -46.875 896
85.9375 -117.188 1157
-359.375 -117.188 891
7.8125 453.125 938
203.125 0 1283
-265.625 -117.188 1013
382.812 265.625 984
46.875 148.438 925
-93.75 398.438 933
-117.188 421.875 933
-453.125 0 935
-304.688 234.375 858
210.938 -23.4375 1307
54.6875 31.25 1016
-289.062 -226.562 1047
-257.812 -148.438 1001
-390.625 -70.3125 878
-179.688 -132.812 1034
