ply
format ascii 1.0
comment Created by Open3D
element vertex 2337
property double x
property double y
property double z
end_header
-226.562 46.875 1177
445.312 125 1138
-257.812 273.438 1232
414.062 421.875 1381
320.312 343.75 1381
414.062 429.688 1381
304.688 179.688 1161
367.188 335.938 1398
-171.875 367.188 1349
-85.9375 -203.125 1264
-281.25 367.188 1343
-46.875 429.688 1586
398.438 429.688 1381
187.5 39.0625 1149
101.562 203.125 1794
492.188 328.125 1433
-85.9375 62.5 1157
-437.5 -46.875 1312
-445.312 -46.875 1317
203.125 39.0625 1149
-390.625 0 1169
296.875 234.375 1181
54.6875 359.375 1579
-273.438 359.375 1273
476.562 382.812 1410
414.062 437.5 1365
78.125 -93.75 1119
-304.688 -78.125 1227
-15.625 359.375 1776
54.6875 406.25 1509
0 -93.75 1130
-46.875 54.6875 1173
179.688 39.0625 1149
-257.812 179.688 1210
140.625 375 1529
289.062 -85.9375 1115
281.25 46.875 1145
218.75 328.125 1381
156.25 39.0625 1153
-7.8125 414.062 1509
-343.75 375 1333
164.062 85.9375 1123
0 359.375 1776
-367.188 -132.812 1445
320.312 289.062 1193
-242.188 70.3125 1134
-281.25 382.812 1322
187.5 437.5 1579
304.688 382.812 1343
117.188 -148.438 1232
-437.5 -31.25 1302
15.625 359.375 1609
-445.312 -31.25 1317
-257.812 281.25 1241
-406.25 179.688 1202
-187.5 406.25 1328
-234.375 359.375 1288
312.5 140.625 1157
281.25 54.6875 1145
398.438 101.562 1108
-343.75 -46.875 1177
-296.875 -85.9375 1153
-234.375 46.875 1181
-156.25 -250 1250
-265.625 320.312 1255
312.5 85.9375 1123
242.188 85.9375 1123
390.625 85.9375 1123
-242.188 406.25 1288
-414.062 359.375 1317
7.8125 -93.75 1130
-226.562 289.062 1302
-171.875 -93.75 1145
187.5 85.9375 1126
-93.75 -273.438 1245
140.625 398.438 1509
468.75 398.438 1415
70.3125 -140.625 1376
-70.3125 -164.062 1283
210.938 39.0625 1149
-359.375 62.5 1138
203.125 85.9375 1123
335.938 85.9375 1126
-7.8125 -93.75 1134
-296.875 375 1322
117.188 85.9375 1119
265.625 414.062 1255
281.25 312.5 1223
281.25 343.75 1197
-406.25 39.0625 1185
101.562 421.875 1421
-382.812 -101.562 1193
304.688 7.8125 1138
117.188 156.25 1181
-125 -164.062 1278
-109.375 375 1748
-296.875 343.75 1387
39.0625 -218.75 1328
148.438 406.25 1496
-328.125 -109.375 1227
125 -117.188 1173
265.625 -78.125 1115
304.688 289.062 1193
-335.938 375 1322
-351.562 62.5 1138
273.438 359.375 1236
-257.812 351.562 1268
-101.562 101.562 1134
-273.438 328.125 1259
7.8125 70.3125 1149
-39.0625 -265.625 1250
-273.438 148.438 1185
468.75 312.5 1193
-273.438 171.875 1193
429.688 125 1130
429.688 351.562 1410
226.562 406.25 1302
460.938 125 1130
304.688 164.062 1157
304.688 31.25 1149
-382.812 -39.0625 1165
109.375 54.6875 1153
109.375 195.312 1804
265.625 265.625 1193
-164.062 46.875 1177
-265.625 343.75 1268
328.125 85.9375 1130
93.75 421.875 1421
-171.875 -242.188 1255
257.812 257.812 1219
281.25 226.562 1181
-109.375 -226.562 1259
-257.812 195.312 1210
-265.625 7.8125 1165
492.188 101.562 1101
484.375 398.438 1415
375 328.125 1404
-78.125 54.6875 1173
39.0625 54.6875 1161
406.25 -23.4375 1489
312.5 328.125 1404
421.875 -187.5 1439
312.5 -23.4375 1130
-359.375 -62.5 1173
-484.375 367.188 1328
265.625 406.25 1250
257.812 445.312 1259
-390.625 -62.5 1185
23.4375 351.562 1873
-484.375 -117.188 2859
-421.875 195.312 1206
-156.25 257.812 1863
484.375 406.25 1410
-289.062 242.188 1214
-125 -250 1250
-390.625 -93.75 1202
296.875 39.0625 1149
273.438 351.562 1232
328.125 437.5 1343
296.875 257.812 1189
101.562 265.625 1833
265.625 85.9375 1123
-437.5 250 1223
343.75 -85.9375 1509
-281.25 -62.5 1145
445.312 195.312 1161
0 62.5 1173
468.75 -296.875 3120
289.062 375 1354
109.375 -85.9375 1123
-421.875 -15.625 1181
54.6875 343.75 1873
-132.812 54.6875 1181
406.25 406.25 1421
226.562 257.812 1410
-273.438 -46.875 1149
-382.812 7.8125 1169
-429.688 -78.125 1278
-289.062 -78.125 1145
304.688 187.5 1169
-54.6875 -93.75 1126
-335.938 367.188 1333
101.562 257.812 1823
234.375 70.3125 1169
-265.625 0 1161
-320.312 -54.6875 1193
-109.375 54.6875 1185
406.25 414.062 1415
109.375 164.062 1757
-343.75 359.375 1349
-31.25 -218.75 1370
-195.312 382.812 1333
414.062 414.062 1415
70.3125 414.062 1439
429.688 429.688 1387
234.375 335.938 1255
-351.562 -93.75 1193
-445.312 -39.0625 1317
-7.8125 328.125 1883
-195.312 375 1333
-203.125 421.875 1328
-359.375 367.188 1328
273.438 296.875 1197
-367.188 -15.625 1161
351.562 367.188 1349
406.25 -296.875 1410
-265.625 234.375 1210
-85.9375 -273.438 1245
-351.562 -7.8125 1165
93.75 273.438 1833
0 54.6875 1165
-351.562 375 1328
375 335.938 1404
-125 54.6875 1181
312.5 148.438 1157
85.9375 54.6875 1157
398.438 421.875 1381
359.375 132.812 1153
-85.9375 78.125 1130
-265.625 242.188 1210
-117.188 54.6875 1181
-250 250 1241
-398.438 -31.25 1177
429.688 -296.875 1415
-429.688 250 1223
-257.812 335.938 1264
484.375 382.812 1365
195.312 85.9375 1126
-242.188 414.062 1288
-273.438 367.188 1268
289.062 414.062 1349
390.625 351.562 1404
250 -85.9375 1119
-328.125 273.438 1227
-156.25 -242.188 1255
195.312 39.0625 1149
273.438 367.188 1241
-242.188 46.875 1177
-382.812 31.25 1193
-15.625 -234.375 1421
265.625 250 1193
-62.5 -117.188 1283
-70.3125 -156.25 1283
234.375 289.062 1278
-156.25 -265.625 1250
476.562 421.875 1349
328.125 429.688 1307
312.5 406.25 1333
289.062 289.062 1193
460.938 421.875 1376
-39.0625 406.25 1663
-273.438 140.625 1185
476.562 85.9375 1130
257.812 367.188 1241
-242.188 406.25 1288
265.625 281.25 1197
-296.875 85.9375 1138
273.438 437.5 1359
484.375 390.625 1415
-7.8125 -234.375 1421
-367.188 31.25 1214
-414.062 31.25 1177
164.062 -148.438 1245
382.812 335.938 1404
-265.625 23.4375 1169
492.188 210.938 1157
289.062 85.9375 1126
476.562 -85.9375 1452
-351.562 296.875 1470
-234.375 343.75 1292
421.875 125 1138
-375 -109.375 1214
343.75 125 1141
304.688 23.4375 1145
-273.438 335.938 1259
23.4375 359.375 1609
-257.812 187.5 1210
140.625 -140.625 1165
-132.812 -93.75 1141
406.25 343.75 1433
140.625 -125 1165
335.938 -31.25 1529
320.312 421.875 1312
-445.312 -31.25 1317
31.25 359.375 1616
-234.375 335.938 1297
-85.9375 -171.875 1273
-390.625 -132.812 1421
468.75 429.688 1354
-156.25 -187.5 1268
-156.25 -257.812 1250
453.125 -23.4375 1477
-85.9375 -132.812 1288
101.562 242.188 1813
-343.75 -31.25 1169
117.188 382.812 1550
335.938 437.5 1343
93.75 296.875 1843
304.688 203.125 1173
-46.875 -273.438 1250
31.25 343.75 1883
31.25 132.812 1165
218.75 -164.062 3399
-242.188 343.75 1268
132.812 390.625 1529
-226.562 343.75 1328
429.688 218.75 1157
-31.25 328.125 1873
265.625 382.812 1250
-54.6875 54.6875 1173
54.6875 54.6875 1157
304.688 421.875 1322
476.562 281.25 1189
148.438 39.0625 1149
-265.625 15.625 1165
453.125 -140.625 1439
-242.188 281.25 1250
-265.625 226.562 1210
-15.625 54.6875 1169
-93.75 101.562 1130
-132.812 -140.625 1283
-281.25 328.125 1259
398.438 406.25 1421
335.938 406.25 1328
-156.25 -226.562 1255
179.688 39.0625 1149
-390.625 -7.8125 1165
-234.375 351.562 1283
70.3125 -234.375 1338
54.6875 406.25 1509
406.25 429.688 1376
-335.938 343.75 1387
281.25 398.438 1349
-234.375 367.188 1288
117.188 164.062 1181
164.062 39.0625 1149
-23.4375 -250 1415
375 304.688 1193
-320.312 109.375 1181
-343.75 -132.812 1219
-226.562 406.25 1288
468.75 414.062 1349
265.625 414.062 1255
62.5 328.125 1853
375 398.438 1343
-210.938 54.6875 1165
242.188 -85.9375 1115
7.8125 359.375 1601
257.812 62.5 1177
-265.625 359.375 1273
-273.438 179.688 1193
367.188 320.312 1483
242.188 39.0625 1145
93.75 265.625 1833
-265.625 7.8125 1165
-148.438 -117.188 1278
-78.125 421.875 1616
382.812 375 1365
31.25 -195.312 1328
-406.25 101.562 1185
0 0 1149
281.25 62.5 1177
304.688 15.625 1141
101.562 54.6875 1153
296.875 296.875 1193
421.875 382.812 1427
179.688 -78.125 1123
492.188 -289.062 1415
437.5 -23.4375 1477
171.875 70.3125 1157
-289.062 7.8125 1169
312.5 437.5 1343
-109.375 -93.75 1141
375 406.25 1354
-140.625 -117.188 1278
-265.625 0 1161
-117.188 -242.188 1255
390.625 429.688 1381
304.688 296.875 1197
-273.438 132.812 1181
-117.188 -257.812 1250
406.25 125 1138
312.5 429.688 1317
414.062 125 1138
492.188 195.312 1157
-382.812 328.125 1410
-187.5 406.25 1328
-296.875 296.875 1503
-359.375 -78.125 1189
-437.5 -62.5 1322
406.25 421.875 1376
421.875 281.25 1185
-70.3125 78.125 1130
109.375 203.125 1804
296.875 242.188 1185
-250 343.75 1264
-351.562 351.562 1365
265.625 429.688 1259
125 367.188 1766
-406.25 31.25 1177
-414.062 23.4375 1173
398.438 390.625 1458
281.25 -78.125 1119
437.5 304.688 1189
234.375 -78.125 1119
31.25 351.562 1883
351.562 -31.25 1516
476.562 390.625 1415
-265.625 39.0625 1177
-85.9375 382.812 1722
-328.125 367.188 1328
351.562 343.75 1392
398.438 -31.25 1489
156.25 39.0625 1153
-382.812 -93.75 1189
62.5 382.812 1564
-367.188 -31.25 1169
85.9375 296.875 1853
-250 406.25 1288
-46.875 -218.75 1264
320.312 429.688 1312
101.562 -132.812 1177
109.375 421.875 1421
-85.9375 -210.938 1264
195.312 -78.125 1123
-367.188 -23.4375 1165
-414.062 -62.5 1255
289.062 429.688 1354
-78.125 54.6875 1173
304.688 210.938 1173
-265.625 218.75 1206
390.625 414.062 1415
390.625 -296.875 1421
132.812 -125 1165
-250 265.625 1227
-164.062 -93.75 1145
101.562 203.125 1794
335.938 335.938 1387
281.25 320.312 1223
-250 171.875 1250
-93.75 -132.812 1283
140.625 -93.75 1123
-156.25 -250 1250
-281.25 234.375 1210
-156.25 -250 1250
-70.3125 -132.812 1288
382.812 390.625 1338
-273.438 265.625 1219
-203.125 304.688 1410
445.312 -23.4375 1477
-304.688 265.625 1219
-265.625 351.562 1273
-382.812 -15.625 1165
-414.062 -85.9375 1241
-31.25 54.6875 1173
140.625 39.0625 1149
-273.438 304.688 1259
-281.25 -39.0625 1145
421.875 -296.875 1415
171.875 39.0625 1149
-31.25 398.438 1688
460.938 398.438 1415
-359.375 -15.625 1161
445.312 398.438 1415
406.25 382.812 1452
93.75 54.6875 1157
398.438 437.5 1370
468.75 273.438 1185
-406.25 -31.25 1177
-203.125 250 1433
273.438 367.188 1241
-101.562 -93.75 1141
156.25 390.625 1713
-101.562 -171.875 1273
-390.625 -15.625 1169
-414.062 -15.625 1181
-273.438 320.312 1255
46.875 54.6875 1161
390.625 359.375 1410
351.562 437.5 1359
156.25 70.3125 1157
484.375 328.125 1427
304.688 0 1138
281.25 414.062 1354
304.688 187.5 1169
-375 101.562 1181
-140.625 -156.25 1273
421.875 -23.4375 1489
-296.875 117.188 1181
-132.812 -148.438 1278
-132.812 -273.438 1250
31.25 54.6875 1161
-78.125 101.562 1130
93.75 273.438 1833
-429.688 320.312 1404
-265.625 -7.8125 1161
-23.4375 54.6875 1173
-78.125 -250 1255
-7.8125 54.6875 1165
437.5 132.812 1145
-85.9375 54.6875 1173
-156.25 390.625 1688
70.3125 70.3125 1149
375 390.625 1343
70.3125 414.062 1439
375 125 1134
-70.3125 -242.188 1259
304.688 429.688 1322
-406.25 -54.6875 1193
-117.188 -156.25 1278
390.625 343.75 1464
304.688 218.75 1173
-70.3125 -23.4375 1145
398.438 125 1141
320.312 320.312 1404
281.25 328.125 1197
-265.625 242.188 1210
-210.938 242.188 1398
-23.4375 328.125 1883
460.938 414.062 1415
460.938 429.688 1376
-273.438 375 1278
273.438 85.9375 1123
23.4375 54.6875 1161
78.125 54.6875 1153
117.188 421.875 1464
328.125 125 1153
39.0625 54.6875 1161
-31.25 421.875 1632
421.875 320.312 1433
367.188 125 1145
-437.5 -7.8125 1312
-445.312 -46.875 1317
-304.688 -93.75 1223
132.812 39.0625 1149
109.375 39.0625 1149
-398.438 320.312 1421
414.062 382.812 1433
-289.062 359.375 1370
312.5 -54.6875 1126
445.312 242.188 1173
320.312 85.9375 1126
-414.062 15.625 1169
390.625 421.875 1381
-70.3125 -218.75 1264
39.0625 320.312 1873
476.562 -296.875 3149
23.4375 351.562 1873
148.438 39.0625 1149
273.438 375 1365
101.562 421.875 1421
-85.9375 -257.812 1245
-320.312 335.938 1404
-46.875 -210.938 1268
-406.25 -39.0625 1189
-218.75 46.875 1173
468.75 132.812 1141
-343.75 109.375 1181
-7.8125 359.375 1776
-390.625 -31.25 1169
-117.188 -93.75 1145
-414.062 23.4375 1173
-429.688 -70.3125 1278
-109.375 -226.562 1259
7.8125 54.6875 1169
-429.688 23.4375 1177
335.938 343.75 1381
0 54.6875 1165
-257.812 375 1273
203.125 54.6875 1153
351.562 -187.5 1477
-429.688 351.562 1333
-265.625 375 1278
367.188 320.312 1483
7.8125 234.375 1833
-296.875 -23.4375 1202
-31.25 406.25 1516
-257.812 148.438 1210
-39.0625 -93.75 1119
-429.688 335.938 1370
101.562 265.625 1833
343.75 140.625 1157
414.062 359.375 1427
132.812 367.188 1766
-359.375 -70.3125 1245
289.062 -85.9375 1115
257.812 7.8125 1138
312.5 320.312 1427
296.875 429.688 1349
-234.375 54.6875 1157
164.062 70.3125 1157
-367.188 -39.0625 1169
-250 46.875 1177
140.625 70.3125 1161
156.25 406.25 1496
359.375 -226.562 1458
62.5 70.3125 1149
-39.0625 -226.562 1376
-375 234.375 1219
-156.25 -250 1250
109.375 164.062 1757
-390.625 312.5 1445
476.562 375 1410
117.188 164.062 1181
-445.312 -54.6875 1322
382.812 125 1145
304.688 46.875 1149
-398.438 164.062 1197
-15.625 101.562 1126
343.75 437.5 1343
-390.625 351.562 1349
-414.062 7.8125 1169
281.25 -85.9375 1119
-265.625 46.875 1181
-101.562 375 1748
-390.625 -23.4375 1169
-320.312 351.562 1370
312.5 156.25 1157
187.5 39.0625 1149
359.375 125 1145
-289.062 7.8125 1169
-304.688 -78.125 1227
125 39.0625 1149
-93.75 -93.75 1138
335.938 125 1153
-289.062 7.8125 1169
343.75 85.9375 1130
-242.188 398.438 1283
-492.188 312.5 1268
-226.562 398.438 1328
-265.625 0 1161
-265.625 210.938 1206
398.438 85.9375 1123
101.562 210.938 1804
296.875 46.875 1149
312.5 -23.4375 1130
-390.625 -7.8125 1165
-7.8125 421.875 1489
-70.3125 -195.312 1268
335.938 382.812 1338
414.062 312.5 1193
-437.5 343.75 1365
-273.438 289.062 1255
-54.6875 -195.312 1268
-187.5 -93.75 1149
421.875 343.75 1415
-390.625 289.062 1503
0 -242.188 1421
-359.375 -101.562 1202
-273.438 125 1177
93.75 421.875 1421
-335.938 62.5 1138
-343.75 62.5 1138
-31.25 414.062 1523
148.438 406.25 1496
351.562 85.9375 1123
-31.25 390.625 1705
-312.5 -132.812 1259
-54.6875 -203.125 1268
-375 -125 1202
-335.938 375 1322
101.562 273.438 1843
117.188 140.625 1169
-273.438 234.375 1210
132.812 382.812 1529
-257.812 343.75 1264
281.25 367.188 1359
-414.062 -101.562 1232
-375 257.812 1223
-289.062 343.75 1392
-406.25 343.75 1359
-390.625 -85.9375 1197
-117.188 -226.562 1259
109.375 359.375 1564
398.438 281.25 1185
-414.062 -54.6875 1250
101.562 39.0625 1149
-398.438 171.875 1202
109.375 171.875 1776
203.125 -70.3125 1123
-304.688 109.375 1177
132.812 54.6875 1153
312.5 421.875 1317
148.438 -156.25 1241
-62.5 -273.438 1255
-359.375 234.375 1219
15.625 54.6875 1165
-382.812 351.562 1354
109.375 54.6875 1153
312.5 -54.6875 1126
-164.062 101.562 1149
-273.438 117.188 1177
320.312 437.5 1338
-460.938 54.6875 1141
-203.125 46.875 1177
-85.9375 -289.062 1458
304.688 414.062 1333
304.688 195.312 1173
-320.312 -85.9375 1214
-46.875 -203.125 1268
117.188 -140.625 1210
117.188 39.0625 1149
390.625 406.25 1421
273.438 -85.9375 1115
250 -54.6875 1123
312.5 164.062 1157
-437.5 -15.625 1302
-265.625 367.188 1268
312.5 -7.8125 1138
-281.25 320.312 1255
15.625 -93.75 1123
390.625 281.25 1189
-54.6875 78.125 1130
351.562 -179.688 1477
-273.438 351.562 1273
265.625 437.5 1259
-101.562 54.6875 1181
-437.5 328.125 1404
-398.438 367.188 1322
-257.812 164.062 1214
484.375 101.562 1105
-15.625 328.125 1883
-257.812 140.625 1210
312.5 -15.625 1134
281.25 429.688 1359
312.5 -46.875 1123
-421.875 -70.3125 1259
-351.562 46.875 1177
390.625 367.188 1381
-367.188 281.25 1529
312.5 -39.0625 1123
203.125 281.25 1550
-15.625 -257.812 1404
-23.4375 -257.812 1410
476.562 195.312 1165
281.25 328.125 1197
-70.3125 382.812 1731
-242.188 398.438 1283
-304.688 -70.3125 1223
39.0625 343.75 1883
93.75 39.0625 1149
382.812 281.25 1189
195.312 -85.9375 1123
132.812 -117.188 1165
-265.625 335.938 1268
-296.875 -39.0625 1145
257.812 -140.625 3300
62.5 -140.625 1376
226.562 140.625 1161
281.25 242.188 1185
-85.9375 -210.938 1264
-257.812 132.812 1206
140.625 398.438 1509
140.625 39.0625 1149
242.188 -78.125 1119
-312.5 265.625 1219
-382.812 335.938 1392
-250 328.125 1264
281.25 39.0625 1145
-156.25 -93.75 1145
-343.75 -7.8125 1169
312.5 -31.25 1130
296.875 -85.9375 1115
382.812 421.875 1392
54.6875 382.812 1550
70.3125 54.6875 1153
-242.188 296.875 1259
-273.438 109.375 1177
296.875 265.625 1189
148.438 54.6875 1153
-46.875 328.125 1873
-273.438 218.75 1206
-281.25 39.0625 1189
484.375 250 1177
304.688 421.875 1322
-414.062 -171.875 3300
15.625 62.5 1177
484.375 -289.062 1404
-242.188 250 1268
125 54.6875 1153
164.062 39.0625 1149
468.75 421.875 1349
351.562 148.438 1157
93.75 296.875 1843
-46.875 437.5 1579
296.875 257.812 1189
54.6875 54.6875 1157
390.625 125 1145
-140.625 -242.188 1250
375 421.875 1387
-78.125 -218.75 1264
-390.625 -70.3125 1189
-273.438 148.438 1185
117.188 -109.375 1181
-343.75 -109.375 1227
-70.3125 54.6875 1173
-23.4375 359.375 1776
-273.438 382.812 1317
-218.75 70.3125 1130
-281.25 304.688 1259
-257.812 367.188 1273
125 -109.375 1173
-265.625 203.125 1202
351.562 328.125 1387
453.125 -195.312 1433
-15.625 54.6875 1169
-218.75 203.125 1392
398.438 421.875 1381
320.312 125 1145
-78.125 390.625 1713
257.812 -85.9375 1119
-429.688 359.375 1322
-85.9375 343.75 1804
210.938 148.438 1185
156.25 -117.188 1165
453.125 390.625 1410
-257.812 335.938 1264
109.375 195.312 1804
-289.062 289.062 1543
93.75 281.25 1843
-437.5 320.312 1404
-390.625 -15.625 1169
210.938 226.562 1516
-414.062 -195.312 3333
265.625 -78.125 1115
-265.625 -46.875 1145
140.625 -109.375 1165
-242.188 242.188 1268
-85.9375 -148.438 1283
210.938 -78.125 1119
-187.5 406.25 1328
-312.5 -101.562 1219
-375 -23.4375 1165
-375 7.8125 1165
-85.9375 -281.25 1452
-195.312 46.875 1181
406.25 390.625 1452
-328.125 -93.75 1210
-7.8125 406.25 1536
-289.062 0 1161
414.062 281.25 1185
-367.188 46.875 1165
351.562 125 1119
406.25 281.25 1185
-62.5 78.125 1130
156.25 -156.25 1245
375 359.375 1370
132.812 -164.062 1250
343.75 343.75 1387
-273.438 281.25 1255
78.125 390.625 1564
414.062 398.438 1433
117.188 39.0625 1149
125 -140.625 1210
-320.312 -93.75 1214
406.25 257.812 1181
125 421.875 1458
281.25 406.25 1354
-203.125 257.812 1477
390.625 289.062 1189
109.375 203.125 1804
54.6875 328.125 1863
-257.812 359.375 1273
-195.312 414.062 1322
289.062 148.438 1157
-93.75 328.125 1873
343.75 -39.0625 1523
-328.125 335.938 1404
-39.0625 54.6875 1169
-54.6875 -148.438 1283
-250 351.562 1268
226.562 375 1292
-31.25 429.688 1601
-234.375 312.5 1292
109.375 421.875 1421
312.5 0 1138
164.062 -125 1227
-492.188 242.188 1232
281.25 46.875 1145
-70.3125 429.688 1601
-406.25 -31.25 1177
382.812 406.25 1343
-335.938 328.125 1427
-296.875 351.562 1370
-273.438 171.875 1193
-414.062 15.625 1169
-265.625 226.562 1210
-101.562 -171.875 1273
31.25 62.5 1177
289.062 429.688 1354
429.688 375 1421
312.5 -23.4375 1130
-31.25 -242.188 1415
171.875 54.6875 1153
312.5 398.438 1333
250 -148.438 3178
23.4375 54.6875 1161
304.688 226.562 1177
-367.188 257.812 1227
-320.312 367.188 1328
179.688 54.6875 1193
492.188 -31.25 1245
273.438 164.062 1177
312.5 171.875 1161
226.562 304.688 1404
-78.125 62.5 1161
164.062 -117.188 1165
437.5 375 1421
304.688 218.75 1173
-117.188 -187.5 1268
218.75 351.562 1359
414.062 -296.875 1415
312.5 132.812 1153
296.875 289.062 1193
250 -85.9375 1119
-390.625 335.938 1381
203.125 39.0625 1149
-296.875 265.625 1223
46.875 39.0625 1153
273.438 429.688 1370
-437.5 -7.8125 1312
273.438 375 1365
-414.062 -148.438 1421
132.812 39.0625 1149
54.6875 335.938 1873
398.438 398.438 1445
-351.562 -15.625 1165
492.188 -78.125 1464
375 132.812 1153
281.25 195.312 1169
304.688 429.688 1322
-320.312 -125 1232
-62.5 351.562 1776
-328.125 328.125 1427
484.375 -218.75 1427
-328.125 -15.625 1173
414.062 -23.4375 1489
414.062 429.688 1381
-203.125 289.062 1421
-31.25 62.5 1169
23.4375 351.562 1873
62.5 39.0625 1153
312.5 164.062 1157
476.562 -23.4375 1483
-39.0625 328.125 1873
-335.938 -109.375 1227
-23.4375 62.5 1173
-62.5 -195.312 1268
312.5 -15.625 1134
-281.25 382.812 1322
-132.812 -132.812 1283
382.812 328.125 1483
429.688 -187.5 1439
312.5 -54.6875 1126
398.438 437.5 1370
-390.625 367.188 1328
148.438 39.0625 1149
414.062 375 1433
281.25 0 1134
-179.688 312.5 1594
109.375 210.938 1804
109.375 -109.375 1181
-398.438 -101.562 1223
476.562 406.25 1415
-226.562 54.6875 1165
460.938 0 1445
437.5 -296.875 1421
406.25 335.938 1433
-414.062 -187.5 3333
156.25 39.0625 1153
-296.875 375 1322
-414.062 -179.688 3333
132.812 -109.375 1165
-265.625 382.812 1317
-15.625 -242.188 1421
328.125 437.5 1343
101.562 421.875 1421
-343.75 39.0625 1189
-414.062 7.8125 1169
85.9375 39.0625 1149
-390.625 320.312 1427
-101.562 -210.938 1259
406.25 437.5 1376
390.625 398.438 1343
-171.875 437.5 1392
101.562 179.688 1794
-484.375 -242.188 3399
-375 359.375 1333
257.812 351.562 1236
-234.375 46.875 1181
-234.375 226.562 1307
-406.25 -7.8125 1173
-242.188 398.438 1283
-156.25 218.75 1843
-203.125 296.875 1427
-273.438 -46.875 1149
-328.125 359.375 1343
109.375 39.0625 1149
-226.562 46.875 1177
-320.312 -109.375 1227
117.188 54.6875 1157
-62.5 -218.75 1264
70.3125 351.562 1572
460.938 398.438 1415
70.3125 39.0625 1153
382.812 382.812 1349
328.125 343.75 1381
195.312 39.0625 1149
226.562 312.5 1359
210.938 218.75 1516
304.688 54.6875 1219
203.125 -78.125 1119
195.312 -78.125 1123
-226.562 390.625 1283
335.938 125 1153
328.125 -39.0625 1529
-226.562 414.062 1288
-257.812 109.375 1177
-312.5 351.562 1370
-406.25 -39.0625 1189
-148.438 -125 1283
-265.625 320.312 1255
-203.125 273.438 1433
109.375 -132.812 1173
273.438 304.688 1206
-265.625 -54.6875 1145
-484.375 125 1197
328.125 125 1153
117.188 421.875 1464
-156.25 -257.812 1250
101.562 265.625 1833
-257.812 296.875 1250
-93.75 -148.438 1283
-265.625 234.375 1210
382.812 398.438 1343
-78.125 -257.812 1250
-78.125 -156.25 1283
109.375 -117.188 1181
132.812 -156.25 1245
-273.438 140.625 1185
-367.188 265.625 1227
-351.562 296.875 1470
359.375 -31.25 1516
-250 226.562 1210
390.625 421.875 1387
-109.375 -93.75 1138
281.25 437.5 1349
-375 343.75 1359
46.875 390.625 1477
265.625 429.688 1255
7.8125 328.125 1873
-367.188 -117.188 1206
62.5 406.25 1445
-468.75 343.75 1343
273.438 421.875 1255
-328.125 296.875 1496
-265.625 195.312 1197
398.438 -23.4375 1503
132.812 54.6875 1177
320.312 367.188 1354
-367.188 -62.5 1177
-437.5 -23.4375 1307
-148.438 -132.812 1283
304.688 179.688 1169
-398.438 39.0625 1181
-187.5 265.625 1503
-429.688 7.8125 1202
101.562 218.75 1813
125 39.0625 1153
-429.688 -203.125 3208
367.188 132.812 1157
273.438 414.062 1259
-140.625 -273.438 1245
296.875 250 1189
242.188 359.375 1292
101.562 226.562 1813
-265.625 250 1219
-203.125 312.5 1376
78.125 414.062 1427
101.562 273.438 1843
218.75 39.0625 1149
117.188 156.25 1181
343.75 359.375 1354
125 -148.438 1219
289.062 421.875 1359
375 375 1343
-437.5 250 1227
210.938 273.438 1523
-335.938 -132.812 1219
-390.625 -15.625 1169
125 140.625 1181
-265.625 31.25 1173
62.5 54.6875 1181
398.438 296.875 1197
312.5 429.688 1322
-156.25 -265.625 1245
312.5 140.625 1161
187.5 390.625 1616
-234.375 320.312 1264
117.188 164.062 1776
-281.25 242.188 1214
-250 218.75 1210
304.688 203.125 1173
250 70.3125 1123
312.5 -7.8125 1141
-234.375 328.125 1264
-273.438 132.812 1185
-148.438 -140.625 1283
0 328.125 1883
218.75 335.938 1433
-203.125 -93.75 1145
343.75 -31.25 1536
-429.688 273.438 1536
390.625 437.5 1354
312.5 15.625 1149
414.062 164.062 1161
398.438 375 1370
-242.188 390.625 1283
-382.812 359.375 1333
-31.25 -226.562 1255
-289.062 375 1322
296.875 429.688 1359
-382.812 -132.812 1427
-312.5 367.188 1328
-242.188 46.875 1181
359.375 359.375 1359
-242.188 375 1278
312.5 23.4375 1149
-125 -289.062 1452
242.188 -78.125 1123
-39.0625 -156.25 1297
109.375 171.875 1794
273.438 382.812 1250
367.188 281.25 1193
-250 312.5 1255
460.938 125 1141
351.562 421.875 1322
-218.75 -93.75 1145
-148.438 54.6875 1177
281.25 445.312 1349
62.5 320.312 1853
-359.375 343.75 1365
39.0625 359.375 1616
78.125 54.6875 1181
-265.625 218.75 1206
140.625 390.625 1523
-414.062 -70.3125 1259
93.75 281.25 1843
453.125 328.125 1415
382.812 421.875 1387
484.375 -296.875 1415
-445.312 -31.25 1312
382.812 281.25 1189
460.938 281.25 1189
-179.688 -93.75 1145
312.5 7.8125 1141
312.5 0 1141
-257.812 343.75 1273
-23.4375 78.125 1126
140.625 54.6875 1181
-23.4375 -226.562 1273
-492.188 406.25 1302
-39.0625 -179.688 1264
375 406.25 1349
-250 335.938 1259
85.9375 312.5 1853
101.562 39.0625 1149
156.25 54.6875 1185
312.5 -39.0625 1126
0 -242.188 1421
-382.812 328.125 1404
312.5 -31.25 1126
-78.125 -312.5 1477
-93.75 -171.875 1273
-85.9375 -203.125 1264
-78.125 -132.812 1288
-257.812 375 1283
15.625 328.125 1873
-273.438 125 1181
-281.25 23.4375 1165
390.625 343.75 1404
281.25 335.938 1232
398.438 390.625 1354
429.688 -23.4375 1483
-265.625 -70.3125 1141
39.0625 39.0625 1157
273.438 335.938 1232
-273.438 -54.6875 1149
-367.188 101.562 1181
-273.438 328.125 1427
164.062 54.6875 1185
-54.6875 54.6875 1181
-367.188 -23.4375 1165
406.25 304.688 1193
484.375 257.812 1185
281.25 414.062 1365
-281.25 296.875 1509
-351.562 367.188 1333
117.188 359.375 1557
-148.438 320.312 1883
-265.625 -39.0625 1153
-367.188 359.375 1328
-70.3125 -273.438 1255
78.125 414.062 1427
0 54.6875 1181
-250 203.125 1210
406.25 398.438 1439
15.625 39.0625 1161
-148.438 -156.25 1278
195.312 54.6875 1185
343.75 -54.6875 1523
-257.812 -93.75 1149
304.688 234.375 1185
-500 359.375 1288
234.375 304.688 1349
320.312 421.875 1317
-414.062 -218.75 3208
-78.125 343.75 1794
109.375 54.6875 1181
382.812 437.5 1359
-421.875 23.4375 1177
-23.4375 -257.812 1421
296.875 375 1354
187.5 54.6875 1189
-93.75 54.6875 1177
390.625 406.25 1359
-421.875 351.562 1328
-257.812 39.0625 1173
312.5 179.688 1169
-234.375 429.688 1297
-109.375 -148.438 1283
242.188 273.438 1343
-210.938 125 1197
-250 296.875 1255
-117.188 -281.25 1255
453.125 382.812 1421
296.875 85.9375 1123
-93.75 -273.438 1245
453.125 429.688 1365
-351.562 -109.375 1227
-234.375 304.688 1259
304.688 210.938 1173
445.312 296.875 1185
281.25 429.688 1376
-70.3125 -218.75 1268
-7.8125 -242.188 1421
289.062 296.875 1197
-304.688 -109.375 1223
-421.875 250 1223
-375 23.4375 1173
218.75 54.6875 1185
-179.688 -242.188 1496
460.938 429.688 1376
-437.5 359.375 1328
-31.25 -93.75 1130
-414.062 -164.062 3178
-7.8125 328.125 1883
156.25 382.812 1731
203.125 210.938 1624
460.938 382.812 1421
39.0625 54.6875 1181
-500 250 1219
265.625 406.25 1255
289.062 289.062 1197
39.0625 328.125 1873
-429.688 0 1197
-289.062 -7.8125 1206
-343.75 -93.75 1185
-320.312 359.375 1359
-406.25 -46.875 1202
437.5 210.938 1149
-54.6875 -156.25 1283
117.188 171.875 1785
109.375 179.688 1794
-70.3125 -281.25 1255
289.062 429.688 1365
-109.375 -242.188 1255
289.062 437.5 1359
-78.125 437.5 1572
453.125 398.438 1421
-148.438 -93.75 1141
343.75 -46.875 1523
-281.25 -70.3125 1149
-328.125 343.75 1370
-375 -101.562 1193
-265.625 210.938 1202
-398.438 296.875 1470
-265.625 179.688 1193
54.6875 398.438 1452
-351.562 304.688 1470
-375 7.8125 1169
-445.312 304.688 1445
-148.438 -148.438 1278
187.5 -85.9375 1123
-312.5 320.312 1439
-281.25 343.75 1392
-406.25 359.375 1328
242.188 -85.9375 1123
23.4375 39.0625 1157
273.438 281.25 1202
148.438 54.6875 1181
468.75 281.25 1193
-226.562 375 1283
-39.0625 414.062 1632
-93.75 -203.125 1268
7.8125 62.5 1169
210.938 54.6875 1185
-328.125 62.5 1138
-414.062 7.8125 1177
312.5 421.875 1322
101.562 54.6875 1177
304.688 187.5 1173
109.375 218.75 1813
-273.438 117.188 1177
-453.125 351.562 1322
234.375 414.062 1317
234.375 85.9375 1115
-375 -140.625 1427
-234.375 421.875 1292
-78.125 351.562 1794
460.938 -296.875 1410
109.375 421.875 1452
-320.312 351.562 1365
210.938 101.562 1123
101.562 234.375 1823
367.188 -304.688 1433
-171.875 -93.75 1141
-265.625 -54.6875 1145
7.8125 39.0625 1161
-351.562 343.75 1365
78.125 320.312 1853
-210.938 -93.75 1149
101.562 281.25 1843
320.312 335.938 1387
-226.562 382.812 1283
93.75 39.0625 1149
-296.875 367.188 1338
31.25 -164.062 1354
-289.062 -78.125 1149
15.625 -242.188 1439
-289.062 -70.3125 1149
-101.562 -242.188 1250
-226.562 -93.75 1145
-460.938 93.75 1185
359.375 335.938 1410
31.25 351.562 1873
367.188 -31.25 1516
445.312 375 1421
-62.5 351.562 1794
-15.625 -242.188 1421
-85.9375 335.938 1813
218.75 218.75 1496
-273.438 242.188 1214
132.812 -109.375 1123
-85.9375 -210.938 1264
117.188 39.0625 1149
93.75 54.6875 1177
296.875 421.875 1359
70.3125 39.0625 1153
-234.375 437.5 1297
140.625 -109.375 1123
312.5 -15.625 1138
0 187.5 1813
476.562 -7.8125 1464
414.062 367.188 1445
312.5 148.438 1161
-273.438 312.5 1255
-117.188 -93.75 1141
406.25 414.062 1410
78.125 414.062 1427
62.5 -93.75 1126
445.312 -7.8125 1415
-390.625 -31.25 1173
-421.875 -125 1202
62.5 406.25 1445
-335.938 109.375 1181
-93.75 375 1748
312.5 171.875 1165
179.688 39.0625 1153
-320.312 335.938 1404
31.25 54.6875 1181
-250 359.375 1273
-382.812 -23.4375 1169
390.625 281.25 1189
-265.625 -78.125 1141
85.9375 39.0625 1153
312.5 -54.6875 1123
7.8125 54.6875 1177
382.812 406.25 1359
109.375 226.562 1813
-437.5 -7.8125 1312
289.062 242.188 1185
281.25 343.75 1232
351.562 242.188 1185
312.5 335.938 1404
-265.625 171.875 1193
-453.125 54.6875 1138
-250 367.188 1278
-117.188 -320.312 1464
117.188 148.438 1181
304.688 46.875 1141
-351.562 335.938 1398
85.9375 54.6875 1173
171.875 54.6875 1189
-62.5 -164.062 1283
-46.875 -156.25 1283
-281.25 -31.25 1157
-15.625 54.6875 1181
-484.375 242.188 1227
117.188 54.6875 1181
148.438 375 1748
-46.875 54.6875 1177
-351.562 -101.562 1197
-101.562 -273.438 1245
296.875 437.5 1359
-132.812 -93.75 1138
-335.938 -93.75 1185
375 437.5 1359
445.312 414.062 1410
476.562 328.125 1421
-39.0625 -242.188 1259
312.5 7.8125 1141
328.125 421.875 1312
312.5 15.625 1149
-304.688 367.188 1328
-226.562 421.875 1297
406.25 367.188 1376
-46.875 -218.75 1268
382.812 429.688 1381
296.875 414.062 1354
78.125 312.5 1853
343.75 382.812 1338
-218.75 437.5 1312
203.125 54.6875 1185
265.625 429.688 1255
382.812 390.625 1343
453.125 414.062 1392
-101.562 -93.75 1138
-78.125 343.75 1794
-250 296.875 1255
421.875 -304.688 1427
70.3125 382.812 1557
-335.938 375 1317
-85.9375 101.562 1134
468.75 382.812 1415
-148.438 312.5 1873
-273.438 382.812 1322
328.125 257.812 1189
46.875 39.0625 1157
-250 117.188 1189
375 429.688 1376
-296.875 -85.9375 1227
453.125 421.875 1387
460.938 406.25 1421
132.812 -125 1169
375 421.875 1365
492.188 343.75 1415
-210.938 70.3125 1134
218.75 250 1470
-320.312 328.125 1427
-351.562 -117.188 1210
304.688 242.188 1185
226.562 414.062 1317
-210.938 46.875 1181
-390.625 -23.4375 1169
429.688 -296.875 1410
-273.438 -54.6875 1149
171.875 -117.188 1119
-281.25 359.375 1359
289.062 296.875 1197
-414.062 335.938 1376
492.188 125 1138
375 281.25 1193
-343.75 -117.188 1219
273.438 414.062 1259
421.875 320.312 1433
-265.625 -62.5 1145
101.562 -54.6875 1130
125 54.6875 1177
-257.812 367.188 1278
-351.562 234.375 1214
195.312 296.875 1647
429.688 343.75 1415
-46.875 -140.625 1283
281.25 343.75 1232
304.688 234.375 1185
-500 343.75 1273
359.375 343.75 1387
-117.188 -273.438 1255
-62.5 382.812 1731
304.688 -46.875 1123
46.875 54.6875 1185
226.562 54.6875 1189
0 39.0625 1161
367.188 421.875 1349
273.438 390.625 1255
312.5 -62.5 1123
101.562 242.188 1823
-414.062 -226.562 3208
-296.875 265.625 1206
250 406.25 1259
-414.062 -46.875 1264
-304.688 -85.9375 1223
179.688 54.6875 1189
171.875 421.875 1516
250 54.6875 1189
-437.5 -15.625 1307
460.938 421.875 1381
109.375 39.0625 1149
390.625 429.688 1387
78.125 39.0625 1153
-445.312 312.5 1427
-265.625 -70.3125 1141
468.75 125 1141
445.312 -296.875 1410
304.688 39.0625 1141
140.625 382.812 1529
62.5 39.0625 1153
-382.812 -31.25 1169
468.75 273.438 1189
-406.25 -46.875 1202
234.375 39.0625 1153
-234.375 296.875 1264
250 257.812 1264
476.562 273.438 1189
335.938 257.812 1189
-382.812 257.812 1223
-218.75 46.875 1177
468.75 101.562 1101
-250 375 1278
406.25 375 1370
-234.375 429.688 1297
39.0625 39.0625 1157
132.812 382.812 1543
390.625 414.062 1365
273.438 429.688 1255
-500 0 1283
23.4375 328.125 1883
-15.625 -257.812 1421
398.438 429.688 1370
-359.375 257.812 1223
125 375 1550
-328.125 375 1317
-203.125 429.688 1365
-429.688 250 1223
429.688 -187.5 1439
312.5 156.25 1165
-406.25 304.688 1458
445.312 328.125 1415
250 312.5 1236
-414.062 -179.688 3300
70.3125 54.6875 1185
351.562 281.25 1193
304.688 250 1189
7.8125 359.375 1785
-382.812 0 1169
234.375 54.6875 1153
-226.562 359.375 1283
296.875 54.6875 1141
312.5 -7.8125 1141
234.375 351.562 1333
132.812 398.438 1523
-31.25 328.125 1873
273.438 39.0625 1145
460.938 390.625 1421
210.938 367.188 1452
-23.4375 39.0625 1165
234.375 250 1376
281.25 320.312 1202
140.625 39.0625 1149
-15.625 -265.625 1421
312.5 187.5 1173
23.4375 304.688 1863
-367.188 -85.9375 1185
367.188 359.375 1359
250 -85.9375 1123
234.375 367.188 1288
-54.6875 -132.812 1288
-437.5 54.6875 1138
273.438 398.438 1255
468.75 406.25 1415
210.938 39.0625 1145
367.188 281.25 1193
-7.8125 39.0625 1161
-453.125 296.875 1458
492.188 -156.25 1445
109.375 210.938 1813
-289.062 265.625 1202
445.312 -179.688 1433
-195.312 46.875 1181
-234.375 421.875 1292
-414.062 179.688 1173
351.562 398.438 1333
109.375 234.375 1823
-335.938 359.375 1333
-421.875 335.938 1365
-257.812 320.312 1255
453.125 375 1415
335.938 -39.0625 1523
-148.438 -171.875 1273
15.625 -234.375 1328
-320.312 367.188 1333
-281.25 -39.0625 1153
132.812 39.0625 1149
-414.062 0 1173
132.812 429.688 1439
-23.4375 328.125 1883
257.812 -85.9375 1123
-414.062 -78.125 1255
148.438 398.438 1509
148.438 -132.812 1165
312.5 179.688 1169
-375 359.375 1328
171.875 -148.438 1250
281.25 421.875 1370
-382.812 -101.562 1193
-250 289.062 1250
-476.562 328.125 1381
-406.25 31.25 1177
125 -109.375 1126
445.312 406.25 1415
-242.188 359.375 1273
335.938 -46.875 1529
281.25 406.25 1370
289.062 304.688 1223
382.812 437.5 1359
382.812 281.25 1189
367.188 414.062 1349
-148.438 296.875 1873
-148.438 296.875 1873
-265.625 289.062 1259
101.562 39.0625 1149
304.688 54.6875 1141
429.688 414.062 1404
171.875 39.0625 1153
-367.188 -78.125 1177
164.062 39.0625 1153
320.312 437.5 1349
398.438 437.5 1354
492.188 -296.875 3149
148.438 -109.375 1123
-289.062 273.438 1197
-187.5 70.3125 1134
-429.688 -187.5 3399
140.625 54.6875 1181
-375 343.75 1359
-101.562 -304.688 1464
398.438 257.812 1185
-164.062 132.812 1197
429.688 101.562 1105
-148.438 328.125 1863
453.125 125 1141
-31.25 390.625 1705
-390.625 265.625 1236
-234.375 195.312 1232
281.25 351.562 1236
-289.062 375 1322
414.062 382.812 1445
304.688 429.688 1354
414.062 343.75 1433
351.562 -31.25 1516
242.188 187.5 1338
445.312 429.688 1359
-85.9375 -273.438 1245
335.938 421.875 1307
382.812 421.875 1387
-250 351.562 1268
242.188 54.6875 1189
-250 343.75 1264
-62.5 406.25 1655
132.812 54.6875 1177
164.062 54.6875 1185
312.5 23.4375 1149
-273.438 304.688 1250
101.562 281.25 1843
93.75 289.062 1843
164.062 437.5 1496
-257.812 335.938 1264
-257.812 15.625 1165
281.25 429.688 1376
312.5 -31.25 1126
273.438 437.5 1268
-335.938 -31.25 1173
-54.6875 -156.25 1283
23.4375 39.0625 1157
437.5 398.438 1427
-257.812 351.562 1273
257.812 140.625 1173
-226.562 367.188 1283
195.312 54.6875 1185
460.938 -31.25 1483
-54.6875 -226.562 1264
-218.75 296.875 1312
7.8125 39.0625 1161
-85.9375 -140.625 1288
117.188 171.875 1785
-31.25 54.6875 1185
-171.875 46.875 1181
351.562 437.5 1359
-335.938 -140.625 1433
281.25 -85.9375 1119
-429.688 335.938 1365
242.188 70.3125 1157
343.75 367.188 1343
398.438 382.812 1354
312.5 164.062 1165
-351.562 54.6875 1145
-257.812 375 1283
-148.438 -179.688 1268
-250 179.688 1210
-265.625 -78.125 1141
-414.062 -156.25 3178
367.188 351.562 1376
54.6875 62.5 1169
-125 -171.875 1273
-421.875 351.562 1328
117.188 179.688 1794
320.312 101.562 1115
421.875 101.562 1105
-265.625 195.312 1197
-382.812 406.25 1579
-296.875 15.625 1193
312.5 -23.4375 1134
-257.812 359.375 1273
-179.688 46.875 1177
-203.125 359.375 1343
23.4375 54.6875 1181
-234.375 335.938 1264
-218.75 289.062 1359
187.5 54.6875 1189
218.75 164.062 1185
445.312 382.812 1421
-15.625 328.125 1883
-187.5 46.875 1177
132.812 -117.188 1169
343.75 382.812 1338
187.5 -85.9375 1123
109.375 179.688 1794
-375 328.125 1404
-210.938 257.812 1333
304.688 101.562 1112
-39.0625 -265.625 1250
-15.625 39.0625 1165
-281.25 15.625 1165
101.562 226.562 1813
312.5 328.125 1410
304.688 242.188 1185
445.312 398.438 1421
156.25 54.6875 1185
-265.625 164.062 1193
-312.5 7.8125 1189
335.938 304.688 1223
390.625 375 1359
414.062 148.438 1157
39.0625 15.625 1153
140.625 -140.625 1169
281.25 54.6875 1141
-390.625 101.562 1181
-335.938 -7.8125 1169
312.5 -39.0625 1126
-250 281.25 1245
250 289.062 1297
281.25 312.5 1214
304.688 257.812 1189
15.625 54.6875 1177
359.375 -31.25 1516
-125 375 1722
453.125 406.25 1421
406.25 -23.4375 1503
-281.25 31.25 1173
117.188 421.875 1452
265.625 164.062 1250
164.062 -171.875 1245
31.25 39.0625 1157
406.25 382.812 1458
-257.812 39.0625 1173
-164.062 375 1333
109.375 218.75 1813
62.5 406.25 1445
0 54.6875 1181
117.188 148.438 1181
-234.375 289.062 1264
-117.188 -210.938 1264
-296.875 -62.5 1210
-250 187.5 1202
-414.062 -171.875 3178
343.75 281.25 1193
-164.062 367.188 1338
-429.688 -15.625 1185
-414.062 -210.938 3178
312.5 -15.625 1138
437.5 203.125 1153
-148.438 -164.062 1273
-78.125 -257.812 1250
320.312 132.812 1161
-265.625 375 1322
-93.75 -210.938 1268
31.25 445.312 1445
179.688 351.562 1748
-343.75 304.688 1477
367.188 -296.875 1433
-414.062 351.562 1328
-218.75 351.562 1288
-226.562 351.562 1288
-257.812 382.812 1312
437.5 0 1415
-382.812 0 1169
-242.188 351.562 1268
-39.0625 39.0625 1165
-23.4375 -226.562 1273
304.688 375 1354
-195.312 289.062 1496
460.938 101.562 1105
351.562 -132.812 1503
-398.438 101.562 1181
-351.562 351.562 1359
85.9375 312.5 1853
101.562 242.188 1823
62.5 351.562 1572
62.5 343.75 1863
-437.5 -54.6875 1317
-78.125 39.0625 1165
265.625 54.6875 1189
-406.25 -54.6875 1206
273.438 429.688 1255
437.5 429.688 1365
-257.812 242.188 1210
-375 -78.125 1177
-218.75 429.688 1312
250 296.875 1241
109.375 226.562 1813
281.25 445.312 1349
406.25 304.688 1193
-390.625 -23.4375 1169
-195.312 70.3125 1134
85.9375 414.062 1421
15.625 -250 1433
-203.125 70.3125 1138
-265.625 156.25 1189
-242.188 343.75 1264
-101.562 -234.375 1255
-382.812 351.562 1349
398.438 367.188 1376
-234.375 39.0625 1173
460.938 -23.4375 1483
85.9375 304.688 1853
-367.188 234.375 1223
-54.6875 39.0625 1165
445.312 125 1145
-492.188 -187.5 2541
-242.188 421.875 1292
312.5 -46.875 1126
-101.562 -250 1250
-250 320.312 1259
289.062 304.688 1223
367.188 429.688 1365
-437.5 -226.562 3399
226.562 -226.562 3333
437.5 -296.875 1404
375 351.562 1381
-289.062 242.188 1214
218.75 101.562 1119
273.438 54.6875 1141
-132.812 -179.688 1268
-414.062 -242.188 3269
390.625 -23.4375 1509
-7.8125 78.125 1126
210.938 54.6875 1185
-101.562 -195.312 1264
203.125 -78.125 1123
70.3125 445.312 1433
312.5 195.312 1173
-234.375 414.062 1288
-414.062 -93.75 1241
359.375 281.25 1193
-70.3125 437.5 1586
414.062 125 1145
-429.688 -289.062 3269
351.562 -39.0625 1516
-265.625 382.812 1317
-367.188 257.812 1227
-46.875 39.0625 1161
289.062 437.5 1359
-257.812 7.8125 1161
15.625 -234.375 1328
-437.5 -23.4375 1307
117.188 -125 1177
-406.25 -85.9375 1241
179.688 -101.562 1126
-70.3125 382.812 1731
320.312 375 1343
304.688 437.5 1359
-296.875 -78.125 1227
-23.4375 -93.75 1134
-335.938 -132.812 1219
234.375 54.6875 1153
-148.438 -132.812 1283
-242.188 39.0625 1173
375 -15.625 1496
398.438 351.562 1404
-156.25 -93.75 1145
-468.75 328.125 1376
15.625 -242.188 1439
437.5 -195.312 1433
359.375 421.875 1343
-39.0625 -273.438 1250
312.5 -54.6875 1123
468.75 375 1415
101.562 54.6875 1177
-156.25 375 1722
101.562 -93.75 1119
-398.438 304.688 1458
-367.188 343.75 1365
-304.688 335.938 1398
312.5 171.875 1165
289.062 312.5 1210
-328.125 -93.75 1197
-476.562 312.5 1427
437.5 -187.5 1439
-234.375 -93.75 1145
62.5 54.6875 1181
320.312 367.188 1354
-234.375 406.25 1288
367.188 421.875 1349
289.062 296.875 1197
125 148.438 1181
250 335.938 1268
445.312 -304.688 3149
-62.5 437.5 1594
335.938 281.25 1193
-343.75 335.938 1398
437.5 414.062 1398
-359.375 -46.875 1169
93.75 54.6875 1177
125 429.688 1427
-343.75 367.188 1333
-289.062 296.875 1516
304.688 234.375 1185
0 -226.562 1338
492.188 273.438 1185
-265.625 -31.25 1157
-398.438 -54.6875 1206
-273.438 -132.812 3433
335.938 382.812 1338
375 429.688 1376
226.562 54.6875 1189
-39.0625 -257.812 1250
273.438 445.312 1273
203.125 -85.9375 1123
-78.125 31.25 1161
-23.4375 -242.188 1427
-125 -93.75 1141
-382.812 367.188 1317
250 54.6875 1189
-414.062 -265.625 3178
273.438 101.562 1115
0 -250 1421
234.375 429.688 1273
-296.875 265.625 1206
187.5 -78.125 1123
289.062 54.6875 1141
-39.0625 -242.188 1259
109.375 234.375 1823
179.688 -125 1219
31.25 328.125 1883
-148.438 398.438 1663
-257.812 234.375 1210
-218.75 421.875 1322
304.688 250 1189
429.688 -304.688 3178
-70.3125 39.0625 1165
304.688 54.6875 1141
-23.4375 -265.625 1421
171.875 54.6875 1189
484.375 125 1145
257.812 54.6875 1189
312.5 421.875 1322
203.125 54.6875 1185
179.688 54.6875 1189
-117.188 -164.062 1278
-179.688 234.375 1550
351.562 281.25 1193
320.312 312.5 1404
-484.375 398.438 1550
390.625 335.938 1410
-7.8125 62.5 1169
93.75 304.688 1853
-31.25 39.0625 1165
-312.5 351.562 1365
-414.062 -203.125 3208
-273.438 -39.0625 1153
375 -31.25 1509
375 101.562 1112
-367.188 7.8125 1169
-414.062 171.875 1173
492.188 328.125 1427
312.5 -7.8125 1141
164.062 -132.812 1161
140.625 367.188 1776
156.25 406.25 1503
429.688 125 1145
54.6875 54.6875 1181
140.625 -109.375 1123
421.875 125 1145
273.438 414.062 1259
-187.5 39.0625 1177
-312.5 335.938 1398
-429.688 -31.25 1302
-250 375 1278
-234.375 46.875 1181
-375 -85.9375 1181
-117.188 46.875 1173
-195.312 39.0625 1177
-414.062 -273.438 3208
-250 39.0625 1173
148.438 398.438 1509
226.562 328.125 1365
359.375 398.438 1333
296.875 54.6875 1141
0 39.0625 1161
437.5 101.562 1105
312.5 179.688 1169
-39.0625 -156.25 1297
-23.4375 -234.375 1273
70.3125 382.812 1557
328.125 281.25 1193
195.312 101.562 1119
171.875 -101.562 1119
-179.688 70.3125 1134
367.188 -31.25 1516
320.312 281.25 1193
460.938 375 1415
-281.25 109.375 1177
351.562 -140.625 1496
-500 156.25 1202
351.562 296.875 1197
15.625 -257.812 1433
-234.375 273.438 1264
-367.188 -93.75 1189
-406.25 164.062 1197
-250 273.438 1227
281.25 437.5 1349
-500 328.125 1268
-39.0625 -187.5 1264
-265.625 179.688 1193
265.625 445.312 1273
85.9375 437.5 1421
-242.188 164.062 1214
273.438 421.875 1255
78.125 414.062 1427
-117.188 -250 1250
-125 -273.438 1255
-164.062 70.3125 1138
101.562 257.812 1833
312.5 46.875 1141
-78.125 -203.125 1264
-148.438 -250 1255
-171.875 359.375 1338
312.5 203.125 1173
-7.8125 39.0625 1161
-242.188 156.25 1250
117.188 179.688 1794
304.688 39.0625 1141
437.5 -304.688 3178
453.125 -296.875 1410
-500 179.688 1202
-242.188 179.688 1223
453.125 -7.8125 1464
351.562 -148.438 1483
-78.125 437.5 1572
-15.625 -265.625 1421
-140.625 78.125 1134
187.5 437.5 1529
-7.8125 -265.625 1421
359.375 429.688 1349
-85.9375 39.0625 1165
-375 31.25 1206
-31.25 406.25 1671
93.75 85.9375 1115
-171.875 437.5 1387
-375 62.5 1138
-414.062 -187.5 3300
7.8125 39.0625 1161
39.0625 78.125 1123
-7.8125 54.6875 1181
0 414.062 1516
7.8125 -234.375 1328
453.125 179.688 1161
-46.875 -203.125 1268
-328.125 328.125 1415
140.625 54.6875 1181
351.562 429.688 1338
-78.125 343.75 1794
390.625 367.188 1365
125 421.875 1452
39.0625 39.0625 1157
-351.562 -93.75 1185
-101.562 46.875 1173
-210.938 39.0625 1177
7.8125 429.688 1477
85.9375 54.6875 1173
-164.062 39.0625 1173
109.375 54.6875 1181
-429.688 320.312 1410
-343.75 234.375 1214
-343.75 351.562 1365
257.812 398.438 1255
15.625 328.125 1873
343.75 281.25 1193
-414.062 -62.5 1259
-273.438 359.375 1359
39.0625 328.125 1873
-164.062 382.812 1338
-257.812 367.188 1278
421.875 312.5 1439
281.25 359.375 1236
-414.062 0 1173
164.062 -171.875 1245
-437.5 -39.0625 1307
-179.688 39.0625 1173
-148.438 281.25 1873
-242.188 171.875 1232
101.562 234.375 1823
46.875 39.0625 1157
-23.4375 -257.812 1421
-210.938 343.75 1338
304.688 226.562 1185
265.625 -78.125 1123
-304.688 320.312 1439
-414.062 -7.8125 1173
-265.625 -46.875 1149
-320.312 359.375 1359
101.562 289.062 1843
382.812 -31.25 1509
-296.875 -7.8125 1189
218.75 312.5 1445
242.188 54.6875 1189
-234.375 406.25 1288
-250 164.062 1214
437.5 -23.4375 1483
437.5 351.562 1410
-250 335.938 1259
-148.438 -195.312 1268
31.25 343.75 1873
-39.0625 -218.75 1250
484.375 -296.875 1415
203.125 226.562 1632
187.5 445.312 1509
109.375 242.188 1823
460.938 273.438 1185
148.438 54.6875 1181
289.062 320.312 1202
-54.6875 -140.625 1288
257.812 273.438 1219
-62.5 -195.312 1268
-492.188 -171.875 2560
109.375 187.5 1804
-406.25 328.125 1404
273.438 445.312 1273
-156.25 148.438 1813
-54.6875 351.562 1776
-179.688 -93.75 1145
289.062 367.188 1365
281.25 351.562 1236
218.75 445.312 1354
-257.812 0 1161
406.25 125 1145
328.125 101.562 1115
-429.688 31.25 1189
-156.25 132.812 1197
117.188 156.25 1181
117.188 -109.375 1130
-15.625 -250 1421
-492.188 156.25 1206
437.5 195.312 1161
-54.6875 -195.312 1268
-281.25 375 1322
-242.188 335.938 1259
-148.438 -242.188 1250
210.938 -85.9375 1123
-46.875 -125 1288
414.062 101.562 1112
-265.625 171.875 1193
-359.375 281.25 1536
382.812 125 1153
210.938 203.125 1564
-39.0625 -273.438 1250
210.938 375 1445
-328.125 -117.188 1223
-62.5 382.812 1731
-257.812 -7.8125 1161
78.125 54.6875 1181
265.625 0 1138
-257.812 289.062 1250
195.312 -85.9375 1123
-140.625 39.0625 1177
-406.25 31.25 1177
492.188 117.188 1105
78.125 -218.75 1349
23.4375 39.0625 1157
-171.875 -226.562 1264
-187.5 375 1333
218.75 54.6875 1185
-343.75 -93.75 1185
-132.812 -273.438 1250
281.25 54.6875 1141
-390.625 -54.6875 1185
-257.812 7.8125 1161
-421.875 -78.125 1278
-62.5 39.0625 1165
445.312 390.625 1421
382.812 414.062 1365
-15.625 39.0625 1165
39.0625 54.6875 1181
328.125 335.938 1381
-78.125 375 1748
101.562 250 1823
-476.562 218.75 1223
406.25 101.562 1112
460.938 -7.8125 1421
296.875 437.5 1359
-382.812 7.8125 1173
335.938 257.812 1189
-390.625 -31.25 1173
289.062 54.6875 1141
62.5 39.0625 1153
-281.25 7.8125 1169
492.188 414.062 1387
312.5 281.25 1197
195.312 54.6875 1185
-445.312 289.062 1483
-437.5 -15.625 1307
39.0625 62.5 1169
117.188 54.6875 1181
-304.688 351.562 1359
-148.438 -234.375 1250
273.438 390.625 1255
390.625 125 1153
-39.0625 -250 1259
-164.062 46.875 1181
-39.0625 39.0625 1165
320.312 398.438 1338
85.9375 414.062 1421
-78.125 39.0625 1165
-93.75 39.0625 1165
-125 375 1722
-398.438 -125 1189
-46.875 39.0625 1161
-62.5 -164.062 1283
234.375 398.438 1322
367.188 437.5 1359
-70.3125 -156.25 1283
70.3125 39.0625 1153
289.062 312.5 1210
484.375 78.125 1138
445.312 375 1421
-265.625 304.688 1250
-101.562 -164.062 1283
312.5 0 1141
460.938 78.125 1130
-39.0625 -265.625 1250
-437.5 -23.4375 1307
-414.062 -195.312 3208
359.375 437.5 1365
-46.875 -93.75 1130
359.375 289.062 1193
-203.125 -93.75 1145
-406.25 289.062 1509
-312.5 367.188 1328
421.875 -23.4375 1489
421.875 -296.875 1427
281.25 39.0625 1145
-320.312 367.188 1333
492.188 78.125 1141
453.125 -304.688 3092
281.25 70.3125 1157
234.375 -78.125 1123
140.625 390.625 1523
453.125 390.625 1421
-359.375 257.812 1223
117.188 375 1557
351.562 289.062 1193
-171.875 -242.188 1259
-226.562 328.125 1283
171.875 -156.25 1255
-39.0625 78.125 1126
351.562 -117.188 1503
320.312 132.812 1161
-421.875 250 1223
15.625 -250 1433
-78.125 -289.062 1458
85.9375 39.0625 1153
-375 -15.625 1165
101.562 62.5 1169
-250 367.188 1278
460.938 -296.875 1410
328.125 421.875 1312
398.438 343.75 1464
-250 -93.75 1145
-171.875 70.3125 1134
-148.438 -265.625 1245
140.625 375 1529
-312.5 -23.4375 1181
-351.562 367.188 1333
31.25 351.562 1873
78.125 320.312 1853
-242.188 -93.75 1145
-171.875 39.0625 1173
414.062 335.938 1433
312.5 195.312 1173
-148.438 -257.812 1245
-257.812 0 1161
-257.812 343.75 1273
-312.5 125 1181
-375 -117.188 1210
304.688 242.188 1185
-359.375 -132.812 1210
-250 359.375 1273
218.75 343.75 1427
-257.812 226.562 1206
-210.938 265.625 1333
-132.812 -304.688 1489
281.25 328.125 1232
273.438 406.25 1255
78.125 351.562 1572
335.938 -46.875 1529
-242.188 117.188 1189
-171.875 -93.75 1141
453.125 375 1415
-492.188 -179.688 2522
-406.25 0 1169
390.625 281.25 1189
-273.438 109.375 1177
-328.125 281.25 1223
109.375 195.312 1804
-492.188 289.062 1255
-257.812 23.4375 1169
