ply
format ascii 1.0
comment Created by Open3D
element vertex 2324
property double x
property double y
property double z
end_header
-179.688 335.938 1624
-304.688 -31.25 1202
-31.25 289.062 1713
117.188 70.3125 1173
132.812 70.3125 1173
101.562 -437.5 1250
-140.625 -281.25 1616
78.125 -437.5 1255
15.625 -179.688 1452
453.125 -195.312 3333
23.4375 218.75 1647
-250 117.188 1317
-304.688 54.6875 2349
343.75 -281.25 3399
156.25 93.75 1232
-125 250 1594
-23.4375 54.6875 1177
-203.125 226.562 1616
-62.5 257.812 1624
117.188 -281.25 1392
-23.4375 218.75 1647
78.125 257.812 1616
62.5 250 1609
-476.562 -164.062 1094
-320.312 -148.438 1094
-343.75 -46.875 1197
-398.438 -39.0625 1189
-390.625 -46.875 1202
-281.25 250 1713
-382.812 210.938 1713
101.562 -46.875 1268
250 -265.625 3503
-203.125 257.812 1572
-7.8125 281.25 1739
-445.312 -164.062 1094
132.812 -281.25 1392
-39.0625 -460.938 1255
-289.062 -23.4375 1193
-234.375 289.062 1601
-429.688 -242.188 1115
-85.9375 234.375 1601
-312.5 -39.0625 1206
-78.125 46.875 1177
31.25 226.562 1655
70.3125 257.812 1616
-15.625 -179.688 1445
-125 257.812 1594
-437.5 -156.25 1101
-117.188 257.812 1739
335.938 -164.062 3178
-390.625 -210.938 1123
78.125 218.75 1655
-62.5 -187.5 1452
-109.375 273.438 1722
257.812 -234.375 1624
-296.875 257.812 1696
-390.625 39.0625 2333
-320.312 62.5 1993
-7.8125 250 1616
460.938 -187.5 3333
-226.562 -148.438 1273
-132.812 273.438 1722
-335.938 46.875 2349
-78.125 242.188 1601
-15.625 265.625 1766
-468.75 -281.25 1259
-62.5 70.3125 1236
-484.375 109.375 1863
406.25 -242.188 3433
-210.938 257.812 1572
15.625 265.625 1586
179.688 -242.188 1609
31.25 289.062 1731
-226.562 328.125 1639
-85.9375 242.188 1601
-7.8125 -179.688 1445
-343.75 -226.562 1165
-250 -375 1477
132.812 -250 1616
15.625 242.188 1639
-242.188 -375 1477
-85.9375 257.812 1609
-70.3125 281.25 1722
-257.812 171.875 1415
31.25 234.375 1639
296.875 39.0625 1202
-132.812 242.188 1550
-39.0625 281.25 1713
-195.312 203.125 1632
-296.875 140.625 1757
-382.812 -273.438 1169
-421.875 -359.375 1210
437.5 -281.25 3333
-140.625 54.6875 1236
7.8125 289.062 1731
15.625 273.438 1739
-31.25 140.625 1259
-132.812 62.5 1241
-132.812 187.5 1564
-195.312 343.75 1624
-164.062 242.188 1586
-250 -46.875 1173
-445.312 -390.625 1278
-195.312 218.75 1616
-70.3125 203.125 1616
93.75 234.375 1632
296.875 -109.375 1404
-406.25 -39.0625 1185
-179.688 250 1594
23.4375 -445.312 1250
257.812 148.438 2301
-343.75 -156.25 1090
250 117.188 2317
-46.875 281.25 1722
70.3125 210.938 1616
-437.5 -46.875 1193
-351.562 -156.25 1090
437.5 -343.75 3208
78.125 250 1624
-421.875 -242.188 1123
-289.062 148.438 1748
453.125 -234.375 3468
-351.562 -31.25 1189
39.0625 -171.875 1445
-39.0625 140.625 1264
-265.625 164.062 1739
-15.625 210.938 1663
-70.3125 234.375 1601
85.9375 296.875 1557
-7.8125 226.562 1639
54.6875 296.875 1713
-453.125 125 1843
85.9375 -445.312 1241
-203.125 218.75 1616
-218.75 265.625 1557
-382.812 78.125 1970
250 -234.375 1616
54.6875 265.625 1609
-148.438 -281.25 1624
-85.9375 -273.438 1609
31.25 250 1616
-117.188 343.75 1639
242.188 -265.625 1663
-187.5 242.188 1579
125 -250 1421
93.75 296.875 1557
-328.125 -250 1197
-187.5 359.375 1833
15.625 78.125 1241
-296.875 195.312 1680
343.75 -250 3503
148.438 93.75 1236
-195.312 257.812 1572
-468.75 289.062 1616
-367.188 179.688 1680
-78.125 -195.312 1458
70.3125 226.562 1655
0 -179.688 1445
-343.75 195.312 1688
-218.75 -218.75 1232
0 289.062 1722
62.5 273.438 1579
15.625 226.562 1639
-390.625 -39.0625 1189
-15.625 250 1776
78.125 -179.688 1464
-101.562 343.75 1632
-437.5 -359.375 1197
-320.312 85.9375 1823
93.75 187.5 1349
296.875 -257.812 3503
-234.375 273.438 1572
15.625 218.75 1655
-359.375 -39.0625 1193
23.4375 54.6875 1169
-484.375 218.75 1705
-132.812 250 1594
-39.0625 54.6875 1177
-140.625 187.5 1564
242.188 117.188 2365
-23.4375 187.5 1671
-203.125 -203.125 1328
-476.562 304.688 1632
-46.875 312.5 1671
-328.125 46.875 2065
-382.812 -210.938 1145
-46.875 218.75 1624
-46.875 226.562 1616
-492.188 -46.875 1181
-140.625 320.312 1655
-39.0625 289.062 1713
23.4375 382.812 1843
-257.812 -375 1477
-23.4375 242.188 1632
46.875 -85.9375 1268
39.0625 359.375 1639
-429.688 -46.875 1193
-171.875 312.5 1655
7.8125 218.75 1663
421.875 164.062 2256
312.5 -187.5 3269
-171.875 265.625 1586
-281.25 -23.4375 1193
-31.25 -187.5 1452
-39.0625 -203.125 1477
-359.375 226.562 1688
-85.9375 375 1833
23.4375 -343.75 1343
234.375 -234.375 1616
421.875 -210.938 3433
54.6875 414.062 1804
-203.125 195.312 1579
-23.4375 265.625 1766
-85.9375 273.438 1731
-62.5 257.812 1624
406.25 -218.75 3433
351.562 -250 3468
-195.312 195.312 1601
-46.875 140.625 1264
0 242.188 1647
453.125 -187.5 3300
-125 328.125 1647
-375 -39.0625 1193
187.5 195.312 1349
-273.438 -23.4375 1193
445.312 -335.938 3208
179.688 -273.438 1655
304.688 -226.562 3433
-70.3125 -210.938 1483
31.25 289.062 1731
-148.438 265.625 1572
7.8125 328.125 1671
-187.5 250 1579
62.5 257.812 1609
445.312 -304.688 3269
273.438 132.812 2317
-15.625 242.188 1632
31.25 -343.75 1333
-54.6875 257.812 1616
-70.3125 70.3125 1241
-156.25 265.625 1572
31.25 -171.875 1439
-281.25 343.75 1833
-304.688 -23.4375 1189
-320.312 15.625 1169
-429.688 132.812 1853
-31.25 -179.688 1439
-109.375 281.25 1713
31.25 265.625 1609
-70.3125 281.25 1722
226.562 -148.438 1452
187.5 -242.188 1609
-359.375 187.5 1680
85.9375 -171.875 1452
-312.5 226.562 1713
7.8125 -179.688 1452
312.5 -257.812 3468
484.375 -335.938 3010
-148.438 187.5 1564
-46.875 -187.5 1452
54.6875 250 1609
-210.938 31.25 1181
15.625 -453.125 1250
70.3125 382.812 1632
54.6875 -195.312 1483
359.375 -250 3433
-351.562 226.562 1696
-437.5 -164.062 1094
-500 -54.6875 1165
-70.3125 195.312 1586
39.0625 78.125 1236
78.125 -164.062 1445
-375 -218.75 1157
7.8125 125 1273
437.5 -187.5 3300
-328.125 85.9375 1823
-210.938 -250 1245
-335.938 -234.375 1185
171.875 -242.188 1601
7.8125 78.125 1245
-54.6875 70.3125 1236
-46.875 242.188 1601
-164.062 335.938 1632
125 -281.25 1392
-23.4375 -179.688 1445
117.188 85.9375 1232
-429.688 -226.562 1119
-117.188 273.438 1722
78.125 -140.625 1250
-15.625 296.875 1705
203.125 171.875 1322
-39.0625 242.188 1601
-140.625 265.625 1579
-117.188 31.25 1173
-281.25 179.688 1696
-226.562 257.812 1536
-179.688 242.188 1609
70.3125 234.375 1632
414.062 156.25 2271
-46.875 195.312 1696
-164.062 273.438 1713
70.3125 85.9375 1236
203.125 195.312 1333
-414.062 -281.25 1259
-117.188 187.5 1564
-460.938 -46.875 1185
78.125 234.375 1632
-7.8125 351.562 1639
-54.6875 218.75 1624
468.75 -78.125 2908
93.75 257.812 1624
-62.5 265.625 1624
-46.875 281.25 1722
-93.75 257.812 1616
-289.062 39.0625 1245
-500 187.5 1489
-148.438 250 1572
-132.812 257.812 1572
-218.75 296.875 1609
234.375 250 2090
265.625 -109.375 1392
39.0625 289.062 1731
-226.562 171.875 1445
-54.6875 265.625 1616
-335.938 -437.5 3208
-335.938 195.312 1671
-500 -351.562 1126
-101.562 46.875 1181
-125 343.75 1624
-7.8125 -195.312 1477
46.875 265.625 1609
39.0625 296.875 1713
-70.3125 257.812 1601
0 265.625 1609
-179.688 210.938 1624
-250 46.875 1241
54.6875 -445.312 1250
85.9375 273.438 1579
31.25 296.875 1713
-289.062 54.6875 2040
125 -250 1421
-101.562 250 1601
-132.812 343.75 1624
-140.625 62.5 1245
-382.812 -39.0625 1189
-289.062 250 1713
-187.5 250 1579
-500 -328.125 1145
23.4375 289.062 1731
54.6875 257.812 1609
101.562 -203.125 1464
62.5 250 1609
187.5 78.125 1177
-296.875 54.6875 2053
39.0625 265.625 1609
257.812 -148.438 1458
-171.875 156.25 1349
-304.688 54.6875 2349
125 203.125 1354
-46.875 187.5 1343
-218.75 164.062 1359
-54.6875 351.562 1632
234.375 164.062 2271
54.6875 226.562 1663
70.3125 257.812 1616
-7.8125 226.562 1639
-46.875 226.562 1616
-78.125 281.25 1722
23.4375 242.188 1639
23.4375 -328.125 1354
476.562 -62.5 2859
23.4375 226.562 1639
54.6875 -328.125 1354
-109.375 242.188 1601
-429.688 -195.312 1126
-156.25 -281.25 1543
-117.188 -304.688 1647
-195.312 265.625 1572
-179.688 31.25 1177
195.312 78.125 1169
-195.312 -343.75 1398
351.562 -187.5 3269
-281.25 125 1766
62.5 -210.938 1458
398.438 -242.188 3433
-39.0625 226.562 1632
-164.062 179.688 1572
78.125 218.75 1663
-132.812 273.438 1722
93.75 226.562 1663
39.0625 62.5 1173
-62.5 31.25 1173
31.25 359.375 1639
-125 250 1616
-257.812 15.625 1173
304.688 -203.125 3399
289.062 -312.5 3365
31.25 218.75 1663
484.375 -406.25 2958
23.4375 250 1632
46.875 -101.562 1264
-468.75 -54.6875 1202
-23.4375 304.688 1705
492.188 -54.6875 2541
-218.75 31.25 1177
70.3125 218.75 1616
-414.062 -187.5 1123
234.375 -265.625 3468
-406.25 70.3125 1981
-437.5 179.688 1748
7.8125 -343.75 1338
328.125 -210.938 3433
-164.062 31.25 1177
-453.125 218.75 1713
23.4375 234.375 1639
-468.75 -390.625 1264
-39.0625 187.5 1349
-367.188 -265.625 1169
62.5 375 1639
445.312 -234.375 3433
31.25 234.375 1639
-148.438 54.6875 1177
-304.688 195.312 1671
62.5 195.312 1343
-54.6875 46.875 1173
-85.9375 242.188 1601
187.5 218.75 1376
-382.812 78.125 1981
-171.875 273.438 1722
-437.5 140.625 1823
-78.125 234.375 1639
468.75 -187.5 3269
140.625 195.312 1349
39.0625 -62.5 1288
85.9375 210.938 1349
78.125 62.5 1169
93.75 -437.5 1250
46.875 226.562 1663
-320.312 62.5 2349
78.125 -62.5 1273
-226.562 273.438 1550
-132.812 250 1601
-390.625 -46.875 1202
437.5 -375 3120
226.562 171.875 2256
-382.812 -46.875 1197
-78.125 218.75 1624
-54.6875 281.25 1722
273.438 -78.125 1365
-203.125 54.6875 1245
117.188 -437.5 1250
-23.4375 289.062 1731
289.062 -257.812 3539
-296.875 218.75 1688
-179.688 156.25 1349
-390.625 39.0625 2053
-132.812 257.812 1601
-203.125 -187.5 1370
70.3125 250 1639
0 289.062 1572
-140.625 273.438 1731
445.312 -375 3092
-85.9375 234.375 1616
-109.375 250 1616
234.375 281.25 2040
62.5 257.812 1616
117.188 -250 1421
460.938 -375 3010
85.9375 296.875 1579
382.812 -265.625 3399
-203.125 203.125 1655
-132.812 15.625 1181
39.0625 -54.6875 1283
-15.625 -179.688 1464
-210.938 242.188 1601
343.75 -250 3468
109.375 78.125 1181
484.375 -226.562 2701
156.25 70.3125 1169
492.188 -312.5 2789
203.125 187.5 1333
265.625 -117.188 1421
54.6875 406.25 1748
179.688 -242.188 1632
46.875 273.438 1601
-359.375 -148.438 1097
85.9375 273.438 1609
-203.125 226.562 1594
31.25 289.062 1572
-23.4375 335.938 1655
406.25 -179.688 3300
171.875 -406.25 3208
15.625 -335.938 1349
-250 23.4375 1173
-101.562 31.25 1173
-23.4375 70.3125 1185
-15.625 250 1609
125 -218.75 1572
156.25 -210.938 1557
70.3125 -437.5 1255
-406.25 -210.938 1119
39.0625 226.562 1663
-328.125 -148.438 1094
15.625 -343.75 1338
7.8125 242.188 1639
85.9375 -437.5 1255
-343.75 46.875 2065
-476.562 242.188 1680
-132.812 -312.5 3468
226.562 -234.375 1639
-398.438 -203.125 1123
-23.4375 265.625 1609
125 171.875 1317
0 218.75 1671
-54.6875 242.188 1632
15.625 -445.312 1255
140.625 -62.5 1307
195.312 -273.438 3503
117.188 203.125 1354
7.8125 218.75 1671
-351.562 117.188 1757
-125 -304.688 3503
-125 257.812 1616
-312.5 85.9375 1993
-117.188 -312.5 3468
117.188 -445.312 1250
-78.125 203.125 1586
-117.188 250 1616
93.75 273.438 1516
-195.312 242.188 1616
492.188 -359.375 2744
-304.688 62.5 2365
-367.188 -39.0625 1206
7.8125 -171.875 1452
250 125 2349
-250 -93.75 1197
-320.312 -39.0625 1210
78.125 296.875 1579
-117.188 281.25 1722
-125 62.5 1241
-23.4375 242.188 1624
-367.188 -31.25 1197
-54.6875 226.562 1632
-7.8125 -179.688 1464
-101.562 179.688 1349
-46.875 289.062 1713
15.625 289.062 1572
62.5 234.375 1655
125 -460.938 1268
476.562 -406.25 3092
39.0625 218.75 1655
-164.062 234.375 1564
-343.75 195.312 1663
-500 203.125 1516
-210.938 -242.188 1292
23.4375 296.875 1572
171.875 -273.438 3503
109.375 -281.25 1392
-70.3125 351.562 1632
-7.8125 265.625 1616
210.938 242.188 2129
-265.625 -46.875 1173
-31.25 265.625 1609
-93.75 242.188 1601
-351.562 -226.562 1165
54.6875 250 1632
-39.0625 195.312 1688
-335.938 15.625 1173
-148.438 265.625 1739
-117.188 273.438 1731
265.625 85.9375 1185
-226.562 46.875 1241
-265.625 -23.4375 1206
-312.5 -39.0625 1214
-234.375 281.25 1557
-85.9375 62.5 1181
78.125 -46.875 1278
-265.625 -375 1496
-15.625 226.562 1624
7.8125 273.438 1601
453.125 -109.375 2984
54.6875 257.812 1632
23.4375 218.75 1671
-382.812 -140.625 1101
-46.875 187.5 1349
-304.688 -156.25 1097
234.375 -156.25 1477
-93.75 62.5 1177
-320.312 70.3125 1981
289.062 85.9375 1177
-195.312 250 1586
335.938 -250 3468
-187.5 218.75 1639
62.5 85.9375 1236
-7.8125 312.5 1696
62.5 -101.562 1250
101.562 -437.5 1250
-140.625 257.812 1594
7.8125 226.562 1663
-78.125 351.562 1632
23.4375 289.062 1572
-257.812 -7.8125 1185
-78.125 281.25 1722
460.938 -234.375 3433
-31.25 54.6875 1177
-304.688 140.625 1766
70.3125 296.875 1579
0 265.625 1609
85.9375 281.25 1594
-468.75 117.188 1883
281.25 -257.812 3539
-15.625 140.625 1264
54.6875 218.75 1594
78.125 281.25 1594
15.625 359.375 1639
-15.625 210.938 1671
-148.438 -109.375 1338
-15.625 171.875 1343
-312.5 -31.25 1206
-328.125 -31.25 1202
85.9375 -78.125 1273
-70.3125 -195.312 1483
-273.438 -375 1496
0 -171.875 1452
15.625 234.375 1639
39.0625 250 1639
171.875 -242.188 1632
437.5 -367.188 3178
-281.25 -375 1489
328.125 -250 3503
-70.3125 257.812 1609
-78.125 257.812 1601
390.625 -242.188 3433
85.9375 234.375 1632
-210.938 218.75 1550
-484.375 187.5 1713
460.938 -93.75 2984
-187.5 242.188 1616
437.5 -234.375 3468
-234.375 210.938 1458
78.125 -171.875 1470
-179.688 273.438 1722
257.812 148.438 2317
-39.0625 257.812 1594
-328.125 -39.0625 1210
-171.875 265.625 1731
-460.938 -54.6875 1202
-445.312 -218.75 1165
-109.375 -304.688 1655
-62.5 218.75 1671
15.625 250 1609
78.125 -437.5 1255
54.6875 289.062 1579
62.5 -171.875 1464
-296.875 140.625 1757
54.6875 85.9375 1236
31.25 -328.125 1354
445.312 -125 3092
125 -437.5 1250
-421.875 62.5 1993
-54.6875 -187.5 1470
-203.125 -312.5 1354
-367.188 -210.938 1157
-39.0625 242.188 1632
-414.062 -203.125 1123
-39.0625 -453.125 1264
0 359.375 1639
-453.125 15.625 1177
-281.25 156.25 1748
15.625 289.062 1572
-226.562 164.062 1349
0 242.188 1632
-39.0625 164.062 1328
-101.562 242.188 1601
109.375 -250 1421
78.125 273.438 1601
210.938 -179.688 1523
-93.75 -273.438 1632
39.0625 273.438 1601
-54.6875 281.25 1722
-429.688 -359.375 1206
-148.438 273.438 1722
-195.312 -218.75 1415
70.3125 273.438 1601
-390.625 78.125 1959
-54.6875 187.5 1349
187.5 -273.438 3503
-85.9375 281.25 1722
101.562 85.9375 1177
234.375 -234.375 1639
31.25 226.562 1663
109.375 203.125 1338
-171.875 242.188 1609
218.75 -234.375 1632
31.25 304.688 1713
-367.188 -140.625 1101
0 -179.688 1464
242.188 -218.75 1609
226.562 -265.625 3539
304.688 -265.625 3433
15.625 -171.875 1452
-15.625 289.062 1579
281.25 -39.0625 1312
62.5 218.75 1601
-125 273.438 1731
-351.562 46.875 2065
257.812 132.812 2349
-460.938 -367.188 1202
46.875 -445.312 1250
-281.25 54.6875 1250
15.625 234.375 1639
-46.875 226.562 1632
7.8125 -335.938 1349
-140.625 250 1550
62.5 382.812 1639
-484.375 359.375 1748
-484.375 -7.8125 1165
54.6875 234.375 1639
-7.8125 265.625 1616
484.375 -414.062 2933
101.562 203.125 1338
46.875 -54.6875 1283
23.4375 234.375 1639
70.3125 -39.0625 1264
-468.75 -46.875 1193
109.375 -210.938 1445
31.25 390.625 1843
46.875 273.438 1601
-31.25 242.188 1594
-289.062 -375 1489
46.875 -171.875 1464
-179.688 -367.188 1489
-78.125 70.3125 1241
23.4375 -343.75 1338
101.562 70.3125 1169
0 78.125 1189
-23.4375 226.562 1671
39.0625 -171.875 1458
-257.812 -23.4375 1206
46.875 257.812 1601
-226.562 265.625 1543
-234.375 -132.812 1223
-289.062 54.6875 2065
70.3125 296.875 1579
-62.5 281.25 1731
23.4375 265.625 1609
-31.25 265.625 1609
23.4375 -328.125 1354
7.8125 -445.312 1255
460.938 -359.375 3037
-15.625 -179.688 1464
62.5 -437.5 1255
218.75 -265.625 3539
-179.688 265.625 1722
-54.6875 226.562 1632
85.9375 234.375 1632
382.812 -273.438 3365
7.8125 289.062 1572
-320.312 70.3125 1981
117.188 -265.625 1415
0 218.75 1671
78.125 234.375 1632
-148.438 62.5 1245
-304.688 218.75 1688
0 226.562 1671
-156.25 265.625 1731
-445.312 218.75 1705
148.438 -179.688 1496
39.0625 218.75 1655
-367.188 39.0625 2053
-382.812 -234.375 1149
-46.875 257.812 1609
-93.75 273.438 1731
-132.812 -304.688 3503
23.4375 62.5 1173
-359.375 226.562 1688
-210.938 54.6875 1250
-179.688 -242.188 1496
-257.812 203.125 1445
62.5 296.875 1579
7.8125 -343.75 1338
-171.875 273.438 1722
-70.3125 -187.5 1464
-164.062 -281.25 1516
70.3125 -171.875 1464
-164.062 171.875 1354
-109.375 242.188 1609
164.062 -242.188 1624
-7.8125 242.188 1632
-164.062 265.625 1731
250 -179.688 1529
-78.125 265.625 1601
429.688 -234.375 3468
46.875 250 1632
39.0625 250 1639
257.812 -226.562 1632
54.6875 382.812 1639
-117.188 281.25 1722
-195.312 335.938 1632
-218.75 242.188 1509
484.375 -46.875 2541
-312.5 140.625 1776
-203.125 343.75 1632
-406.25 -46.875 1197
-140.625 226.562 1564
-85.9375 -273.438 1439
-179.688 -359.375 1477
-195.312 242.188 1616
-187.5 250 1601
-492.188 -414.062 1292
-187.5 -234.375 1445
476.562 -226.562 3433
-93.75 242.188 1601
-335.938 148.438 1748
15.625 265.625 1601
-382.812 -156.25 1094
-15.625 -453.125 1259
-382.812 -218.75 1161
-15.625 265.625 1616
-23.4375 226.562 1671
7.8125 234.375 1639
0 -453.125 1255
-62.5 242.188 1632
-335.938 -31.25 1202
-148.438 179.688 1359
-132.812 250 1601
-273.438 -39.0625 1193
-78.125 257.812 1601
31.25 78.125 1173
-226.562 328.125 1632
-164.062 39.0625 1181
-31.25 218.75 1663
117.188 -250 1421
289.062 0 1259
31.25 -445.312 1250
39.0625 257.812 1609
-492.188 187.5 1496
70.3125 218.75 1616
-226.562 -148.438 1288
-54.6875 289.062 1713
210.938 179.688 1322
-429.688 -273.438 1259
-375 171.875 1731
-195.312 -203.125 1421
-7.8125 289.062 1579
-62.5 351.562 1632
-445.312 -156.25 1094
-359.375 -156.25 1097
-492.188 -164.062 1097
23.4375 -445.312 1250
93.75 203.125 1343
85.9375 257.812 1616
-109.375 179.688 1354
-140.625 257.812 1594
15.625 296.875 1572
-242.188 -70.3125 1268
109.375 85.9375 1181
-281.25 -148.438 1094
-85.9375 257.812 1609
-218.75 46.875 1185
23.4375 -195.312 1483
46.875 -39.0625 1264
-148.438 -281.25 1632
-203.125 265.625 1579
289.062 -226.562 3468
62.5 289.062 1579
23.4375 -171.875 1452
-125 281.25 1722
70.3125 281.25 1579
-257.812 70.3125 1264
-70.3125 218.75 1624
210.938 -234.375 1632
445.312 -265.625 3333
-85.9375 70.3125 1245
39.0625 -437.5 1259
-132.812 273.438 1722
-148.438 273.438 1722
-203.125 187.5 1594
31.25 250 1632
-320.312 -39.0625 1210
31.25 187.5 1349
-39.0625 242.188 1632
-484.375 -382.812 1255
-492.188 -375 1115
-171.875 242.188 1609
132.812 187.5 1343
109.375 -437.5 1250
-23.4375 289.062 1731
7.8125 320.312 1688
-54.6875 -203.125 1489
296.875 46.875 1202
-304.688 195.312 1671
-218.75 218.75 1496
-187.5 335.938 1632
15.625 -328.125 1354
320.312 -250 3503
-492.188 -7.8125 1165
39.0625 398.438 1833
-93.75 234.375 1609
328.125 -250 3503
-179.688 335.938 1632
218.75 101.562 1241
-31.25 140.625 1264
-203.125 -179.688 1365
-351.562 -156.25 1094
7.8125 250 1616
85.9375 273.438 1609
-7.8125 -179.688 1464
-39.0625 -187.5 1464
109.375 -250 1421
62.5 273.438 1616
468.75 -328.125 3064
-195.312 250 1586
-390.625 -132.812 1108
-203.125 242.188 1609
-328.125 148.438 1757
-289.062 226.562 1722
187.5 -250 1663
78.125 273.438 1601
-93.75 281.25 1722
-203.125 335.938 1632
492.188 -31.25 2522
-453.125 -359.375 1202
-195.312 -31.25 1227
-375 -156.25 1094
-31.25 250 1594
-7.8125 335.938 1663
-304.688 -31.25 1206
-140.625 -304.688 1601
492.188 -23.4375 2522
-179.688 242.188 1616
375 -117.188 3064
476.562 -328.125 3037
382.812 -242.188 3433
-39.0625 195.312 1688
-265.625 242.188 1731
23.4375 359.375 1639
-179.688 273.438 1722
15.625 289.062 1572
-187.5 265.625 1579
210.938 -171.875 1503
-250 -46.875 1177
-54.6875 187.5 1349
-406.25 39.0625 2053
-101.562 218.75 1579
296.875 39.0625 1214
-125 312.5 1663
-390.625 78.125 1959
54.6875 218.75 1594
-343.75 -31.25 1202
-312.5 226.562 1688
335.938 -250 3468
7.8125 289.062 1572
-148.438 328.125 1647
-62.5 187.5 1343
-125 250 1616
-109.375 62.5 1177
0 273.438 1572
-453.125 -156.25 1097
-7.8125 226.562 1632
210.938 -265.625 3539
-414.062 70.3125 1981
265.625 179.688 2256
273.438 -70.3125 1359
-242.188 -242.188 1210
-7.8125 273.438 1579
-476.562 -54.6875 1202
109.375 70.3125 1169
-70.3125 46.875 1173
-132.812 179.688 1354
-187.5 -343.75 1421
-312.5 -23.4375 1193
132.812 -429.688 1255
23.4375 -187.5 1489
-39.0625 70.3125 1181
-39.0625 0 1210
46.875 382.812 1639
-148.438 281.25 1713
31.25 273.438 1609
-132.812 39.0625 1181
70.3125 289.062 1579
-23.4375 281.25 1739
-375 -39.0625 1202
226.562 226.562 2143
140.625 93.75 1236
-46.875 210.938 1655
273.438 -257.812 3539
-242.188 -187.5 1197
-54.6875 218.75 1671
-171.875 -359.375 1489
-125 -304.688 3503
250 156.25 2301
-85.9375 265.625 1609
-15.625 265.625 1616
-93.75 -273.438 1632
-15.625 273.438 1616
445.312 -218.75 3468
273.438 375 1883
-109.375 257.812 1616
-484.375 -164.062 1097
453.125 -203.125 3365
-46.875 54.6875 1177
-226.562 -273.438 1273
-218.75 -226.562 1223
54.6875 203.125 1338
-195.312 54.6875 1245
-296.875 -375 1489
0 289.062 1572
-234.375 265.625 1536
-367.188 226.562 1705
-242.188 210.938 1452
-171.875 171.875 1354
257.812 -140.625 1464
273.438 85.9375 1181
46.875 414.062 1804
-265.625 -23.4375 1206
78.125 234.375 1632
-437.5 -351.562 1206
242.188 -210.938 1586
484.375 -359.375 2744
-164.062 54.6875 1241
23.4375 -328.125 1354
-62.5 140.625 1264
62.5 296.875 1579
265.625 -257.812 3539
148.438 -281.25 3503
-437.5 -46.875 1202
-296.875 93.75 1833
281.25 -46.875 1322
476.562 -406.25 3092
-312.5 -375 1496
7.8125 226.562 1663
-296.875 117.188 1785
421.875 -250 3433
156.25 -242.188 1624
39.0625 382.812 1639
-101.562 242.188 1601
125 429.688 1785
242.188 -281.25 3468
-148.438 257.812 1594
-39.0625 265.625 1594
-39.0625 140.625 1259
31.25 242.188 1632
-500 109.375 1452
-328.125 -39.0625 1210
-210.938 -296.875 1328
78.125 210.938 1349
-203.125 -203.125 1343
-453.125 -164.062 1097
101.562 304.688 1523
148.438 -273.438 1671
54.6875 -171.875 1464
-132.812 257.812 1601
125 93.75 1232
-46.875 210.938 1655
-210.938 195.312 1529
218.75 -234.375 1632
-492.188 -335.938 1141
-320.312 70.3125 1981
70.3125 445.312 1766
-351.562 140.625 1739
85.9375 203.125 1349
414.062 -242.188 3433
-70.3125 171.875 1343
31.25 -171.875 1452
-62.5 281.25 1731
-289.062 93.75 1981
31.25 265.625 1609
31.25 398.438 1833
-125 171.875 1354
-382.812 -39.0625 1197
78.125 -171.875 1470
281.25 -210.938 3399
484.375 -406.25 2958
-39.0625 218.75 1655
54.6875 -39.0625 1264
203.125 -171.875 1496
-46.875 -453.125 1268
78.125 281.25 1594
320.312 -171.875 3178
-437.5 -39.0625 1193
-70.3125 218.75 1624
15.625 226.562 1663
0 -343.75 1343
-140.625 62.5 1245
-328.125 -375 1489
-492.188 109.375 1452
-195.312 218.75 1601
-23.4375 265.625 1609
-62.5 218.75 1671
-414.062 -390.625 1307
-445.312 -46.875 1197
-187.5 273.438 1722
476.562 -54.6875 2859
203.125 -179.688 1516
-7.8125 359.375 1639
-273.438 -164.062 1097
-335.938 -39.0625 1206
70.3125 62.5 1169
-476.562 -15.625 1161
54.6875 -437.5 1255
398.438 -210.938 3433
39.0625 257.812 1609
-117.188 -195.312 1470
85.9375 296.875 1579
31.25 257.812 1609
31.25 250 1632
70.3125 234.375 1632
-257.812 -23.4375 1206
85.9375 218.75 1663
-54.6875 -187.5 1470
375 -242.188 3468
85.9375 250 1639
-148.438 304.688 1671
-281.25 23.4375 1173
23.4375 281.25 1579
70.3125 281.25 1579
226.562 171.875 2256
-203.125 257.812 1579
54.6875 296.875 1579
39.0625 62.5 1173
-156.25 343.75 1632
210.938 179.688 1322
-343.75 85.9375 1843
-187.5 46.875 1181
-171.875 335.938 1632
-351.562 195.312 1671
7.8125 296.875 1572
-195.312 328.125 1632
-46.875 187.5 1349
296.875 54.6875 1197
85.9375 -179.688 1483
-265.625 140.625 1359
-250 -164.062 1157
85.9375 234.375 1632
-304.688 140.625 1766
-46.875 242.188 1632
-46.875 265.625 1609
-132.812 234.375 1564
-234.375 -93.75 1214
-109.375 -273.438 1632
437.5 -273.438 3333
70.3125 250 1639
203.125 187.5 1333
-234.375 46.875 1245
0 234.375 1632
164.062 -242.188 1624
-218.75 -140.625 1292
-23.4375 289.062 1731
-343.75 -351.562 1433
-171.875 179.688 1572
-85.9375 257.812 1609
414.062 -195.312 3365
78.125 257.812 1639
78.125 304.688 1579
-195.312 203.125 1639
7.8125 234.375 1639
0 -445.312 1259
-328.125 -31.25 1202
-15.625 203.125 1671
23.4375 -335.938 1349
-414.062 15.625 1177
406.25 156.25 2301
421.875 -234.375 3433
-78.125 210.938 1616
-343.75 -148.438 1097
-70.3125 234.375 1632
23.4375 250 1632
-156.25 273.438 1722
39.0625 406.25 1813
-31.25 -453.125 1264
0 250 1616
-351.562 -148.438 1097
23.4375 226.562 1663
54.6875 273.438 1616
484.375 -218.75 2680
-492.188 187.5 1496
7.8125 265.625 1601
-421.875 62.5 1993
-375 0 1165
85.9375 257.812 1616
-210.938 -312.5 1354
-445.312 132.812 1785
-39.0625 54.6875 1177
-31.25 -179.688 1458
-484.375 242.188 1680
7.8125 -328.125 1359
-171.875 242.188 1609
-203.125 250 1579
-468.75 -421.875 1255
-85.9375 218.75 1601
0 218.75 1671
62.5 -164.062 1445
437.5 -351.562 3178
-101.562 62.5 1177
-234.375 289.062 1579
351.562 -218.75 3468
-148.438 343.75 1632
-54.6875 -179.688 1445
-46.875 218.75 1655
-390.625 -203.125 1138
-195.312 -328.125 1392
-46.875 70.3125 1181
-132.812 273.438 1722
320.312 -250 3503
-117.188 46.875 1177
281.25 -31.25 1297
62.5 273.438 1616
-7.8125 218.75 1671
-210.938 265.625 1594
31.25 -328.125 1354
-351.562 -31.25 1202
62.5 -312.5 1359
-156.25 -304.688 1579
-414.062 -46.875 1202
-218.75 226.562 1496
-242.188 218.75 1464
-7.8125 -445.312 1264
-7.8125 226.562 1632
125 -453.125 1255
23.4375 273.438 1586
-93.75 281.25 1722
7.8125 62.5 1177
125 -453.125 1255
-351.562 85.9375 1959
31.25 382.812 1639
62.5 250 1632
-132.812 281.25 1713
-367.188 -273.438 1165
218.75 -265.625 3539
-312.5 62.5 2349
-296.875 39.0625 1241
-31.25 -453.125 1264
-242.188 203.125 1445
46.875 296.875 1586
-437.5 -156.25 1101
-210.938 -250 1268
-93.75 70.3125 1241
-460.938 -273.438 1259
39.0625 148.438 1307
-468.75 -156.25 1097
62.5 281.25 1579
-70.3125 289.062 1713
125 -429.688 1259
-476.562 -164.062 1097
31.25 273.438 1609
250 -187.5 1543
140.625 -273.438 1663
0 289.062 1572
453.125 -156.25 3149
-406.25 7.8125 1169
0 296.875 1572
54.6875 289.062 1579
46.875 218.75 1609
101.562 203.125 1338
23.4375 -171.875 1452
-429.688 -156.25 1097
-85.9375 265.625 1609
-93.75 257.812 1609
-7.8125 289.062 1579
-15.625 273.438 1616
-382.812 -210.938 1161
-234.375 281.25 1557
132.812 93.75 1236
218.75 179.688 2241
492.188 -414.062 2933
-23.4375 242.188 1624
-398.438 39.0625 2053
-187.5 265.625 1579
-46.875 242.188 1632
210.938 -234.375 1632
-62.5 187.5 1343
-109.375 250 1616
-62.5 312.5 1688
-335.938 148.438 1748
-62.5 289.062 1713
39.0625 -171.875 1458
-476.562 -46.875 1189
101.562 -429.688 1255
195.312 -179.688 1509
-62.5 -187.5 1464
-101.562 171.875 1349
23.4375 257.812 1609
148.438 -242.188 1624
-257.812 -70.3125 1165
-398.438 78.125 1970
-414.062 70.3125 1981
39.0625 234.375 1639
39.0625 289.062 1579
-429.688 -390.625 1302
-78.125 281.25 1722
-46.875 -179.688 1452
-257.812 78.125 1268
-23.4375 265.625 1609
-148.438 226.562 1564
203.125 -265.625 3539
-156.25 195.312 1564
250 281.25 2040
15.625 265.625 1601
-156.25 62.5 1245
-187.5 210.938 1632
-250 125 1317
7.8125 -445.312 1255
328.125 -179.688 3269
187.5 218.75 1376
62.5 234.375 1655
-250 132.812 1322
-234.375 296.875 1594
210.938 210.938 2184
23.4375 -54.6875 1283
23.4375 250 1632
-7.8125 -335.938 1354
257.812 -257.812 3539
-398.438 -218.75 1123
-335.938 -375 1496
7.8125 78.125 1185
-109.375 46.875 1177
-148.438 257.812 1594
78.125 218.75 1663
-85.9375 132.812 1264
-39.0625 250 1601
148.438 -273.438 1671
-7.8125 250 1609
-7.8125 179.688 1349
445.312 -351.562 3120
234.375 78.125 1181
-390.625 -39.0625 1197
203.125 78.125 1181
-328.125 70.3125 1981
187.5 195.312 1333
-62.5 226.562 1632
-54.6875 187.5 1349
109.375 -453.125 1250
-15.625 242.188 1624
85.9375 203.125 1349
-226.562 31.25 1177
-101.562 -101.562 1322
-171.875 218.75 1579
195.312 -265.625 1663
-54.6875 70.3125 1185
15.625 218.75 1663
-7.8125 234.375 1632
-78.125 242.188 1609
-398.438 -46.875 1202
-23.4375 273.438 1609
-164.062 265.625 1731
-187.5 203.125 1601
-101.562 -273.438 1632
-210.938 187.5 1543
-179.688 234.375 1616
-195.312 273.438 1579
-179.688 -250 1489
367.188 -250 3433
-187.5 273.438 1722
46.875 273.438 1601
-234.375 164.062 1354
-296.875 93.75 1833
62.5 -39.0625 1264
-7.8125 -171.875 1458
15.625 -445.312 1255
-359.375 -257.812 1177
-179.688 312.5 1655
-296.875 -23.4375 1193
-195.312 265.625 1579
-468.75 -164.062 1097
-500 -164.062 1094
31.25 257.812 1609
-437.5 -273.438 1259
218.75 187.5 2226
-281.25 -140.625 1097
54.6875 54.6875 1169
78.125 242.188 1632
85.9375 296.875 1579
-195.312 226.562 1594
54.6875 273.438 1616
-281.25 93.75 1981
-85.9375 351.562 1632
203.125 -234.375 1624
-31.25 210.938 1655
-46.875 140.625 1264
-421.875 -390.625 1302
-54.6875 54.6875 1177
-304.688 54.6875 2065
-375 -210.938 1157
-390.625 -250 1157
484.375 -39.0625 2522
-15.625 226.562 1624
-140.625 273.438 1731
460.938 -328.125 3064
-54.6875 242.188 1632
-31.25 265.625 1609
156.25 -242.188 1624
-304.688 -125 1112
-125 62.5 1241
93.75 265.625 1509
-210.938 -156.25 1328
-320.312 -31.25 1202
-343.75 -242.188 1173
-203.125 242.188 1609
46.875 -171.875 1464
-117.188 257.812 1616
445.312 -335.938 3149
-15.625 -179.688 1464
-195.312 210.938 1639
7.8125 273.438 1601
195.312 -171.875 1496
15.625 273.438 1586
-85.9375 -203.125 1483
-289.062 148.438 1757
-117.188 -273.438 1624
7.8125 -148.438 1410
-218.75 -132.812 1297
15.625 250 1609
15.625 -335.938 1349
210.938 179.688 1322
234.375 117.188 2381
-15.625 78.125 1185
70.3125 -437.5 1255
-187.5 304.688 1663
62.5 -156.25 1439
289.062 78.125 1177
70.3125 367.188 1639
265.625 -226.562 1632
117.188 -429.688 1259
0 265.625 1609
-203.125 203.125 1655
-78.125 218.75 1624
-250 -226.562 1189
0 226.562 1671
-343.75 -375 1489
-132.812 250 1601
-375 -226.562 1161
359.375 -242.188 3468
-93.75 351.562 1632
-500 -46.875 1165
-62.5 257.812 1601
-406.25 -46.875 1197
-335.938 -242.188 1202
250 156.25 2301
-39.0625 210.938 1655
-109.375 273.438 1731
-109.375 -273.438 1632
-39.0625 226.562 1632
234.375 179.688 2256
-257.812 -46.875 1177
-117.188 273.438 1731
7.8125 -328.125 1359
31.25 398.438 1833
-78.125 226.562 1632
367.188 -242.188 3468
140.625 -242.188 1616
-125 273.438 1731
-171.875 265.625 1731
23.4375 382.812 1632
70.3125 257.812 1609
0 234.375 1632
70.3125 445.312 1766
-125 226.562 1564
-15.625 359.375 1639
445.312 -343.75 3149
-156.25 257.812 1601
85.9375 -164.062 1458
-148.438 62.5 1245
148.438 -242.188 1624
-54.6875 265.625 1766
-484.375 -46.875 1189
62.5 -93.75 1255
31.25 234.375 1639
414.062 -234.375 3468
70.3125 234.375 1632
54.6875 -437.5 1255
78.125 296.875 1579
78.125 414.062 1696
312.5 -250 3503
-296.875 414.062 1722
-7.8125 289.062 1579
-273.438 62.5 1259
-187.5 242.188 1616
-351.562 46.875 2065
85.9375 70.3125 1173
-125 46.875 1181
-421.875 -359.375 1210
-312.5 54.6875 2078
62.5 234.375 1655
-265.625 15.625 1173
242.188 -203.125 1572
-179.688 250 1601
-93.75 257.812 1609
-257.812 23.4375 1173
54.6875 281.25 1586
93.75 281.25 1516
-85.9375 -195.312 1477
-390.625 7.8125 1169
-406.25 -54.6875 1181
-304.688 226.562 1696
31.25 -171.875 1452
125 70.3125 1173
-210.938 242.188 1601
78.125 203.125 1349
468.75 -78.125 2908
-390.625 -234.375 1149
406.25 -234.375 3468
476.562 -398.438 3120
164.062 78.125 1177
-132.812 -39.0625 1241
70.3125 242.188 1632
23.4375 273.438 1586
-250 117.188 1307
-156.25 273.438 1722
78.125 234.375 1632
-351.562 -125 1115
-54.6875 250 1601
265.625 -101.562 1398
-7.8125 218.75 1671
-46.875 203.125 1688
-257.812 62.5 1259
-101.562 351.562 1632
54.6875 62.5 1169
304.688 15.625 1236
-70.3125 187.5 1343
-218.75 54.6875 1245
46.875 273.438 1601
-320.312 70.3125 1981
-39.0625 289.062 1722
-187.5 -218.75 1439
23.4375 78.125 1173
-296.875 15.625 1173
101.562 93.75 1236
-39.0625 242.188 1632
70.3125 296.875 1579
-23.4375 359.375 1639
31.25 -335.938 1349
0 148.438 1264
7.8125 -335.938 1349
-492.188 -46.875 1189
-125 304.688 1680
-320.312 -23.4375 1193
-242.188 195.312 1433
-390.625 -23.4375 1181
-70.3125 226.562 1639
-398.438 -39.0625 1197
265.625 148.438 2317
-140.625 343.75 1632
460.938 -171.875 3149
-273.438 -23.4375 1206
-343.75 -39.0625 1206
281.25 304.688 2005
-31.25 242.188 1594
-85.9375 234.375 1616
-218.75 265.625 1572
343.75 -218.75 3468
-210.938 335.938 1632
7.8125 -171.875 1452
93.75 85.9375 1177
-476.562 -156.25 1097
-171.875 54.6875 1189
-164.062 343.75 1632
54.6875 234.375 1639
-62.5 242.188 1632
-320.312 -375 1496
-171.875 -257.812 1523
-468.75 195.312 1705
46.875 -31.25 1255
398.438 -187.5 3333
312.5 -210.938 3433
-367.188 46.875 2053
46.875 281.25 1579
-265.625 46.875 1241
15.625 -343.75 1338
-226.562 242.188 1509
-140.625 281.25 1713
-31.25 265.625 1609
39.0625 296.875 1579
-257.812 -23.4375 1206
304.688 -250 3503
39.0625 273.438 1601
-46.875 250 1609
351.562 -242.188 3503
-85.9375 281.25 1722
-367.188 -156.25 1097
-15.625 289.062 1579
-187.5 171.875 1349
-54.6875 140.625 1264
-187.5 -367.188 1489
78.125 437.5 1757
23.4375 289.062 1572
-453.125 226.562 1705
15.625 351.562 1639
46.875 62.5 1173
281.25 85.9375 1177
-312.5 62.5 2349
375 -210.938 3433
-203.125 164.062 1343
140.625 -273.438 1663
-23.4375 78.125 1241
-289.062 93.75 1981
-7.8125 62.5 1181
195.312 -234.375 1624
-406.25 -296.875 1283
265.625 -109.375 1410
-335.938 -39.0625 1206
257.812 85.9375 1181
-7.8125 265.625 1616
46.875 -85.9375 1273
-414.062 -39.0625 1193
445.312 -117.188 3064
-453.125 -46.875 1197
-164.062 273.438 1722
125 -460.938 1268
-468.75 -359.375 1206
-23.4375 -179.688 1458
-289.062 7.8125 1173
-179.688 -242.188 1496
-234.375 273.438 1536
-46.875 226.562 1632
-195.312 273.438 1579
-78.125 242.188 1609
-210.938 265.625 1594
250 -257.812 3539
-328.125 70.3125 1981
-226.562 273.438 1550
-31.25 273.438 1609
-273.438 15.625 1173
-62.5 187.5 1343
70.3125 -171.875 1464
226.562 109.375 1250
484.375 -210.938 2680
-23.4375 226.562 1671
-156.25 187.5 1564
-39.0625 -179.688 1452
203.125 -234.375 1624
0 359.375 1639
-289.062 187.5 1688
-421.875 304.688 1624
-125 250 1616
-218.75 -234.375 1223
-39.0625 265.625 1594
-359.375 85.9375 1959
187.5 -265.625 1663
15.625 273.438 1586
-453.125 171.875 1785
7.8125 226.562 1663
-132.812 179.688 1354
242.188 85.9375 1185
265.625 140.625 2333
437.5 -335.938 3208
7.8125 250 1616
31.25 296.875 1572
23.4375 257.812 1609
-31.25 320.312 1663
-15.625 -171.875 1452
-117.188 179.688 1354
-414.062 39.0625 2040
31.25 289.062 1572
-31.25 -179.688 1458
-39.0625 320.312 1663
-54.6875 -453.125 1268
492.188 -335.938 2984
-195.312 265.625 1579
-203.125 265.625 1579
15.625 257.812 1609
-304.688 343.75 1616
-156.25 250 1601
23.4375 -171.875 1452
-218.75 289.062 1594
-125 179.688 1354
23.4375 390.625 1843
-195.312 -203.125 1421
-203.125 218.75 1601
-39.0625 296.875 1705
-273.438 164.062 1731
-218.75 -281.25 1292
-7.8125 296.875 1579
210.938 -265.625 3539
62.5 296.875 1579
54.6875 -171.875 1464
460.938 -85.9375 2958
-15.625 234.375 1624
-414.062 320.312 1616
70.3125 296.875 1579
-15.625 265.625 1616
-179.688 234.375 1616
54.6875 -164.062 1445
-398.438 -203.125 1123
-39.0625 289.062 1722
-179.688 210.938 1594
-78.125 257.812 1601
85.9375 257.812 1616
429.688 -195.312 3399
-406.25 -39.0625 1193
-31.25 359.375 1639
-70.3125 257.812 1609
46.875 -437.5 1255
-351.562 -375 1489
-15.625 250 1609
-179.688 171.875 1354
484.375 -328.125 3010
-117.188 -273.438 1624
7.8125 273.438 1601
-359.375 -242.188 1169
-296.875 218.75 1688
23.4375 234.375 1639
-335.938 148.438 1748
-195.312 -218.75 1415
242.188 125 2365
-70.3125 218.75 1624
31.25 -328.125 1354
-335.938 -257.812 1197
-125 257.812 1616
195.312 -265.625 1663
0 78.125 1189
445.312 -328.125 3149
-85.9375 242.188 1601
296.875 -250 3539
-125 -273.438 1624
-23.4375 320.312 1680
304.688 -195.312 3300
39.0625 273.438 1601
-281.25 -23.4375 1202
39.0625 218.75 1655
70.3125 304.688 1579
7.8125 -343.75 1338
-54.6875 203.125 1688
-351.562 85.9375 1959
0 -171.875 1452
-328.125 148.438 1757
54.6875 257.812 1632
-210.938 203.125 1529
-218.75 -164.062 1328
-132.812 289.062 1705
-453.125 179.688 1766
398.438 -93.75 2958
-367.188 -148.438 1097
-140.625 250 1550
46.875 -164.062 1445
-328.125 203.125 1663
375 -195.312 3300
140.625 -242.188 1616
-335.938 -31.25 1202
0 296.875 1572
-414.062 -226.562 1138
414.062 -203.125 3365
-7.8125 234.375 1632
367.188 -23.4375 2723
-218.75 179.688 1529
289.062 7.8125 1245
-39.0625 -195.312 1489
15.625 -187.5 1483
-406.25 -203.125 1123
328.125 -203.125 3399
218.75 179.688 2241
-445.312 39.0625 2028
78.125 203.125 1349
46.875 -257.812 1415
-85.9375 257.812 1609
-257.812 -31.25 1214
-242.188 179.688 1415
-46.875 234.375 1632
-15.625 296.875 1722
-148.438 335.938 1632
39.0625 281.25 1579
-62.5 -187.5 1464
-242.188 31.25 1173
-54.6875 -187.5 1470
234.375 -140.625 1458
234.375 -140.625 1458
-132.812 281.25 1713
468.75 -93.75 2984
117.188 93.75 1232
-62.5 265.625 1601
218.75 78.125 1177
140.625 93.75 1236
-273.438 -31.25 1210
-164.062 62.5 1250
210.938 78.125 1177
-195.312 171.875 1354
367.188 -210.938 3433
-203.125 226.562 1594
484.375 -437.5 2908
250 -226.562 1632
-460.938 -398.438 1259
-148.438 -39.0625 1241
-15.625 289.062 1579
-210.938 54.6875 1250
-476.562 171.875 1776
-460.938 -421.875 1255
31.25 273.438 1609
132.812 -242.188 1616
0 320.312 1688
328.125 -265.625 3433
54.6875 250 1632
-421.875 39.0625 2040
-62.5 -257.812 1433
-85.9375 281.25 1722
-460.938 -46.875 1193
-351.562 -132.812 1112
-273.438 93.75 1288
-23.4375 250 1601
-78.125 289.062 1705
-296.875 23.4375 1177
-179.688 54.6875 1245
-203.125 -179.688 1365
-156.25 257.812 1601
-78.125 -195.312 1477
-70.3125 210.938 1655
-23.4375 289.062 1731
-148.438 281.25 1713
-46.875 289.062 1713
-218.75 242.188 1509
-78.125 226.562 1632
31.25 296.875 1572
-54.6875 242.188 1632
-242.188 164.062 1365
23.4375 195.312 1349
85.9375 -62.5 1283
-453.125 -429.688 1250
70.3125 273.438 1601
-226.562 -148.438 1288
-54.6875 250 1601
-109.375 281.25 1722
-375 -31.25 1193
-164.062 257.812 1609
70.3125 242.188 1632
-156.25 343.75 1632
-156.25 226.562 1564
46.875 234.375 1639
-484.375 -351.562 1219
203.125 187.5 1333
-257.812 54.6875 1245
179.688 -265.625 1663
-187.5 -234.375 1445
-414.062 -195.312 1134
-445.312 -46.875 1197
-210.938 250 1586
39.0625 -437.5 1259
-62.5 242.188 1632
-7.8125 281.25 1579
-62.5 54.6875 1177
187.5 -234.375 1616
453.125 -226.562 3433
468.75 -70.3125 2908
46.875 281.25 1579
-265.625 -46.875 1173
0 226.562 1671
-15.625 -445.312 1268
-226.562 281.25 1564
-226.562 296.875 1594
460.938 -343.75 3010
7.8125 257.812 1616
-218.75 335.938 1632
195.312 -234.375 1624
62.5 218.75 1601
39.0625 250 1639
-335.938 -46.875 1177
15.625 250 1609
-93.75 46.875 1177
-109.375 195.312 1564
-46.875 210.938 1655
445.312 -148.438 3178
-132.812 -273.438 1624
-312.5 93.75 1823
484.375 -218.75 2680
-437.5 15.625 1177
234.375 -257.812 3503
-85.9375 46.875 1177
-351.562 15.625 1177
414.062 164.062 2271
281.25 -31.25 1297
257.812 -140.625 1464
179.688 164.062 1307
242.188 164.062 2286
304.688 -257.812 3433
-78.125 -187.5 1464
-78.125 281.25 1722
-226.562 328.125 1632
31.25 250 1632
62.5 -101.562 1250
-171.875 39.0625 1181
-460.938 -156.25 1097
-367.188 187.5 1663
343.75 -242.188 3503
-195.312 -367.188 1489
382.812 343.75 1947
-23.4375 242.188 1624
-187.5 328.125 1632
23.4375 296.875 1572
-109.375 242.188 1609
-46.875 226.562 1632
70.3125 85.9375 1236
78.125 304.688 1579
-15.625 -343.75 1349
-62.5 250 1601
-148.438 250 1594
-70.3125 54.6875 1177
187.5 -265.625 1663
85.9375 -171.875 1470
-390.625 -218.75 1134
7.8125 -328.125 1359
0 -445.312 1259
-429.688 -39.0625 1193
406.25 -234.375 3468
-429.688 304.688 1616
-62.5 203.125 1688
-351.562 -39.0625 1206
-93.75 70.3125 1241
117.188 70.3125 1173
-85.9375 289.062 1705
85.9375 203.125 1349
289.062 -250 3539
85.9375 257.812 1616
-265.625 -179.688 1115
-218.75 257.812 1529
-117.188 125 1292
445.312 -226.562 3433
335.938 -289.062 3399
85.9375 281.25 1594
-320.312 54.6875 2065
-31.25 226.562 1663
-62.5 289.062 1713
78.125 70.3125 1173
109.375 93.75 1236
-203.125 273.438 1713
54.6875 242.188 1632
62.5 -437.5 1255
-312.5 62.5 2349
-468.75 132.812 1731
-281.25 -156.25 1094
-109.375 257.812 1616
-39.0625 265.625 1594
-421.875 140.625 1863
-242.188 226.562 1483
437.5 -343.75 3208
132.812 -437.5 1250
85.9375 -437.5 1255
31.25 273.438 1609
-203.125 -367.188 1489
-85.9375 226.562 1616
62.5 242.188 1632
210.938 265.625 2078
156.25 93.75 1232
54.6875 257.812 1632
132.812 -242.188 1616
-359.375 -148.438 1097
-226.562 265.625 1543
-39.0625 273.438 1757
-257.812 -203.125 1153
15.625 257.812 1609
296.875 46.875 1202
-367.188 -375 1259
-125 250 1616
-148.438 273.438 1722
85.9375 218.75 1663
-203.125 265.625 1579
250 -171.875 1523
-46.875 273.438 1739
93.75 -429.688 1255
-93.75 281.25 1722
-70.3125 242.188 1609
7.8125 273.438 1601
148.438 78.125 1181
0 273.438 1572
-23.4375 289.062 1731
15.625 -171.875 1452
39.0625 -164.062 1445
-23.4375 210.938 1663
-468.75 281.25 1624
-320.312 218.75 1680
-421.875 -46.875 1202
492.188 -226.562 2701
492.188 -15.625 2522
7.8125 257.812 1616
-117.188 273.438 1731
250 -164.062 1503
70.3125 -164.062 1445
54.6875 296.875 1579
398.438 -234.375 3433
-23.4375 -445.312 1264
23.4375 273.438 1586
-257.812 70.3125 1264
-70.3125 187.5 1343
46.875 257.812 1601
-31.25 78.125 1241
-328.125 70.3125 1981
23.4375 250 1632
-62.5 70.3125 1232
39.0625 234.375 1639
39.0625 281.25 1579
234.375 -226.562 1616
85.9375 85.9375 1181
-468.75 -46.875 1193
257.812 140.625 2333
-70.3125 -187.5 1464
62.5 304.688 1579
-54.6875 226.562 1632
-492.188 -406.25 1119
-320.312 203.125 1655
-203.125 210.938 1601
-382.812 -148.438 1097
-210.938 226.562 1601
0 257.812 1616
62.5 257.812 1616
320.312 -164.062 3178
-39.0625 242.188 1632
-390.625 0 1165
-234.375 296.875 1594
7.8125 250 1616
54.6875 421.875 1739
265.625 85.9375 1185
250 132.812 2333
54.6875 234.375 1639
-296.875 226.562 1705
226.562 289.062 2028
-367.188 -31.25 1197
-335.938 234.375 1696
62.5 367.188 1639
7.8125 -171.875 1452
320.312 -187.5 3300
-281.25 93.75 1981
-132.812 250 1601
-289.062 23.4375 1173
-23.4375 234.375 1624
-171.875 273.438 1722
-46.875 265.625 1609
-156.25 273.438 1722
70.3125 304.688 1579
195.312 195.312 1333
-375 46.875 2053
-7.8125 132.812 1268
85.9375 242.188 1632
414.062 156.25 2286
-117.188 140.625 1317
-320.312 148.438 1757
273.438 -70.3125 1359
-148.438 281.25 1713
-117.188 242.188 1601
-132.812 46.875 1185
-125 -273.438 1624
-179.688 296.875 1680
-328.125 242.188 1688
-132.812 46.875 1185
-187.5 234.375 1609
23.4375 296.875 1572
109.375 281.25 1477
-343.75 -39.0625 1206
46.875 242.188 1632
265.625 148.438 2317
-406.25 -218.75 1119
-117.188 281.25 1722
-132.812 273.438 1722
78.125 218.75 1663
351.562 -242.188 3503
-281.25 15.625 1169
-31.25 234.375 1639
359.375 -242.188 3468
-328.125 203.125 1663
-328.125 265.625 1688
-171.875 265.625 1731
54.6875 218.75 1594
78.125 257.812 1639
-54.6875 359.375 1632
437.5 -367.188 3178
0 -171.875 1452
-312.5 -148.438 1094
0 -328.125 1359
-39.0625 226.562 1632
242.188 -164.062 1496
-359.375 132.812 1722
187.5 -171.875 1489
-132.812 257.812 1601
-70.3125 250 1609
-78.125 187.5 1354
-46.875 359.375 1624
281.25 -250 3539
-289.062 -23.4375 1197
-367.188 85.9375 1970
-343.75 -31.25 1202
62.5 296.875 1579
-54.6875 210.938 1671
-132.812 179.688 1354
-359.375 85.9375 1959
-250 46.875 1236
-179.688 -351.562 1458
46.875 296.875 1586
-398.438 203.125 1722
31.25 281.25 1579
-125 273.438 1731
-54.6875 -179.688 1445
-351.562 -226.562 1165
109.375 -273.438 1398
226.562 -265.625 3539
-335.938 -23.4375 1189
-109.375 70.3125 1245
-242.188 -226.562 1189
-234.375 312.5 1632
-148.438 343.75 1632
-359.375 -234.375 1169
-31.25 -179.688 1458
-23.4375 265.625 1609
-23.4375 296.875 1713
-125 343.75 1632
-226.562 335.938 1632
-23.4375 250 1601
-93.75 242.188 1601
-187.5 250 1601
-375 -156.25 1094
-179.688 265.625 1722
-304.688 -23.4375 1193
-226.562 265.625 1543
-226.562 54.6875 1245
-195.312 54.6875 1245
15.625 296.875 1572
-171.875 250 1609
140.625 78.125 1177
-210.938 -367.188 1483
351.562 -210.938 3433
-156.25 281.25 1713
31.25 273.438 1609
-328.125 -39.0625 1210
-226.562 -257.812 1255
-7.8125 265.625 1616
-117.188 351.562 1632
-117.188 351.562 1632
179.688 -234.375 1609
-398.438 -39.0625 1197
289.062 -7.8125 1268
23.4375 -328.125 1354
-210.938 -156.25 1328
78.125 -39.0625 1264
234.375 -257.812 3503
54.6875 304.688 1579
-93.75 289.062 1705
-15.625 234.375 1624
156.25 78.125 1177
179.688 -265.625 1663
-54.6875 289.062 1713
23.4375 -140.625 1398
31.25 234.375 1639
-164.062 343.75 1632
46.875 -101.562 1264
93.75 242.188 1624
273.438 -140.625 1458
187.5 226.562 1398
304.688 78.125 1181
23.4375 273.438 1586
-234.375 257.812 1529
-210.938 265.625 1594
-375 -218.75 1169
-328.125 -140.625 1101
-109.375 257.812 1616
-132.812 -273.438 1624
234.375 -164.062 1496
39.0625 -23.4375 1245
-367.188 -242.188 1173
-140.625 273.438 1731
0 265.625 1609
70.3125 257.812 1609
-328.125 54.6875 2381
-109.375 39.0625 1173
7.8125 234.375 1639
-226.562 234.375 1496
-31.25 289.062 1722
85.9375 93.75 1236
460.938 -179.688 3333
476.562 -54.6875 2859
-7.8125 250 1609
54.6875 296.875 1579
-31.25 250 1594
-187.5 39.0625 1181
54.6875 273.438 1616
-351.562 -31.25 1202
-15.625 218.75 1663
-93.75 -179.688 1439
-453.125 132.812 1739
-320.312 265.625 1688
-328.125 296.875 1647
39.0625 414.062 1804
-15.625 296.875 1722
-273.438 46.875 1245
-390.625 -39.0625 1197
-93.75 257.812 1609
-203.125 171.875 1343
-257.812 46.875 1241
257.812 -132.812 1445
-273.438 70.3125 1259
-328.125 78.125 1981
-226.562 -367.188 1477
85.9375 -429.688 1259
-78.125 242.188 1609
-7.8125 140.625 1264
-93.75 281.25 1722
-218.75 -210.938 1250
39.0625 273.438 1601
-273.438 -15.625 1193
-484.375 -335.938 1241
62.5 -164.062 1445
-39.0625 359.375 1632
-171.875 218.75 1579
-429.688 -46.875 1202
54.6875 367.188 1639
218.75 179.688 2241
70.3125 296.875 1579
-296.875 195.312 1680
-39.0625 -179.688 1452
31.25 351.562 1639
125 -242.188 1616
-296.875 351.562 1823
-296.875 132.812 1776
437.5 -226.562 3468
-7.8125 273.438 1579
-109.375 351.562 1632
-195.312 226.562 1594
476.562 -46.875 2835
31.25 85.9375 1236
23.4375 281.25 1579
62.5 -429.688 1259
296.875 -218.75 3433
-85.9375 -203.125 1483
0 250 1616
-234.375 -250 1227
-484.375 226.562 1705
85.9375 312.5 1543
-7.8125 -445.312 1264
-46.875 -179.688 1452
46.875 273.438 1601
-39.0625 226.562 1632
-156.25 273.438 1722
-78.125 265.625 1601
-171.875 257.812 1731
273.438 -226.562 3468
39.0625 367.188 1639
7.8125 125 1273
-171.875 343.75 1632
-117.188 257.812 1616
-335.938 203.125 1671
-312.5 -125 1112
-375 203.125 1680
31.25 -164.062 1445
453.125 -187.5 3365
484.375 -31.25 2522
187.5 78.125 1181
-218.75 242.188 1509
0 156.25 1264
39.0625 257.812 1609
273.438 -62.5 1338
-7.8125 320.312 1688
-218.75 195.312 1445
-101.562 195.312 1572
-140.625 179.688 1354
390.625 -234.375 3468
-54.6875 281.25 1722
23.4375 -335.938 1349
312.5 -218.75 3433
-320.312 203.125 1655
93.75 93.75 1236
132.812 93.75 1236
-406.25 78.125 1970
-140.625 -140.625 1381
203.125 -265.625 3539
-46.875 265.625 1609
46.875 257.812 1601
-23.4375 -234.375 1445
62.5 273.438 1616
-70.3125 242.188 1609
-265.625 203.125 1731
7.8125 359.375 1639
453.125 -351.562 3037
-359.375 195.312 1663
-343.75 148.438 1739
78.125 281.25 1594
-132.812 375 1833
468.75 -62.5 2883
-140.625 257.812 1594
-421.875 148.438 1804
-62.5 226.562 1632
-54.6875 179.688 1349
15.625 359.375 1639
-359.375 -453.125 3120
-7.8125 328.125 1671
289.062 93.75 1185
-46.875 273.438 1739
234.375 187.5 2241
421.875 148.438 2333
265.625 -210.938 1579
476.562 -218.75 3468
15.625 289.062 1572
218.75 85.9375 1181
234.375 -226.562 1616
-195.312 195.312 1586
-187.5 -226.562 1439
-437.5 226.562 1705
-210.938 203.125 1529
-54.6875 265.625 1766
-273.438 93.75 1288
39.0625 54.6875 1173
226.562 -257.812 1671
-140.625 -273.438 1624
-132.812 62.5 1241
-85.9375 54.6875 1181
78.125 265.625 1609
62.5 257.812 1616
-171.875 62.5 1250
242.188 -210.938 1586
-117.188 265.625 1757
-117.188 343.75 1632
-234.375 304.688 1609
-343.75 234.375 1696
-125 281.25 1722
484.375 -398.438 2958
-179.688 273.438 1722
-210.938 226.562 1601
-78.125 54.6875 1177
-375 85.9375 1959
62.5 234.375 1655
7.8125 -445.312 1255
70.3125 281.25 1579
-382.812 -156.25 1094
335.938 -242.188 3468
-125 367.188 1632
-218.75 250 1516
70.3125 -39.0625 1264
-7.8125 62.5 1181
15.625 296.875 1572
-156.25 -85.9375 1302
-398.438 -156.25 1097
