ply
format ascii 1.0
comment Created by Open3D
element vertex 2373
property double x
property double y
property double z
end_header
0 398.438 1748
218.75 351.562 1833
-15.625 367.188 1483
351.562 328.125 1894
-164.062 414.062 1245
-62.5 429.688 1427
23.4375 398.438 1776
195.312 -70.3125 1452
164.062 226.562 1392
140.625 429.688 1550
421.875 -125 1632
484.375 15.625 1550
179.688 -187.5 1415
164.062 101.562 1349
406.25 39.0625 1503
54.6875 132.812 1273
156.25 101.562 1343
117.188 23.4375 1297
-179.688 406.25 1250
62.5 125 1288
382.812 -304.688 3774
-109.375 421.875 1392
492.188 312.5 1936
312.5 -39.0625 1376
-125 203.125 1149
273.438 -125 1616
210.938 -15.625 1312
-31.25 -23.4375 1302
31.25 335.938 1354
304.688 414.062 1722
367.188 -15.625 1421
101.562 375 1557
70.3125 -7.8125 1278
156.25 -31.25 1354
460.938 -109.375 1579
203.125 156.25 1392
-85.9375 54.6875 1359
343.75 -156.25 1794
-15.625 -85.9375 1464
460.938 23.4375 1564
-7.8125 70.3125 1354
85.9375 -23.4375 1307
15.625 398.438 1776
-39.0625 343.75 1283
-93.75 429.688 1410
-31.25 281.25 1241
54.6875 -39.0625 1297
-39.0625 31.25 1349
148.438 85.9375 1381
281.25 -31.25 1354
7.8125 203.125 1268
476.562 -78.125 1483
203.125 304.688 1947
-54.6875 421.875 1427
-117.188 203.125 1153
0 -23.4375 1278
62.5 -23.4375 1283
156.25 289.062 1433
242.188 281.25 1936
109.375 351.562 1543
-39.0625 78.125 1387
7.8125 39.0625 1338
-23.4375 359.375 1543
54.6875 -164.062 1616
195.312 117.188 1317
328.125 85.9375 1404
195.312 187.5 2241
-54.6875 281.25 1259
-125 437.5 1387
-7.8125 39.0625 1349
-171.875 437.5 1268
492.188 210.938 1993
-85.9375 15.625 1376
140.625 171.875 1338
-171.875 406.25 1245
46.875 398.438 1757
-85.9375 421.875 1415
93.75 375 1543
179.688 281.25 1959
-62.5 351.562 1283
-125 367.188 1259
312.5 62.5 1439
62.5 382.812 1663
382.812 406.25 2016
46.875 62.5 1283
171.875 101.562 1349
54.6875 62.5 1278
46.875 320.312 1354
-62.5 421.875 1427
250 -156.25 1470
-132.812 406.25 1433
484.375 164.062 1663
0 39.0625 1338
390.625 46.875 1503
93.75 -156.25 1609
0 406.25 1748
242.188 117.188 1338
-109.375 375 1464
70.3125 -226.562 1572
-46.875 -78.125 1477
54.6875 -15.625 1288
-93.75 15.625 1381
-78.125 195.312 1173
476.562 101.562 1601
281.25 78.125 1415
359.375 -46.875 1398
437.5 31.25 1536
382.812 78.125 1439
-7.8125 -109.375 1722
453.125 226.562 1705
375 -312.5 3859
156.25 156.25 1297
335.938 54.6875 1445
-164.062 242.188 1185
265.625 375 1804
-7.8125 406.25 1748
367.188 -46.875 1404
367.188 54.6875 1477
-7.8125 382.812 1489
-62.5 179.688 1181
351.562 54.6875 1470
304.688 78.125 1410
31.25 125 1288
-414.062 390.625 2028
164.062 164.062 1354
429.688 -406.25 3653
85.9375 -54.6875 1343
15.625 78.125 1292
39.0625 -78.125 1415
367.188 -148.438 1564
-85.9375 109.375 1312
-117.188 414.062 1421
375 46.875 1489
46.875 195.312 1288
7.8125 273.438 1255
148.438 109.375 1328
148.438 359.375 1509
-375 93.75 1312
132.812 93.75 1292
-140.625 398.438 1452
484.375 78.125 1586
125 70.3125 1292
23.4375 78.125 1292
-117.188 382.812 1464
265.625 265.625 1947
414.062 382.812 1804
468.75 -78.125 1489
78.125 343.75 1564
-109.375 414.062 1427
-148.438 390.625 1445
-140.625 429.688 1398
0 382.812 1509
273.438 -187.5 1464
15.625 328.125 1338
-148.438 398.438 1445
242.188 296.875 1843
62.5 109.375 1268
78.125 359.375 1543
39.0625 -164.062 1639
-62.5 -23.4375 1322
85.9375 15.625 1273
-78.125 70.3125 1359
257.812 -187.5 1464
429.688 273.438 1731
-23.4375 414.062 1739
-39.0625 101.562 1338
-171.875 242.188 1181
-39.0625 187.5 1193
-54.6875 289.062 1268
289.062 304.688 1813
78.125 -242.188 1579
328.125 109.375 1410
125 -117.188 1572
-171.875 429.688 1255
-70.3125 351.562 1193
242.188 -171.875 1458
39.0625 93.75 1278
-85.9375 429.688 1415
132.812 -46.875 1398
78.125 -62.5 1376
62.5 164.062 1236
437.5 23.4375 1516
156.25 164.062 1297
85.9375 -7.8125 1283
70.3125 312.5 1376
-156.25 210.938 1138
46.875 257.812 1322
-46.875 187.5 1185
-7.8125 -117.188 1713
85.9375 85.9375 1273
140.625 312.5 1470
-132.812 437.5 1392
257.812 85.9375 1387
54.6875 390.625 1739
179.688 218.75 1392
-226.562 218.75 1105
328.125 93.75 1398
304.688 296.875 1863
179.688 -70.3125 1445
281.25 351.562 1833
39.0625 195.312 1283
85.9375 171.875 1250
-93.75 359.375 1245
226.562 93.75 1376
15.625 203.125 1273
179.688 -15.625 1312
234.375 -195.312 1439
-218.75 218.75 1105
-203.125 218.75 1115
109.375 179.688 1328
62.5 179.688 1241
-62.5 85.9375 1359
23.4375 -23.4375 1259
273.438 78.125 1415
281.25 343.75 1813
-171.875 390.625 1214
-101.562 39.0625 1370
359.375 85.9375 1421
-15.625 -70.3125 1458
265.625 -23.4375 1343
-125 390.625 1470
-54.6875 93.75 1349
70.3125 23.4375 1278
382.812 -125 1536
234.375 148.438 1404
7.8125 398.438 1776
-15.625 39.0625 1349
-31.25 343.75 1312
429.688 234.375 1713
-257.812 226.562 1090
250 296.875 1843
-85.9375 -31.25 1333
-7.8125 367.188 1483
-140.625 382.812 1477
226.562 -171.875 1439
125 304.688 1489
70.3125 125 1292
46.875 93.75 1273
85.9375 0 1273
-367.188 101.562 1302
-156.25 390.625 1458
492.188 39.0625 1523
-242.188 226.562 1097
-125 375 1509
453.125 -210.938 1883
156.25 140.625 1292
250 -93.75 1516
164.062 -148.438 1458
-85.9375 437.5 1415
-23.4375 -93.75 1464
-93.75 406.25 1433
257.812 78.125 1398
187.5 203.125 1387
-31.25 421.875 1722
265.625 140.625 1433
-195.312 210.938 1119
234.375 -78.125 1483
453.125 250 1833
-78.125 414.062 1415
429.688 31.25 1523
0 390.625 1509
289.062 414.062 1722
195.312 179.688 2241
203.125 -171.875 1415
445.312 335.938 1883
-125 367.188 1259
46.875 132.812 1273
54.6875 -7.8125 1292
-132.812 -39.0625 1365
93.75 304.688 1376
156.25 -78.125 1477
484.375 -78.125 1496
-125 406.25 1433
-23.4375 39.0625 1354
429.688 -62.5 1445
289.062 132.812 1433
125 296.875 1398
406.25 70.3125 1452
-148.438 382.812 1464
382.812 335.938 1823
109.375 -62.5 1439
125 -148.438 1624
70.3125 171.875 1245
7.8125 375 1516
39.0625 -15.625 1273
-109.375 218.75 1161
-109.375 437.5 1398
375 375 1804
195.312 101.562 1349
-23.4375 -23.4375 1292
-117.188 -39.0625 1349
-7.8125 375 1483
-156.25 382.812 1470
242.188 -15.625 1328
234.375 -15.625 1322
85.9375 -265.625 1601
421.875 351.562 1853
78.125 109.375 1268
-156.25 421.875 1452
-93.75 78.125 1370
148.438 70.3125 1307
460.938 15.625 1529
476.562 320.312 1936
-125 398.438 1464
250 273.438 1936
414.062 70.3125 1464
-156.25 375 1245
-140.625 -234.375 3503
125 148.438 1268
62.5 125 1288
304.688 101.562 1376
7.8125 367.188 1523
-93.75 429.688 1410
-62.5 429.688 1427
234.375 85.9375 1387
492.188 -250 1863
-359.375 125 1264
39.0625 414.062 1748
257.812 304.688 1813
335.938 62.5 1452
31.25 398.438 1785
179.688 195.312 1376
-320.312 148.438 1197
492.188 -257.812 1863
203.125 -7.8125 1302
-93.75 226.562 1214
429.688 -148.438 1904
359.375 -125 1557
101.562 31.25 1283
46.875 320.312 1354
476.562 -132.812 1959
-23.4375 359.375 1543
460.938 -265.625 1833
-23.4375 210.938 1255
70.3125 -31.25 1288
492.188 -242.188 1915
93.75 375 1543
250 -85.9375 1509
-23.4375 -70.3125 1458
-429.688 406.25 1981
46.875 398.438 1757
-101.562 187.5 1165
179.688 101.562 1349
39.0625 250 1292
85.9375 -78.125 1387
-85.9375 367.188 1232
375 -93.75 1509
125 390.625 1529
406.25 -78.125 1489
-125 234.375 1202
164.062 -140.625 1458
70.3125 156.25 1236
460.938 -109.375 1579
390.625 -85.9375 1496
468.75 351.562 1873
-46.875 31.25 1359
250 85.9375 1392
-117.188 398.438 1452
93.75 -23.4375 1312
382.812 46.875 1496
-54.6875 179.688 1181
-343.75 132.812 1232
-195.312 320.312 1202
125 -140.625 1624
54.6875 70.3125 1273
23.4375 406.25 1766
-7.8125 210.938 1264
187.5 -203.125 1410
15.625 -23.4375 1264
226.562 -117.188 1477
93.75 156.25 1255
375 351.562 1843
-179.688 375 1227
23.4375 203.125 1278
54.6875 7.8125 1273
54.6875 -148.438 1639
-156.25 406.25 1445
54.6875 132.812 1273
23.4375 343.75 1813
-78.125 429.688 1415
15.625 -62.5 1433
421.875 -203.125 1873
445.312 -203.125 1873
-93.75 437.5 1410
23.4375 -62.5 1427
421.875 296.875 1757
117.188 54.6875 1283
335.938 296.875 1936
46.875 109.375 1283
-101.562 195.312 1165
-476.562 23.4375 3238
171.875 164.062 1354
-109.375 421.875 1392
468.75 343.75 1883
-117.188 -23.4375 1365
-7.8125 70.3125 1354
460.938 218.75 1853
414.062 39.0625 1516
-62.5 351.562 1283
54.6875 242.188 1302
328.125 62.5 1445
382.812 -304.688 3774
304.688 -31.25 1365
273.438 304.688 1813
421.875 382.812 1804
468.75 -132.812 1959
156.25 -31.25 1354
281.25 -31.25 1354
289.062 265.625 1936
-93.75 39.0625 1359
210.938 -203.125 1421
421.875 -312.5 3692
-7.8125 406.25 1748
382.812 -54.6875 1421
-171.875 398.438 1245
0 414.062 1739
437.5 -70.3125 1464
468.75 23.4375 1572
-101.562 429.688 1404
296.875 296.875 1863
23.4375 -15.625 1268
382.812 -312.5 3816
-109.375 414.062 1427
312.5 62.5 1439
23.4375 328.125 1349
-78.125 85.9375 1365
-78.125 70.3125 1359
7.8125 390.625 1516
210.938 156.25 1387
179.688 -203.125 1415
390.625 -304.688 3732
-179.688 398.438 1245
-85.9375 31.25 1349
390.625 -296.875 1883
-46.875 406.25 1427
93.75 382.812 1543
218.75 93.75 1376
-39.0625 343.75 1283
-31.25 343.75 1312
54.6875 390.625 1739
304.688 70.3125 1433
78.125 -15.625 1288
164.062 85.9375 1370
312.5 70.3125 1433
101.562 78.125 1278
-15.625 406.25 1766
15.625 382.812 1516
210.938 -210.938 1439
468.75 -281.25 1883
54.6875 85.9375 1268
109.375 -281.25 1609
312.5 -375 3948
-125 39.0625 1392
85.9375 125 1297
101.562 -15.625 1302
250 -23.4375 1333
78.125 78.125 1273
187.5 312.5 1894
476.562 -101.562 1536
312.5 125 1470
335.938 70.3125 1433
296.875 304.688 1843
226.562 85.9375 1381
226.562 257.812 1936
7.8125 406.25 1766
476.562 85.9375 1601
335.938 54.6875 1445
382.812 -304.688 3774
-93.75 359.375 1245
-23.4375 312.5 1307
140.625 265.625 1398
414.062 359.375 1823
421.875 -93.75 1489
-46.875 -23.4375 1307
382.812 -312.5 3816
414.062 -62.5 1445
-109.375 203.125 1161
-70.3125 93.75 1349
62.5 70.3125 1273
445.312 -296.875 1853
203.125 343.75 1853
210.938 -7.8125 1307
406.25 -304.688 3692
-171.875 429.688 1255
406.25 39.0625 1503
429.688 289.062 1748
93.75 23.4375 1278
179.688 210.938 1387
437.5 -281.25 1833
-195.312 218.75 1119
265.625 257.812 1947
140.625 414.062 1572
132.812 -234.375 1586
-148.438 210.938 1138
7.8125 382.812 1516
-70.3125 195.312 1177
-117.188 437.5 1387
296.875 -234.375 4190
-140.625 390.625 1445
23.4375 -203.125 1632
351.562 -117.188 1557
398.438 -132.812 1550
359.375 -148.438 1564
234.375 93.75 1370
234.375 437.5 1680
31.25 125 1288
414.062 320.312 1766
484.375 -179.688 3178
437.5 23.4375 1516
-164.062 375 1245
15.625 78.125 1292
195.312 320.312 1863
148.438 421.875 1594
-265.625 421.875 1671
7.8125 351.562 1550
210.938 93.75 1370
210.938 367.188 1843
7.8125 39.0625 1338
312.5 -242.188 4089
390.625 -296.875 1883
70.3125 -234.375 1579
-93.75 414.062 1433
312.5 -257.812 4089
242.188 148.438 1387
-343.75 156.25 1165
93.75 0 1268
93.75 117.188 1302
-125 406.25 1427
62.5 -23.4375 1268
-7.8125 -101.562 1731
164.062 -125 1445
-234.375 226.562 1094
46.875 164.062 1223
187.5 31.25 1312
-125 -62.5 1387
382.812 -46.875 1404
93.75 78.125 1268
62.5 -242.188 1586
171.875 234.375 1392
-93.75 -39.0625 1333
-70.3125 -31.25 1317
406.25 359.375 1804
257.812 -156.25 1464
-31.25 414.062 1445
70.3125 -62.5 1365
351.562 -46.875 1381
476.562 7.8125 1529
273.438 -23.4375 1338
265.625 421.875 1696
62.5 31.25 1278
70.3125 -15.625 1273
-23.4375 101.562 1328
421.875 -125 1624
281.25 109.375 1354
-78.125 375 1483
31.25 171.875 1214
210.938 -15.625 1292
15.625 343.75 1586
101.562 -203.125 1564
117.188 210.938 1338
23.4375 359.375 1543
343.75 265.625 1915
265.625 78.125 1398
-101.562 421.875 1398
335.938 -39.0625 1376
351.562 109.375 1404
-85.9375 429.688 1410
-46.875 265.625 1245
203.125 335.938 1833
-101.562 70.3125 1376
54.6875 320.312 1354
54.6875 0 1283
414.062 31.25 1483
132.812 -226.562 1572
414.062 -85.9375 1483
203.125 -70.3125 1433
132.812 140.625 1268
-46.875 421.875 1421
23.4375 398.438 1477
-460.938 23.4375 3238
-62.5 421.875 1421
-78.125 351.562 1268
-468.75 23.4375 3238
367.188 46.875 1445
23.4375 406.25 1464
62.5 -210.938 1579
210.938 125 1312
390.625 46.875 1489
39.0625 -62.5 1410
78.125 0 1268
-187.5 210.938 1115
-54.6875 218.75 1227
-117.188 367.188 1255
-7.8125 -23.4375 1273
-101.562 218.75 1157
125 375 1516
23.4375 -23.4375 1250
390.625 -78.125 1464
-179.688 218.75 1119
468.75 -70.3125 1464
54.6875 351.562 1713
-39.0625 -23.4375 1302
-7.8125 367.188 1516
70.3125 351.562 1601
390.625 39.0625 1470
0 335.938 1312
-78.125 414.062 1415
-109.375 -7.8125 1370
492.188 -78.125 1489
257.812 351.562 1794
335.938 109.375 1404
93.75 359.375 1579
367.188 -93.75 1523
484.375 -101.562 1550
226.562 375 1813
-46.875 281.25 1236
304.688 117.188 1392
492.188 171.875 1639
-304.688 234.375 1067
70.3125 367.188 1671
31.25 265.625 1288
445.312 265.625 1731
289.062 -31.25 1349
148.438 85.9375 1376
460.938 -70.3125 1464
164.062 140.625 1283
-125 414.062 1415
46.875 257.812 1278
476.562 -78.125 1470
125 -218.75 1572
-390.625 390.625 2040
-398.438 390.625 2028
-156.25 242.188 1185
85.9375 -15.625 1283
218.75 375 1823
312.5 78.125 1398
476.562 -289.062 1833
351.562 414.062 1757
156.25 320.312 1464
-15.625 351.562 1536
343.75 54.6875 1445
-93.75 398.438 1439
39.0625 15.625 1302
210.938 -70.3125 1433
445.312 31.25 1529
46.875 132.812 1268
273.438 85.9375 1387
46.875 359.375 1739
398.438 -195.312 1863
195.312 -195.312 1398
-54.6875 203.125 1181
7.8125 390.625 1483
93.75 -125 1632
-85.9375 226.562 1214
148.438 -179.688 1601
109.375 7.8125 1317
-117.188 398.438 1458
289.062 78.125 1398
-7.8125 -93.75 1731
343.75 -39.0625 1376
-62.5 31.25 1343
70.3125 117.188 1268
15.625 398.438 1470
85.9375 359.375 1579
54.6875 132.812 1268
85.9375 78.125 1268
101.562 -125 1632
234.375 304.688 1843
390.625 -54.6875 1410
218.75 125 1317
-156.25 375 1236
234.375 -78.125 1470
132.812 101.562 1343
39.0625 335.938 1601
437.5 31.25 1523
-93.75 -31.25 1338
-93.75 195.312 1157
78.125 312.5 1370
171.875 -78.125 1464
390.625 -125 1536
257.812 359.375 1813
468.75 -203.125 1894
54.6875 195.312 1288
406.25 -101.562 1489
289.062 -210.938 1632
7.8125 406.25 1464
31.25 70.3125 1273
-46.875 398.438 1470
421.875 -62.5 1433
492.188 -226.562 1894
-398.438 62.5 3269
117.188 164.062 1264
54.6875 257.812 1292
-117.188 234.375 1197
117.188 179.688 1317
-78.125 406.25 1433
-101.562 375 1503
445.312 23.4375 1509
-265.625 234.375 1080
-31.25 421.875 1445
304.688 281.25 1883
-78.125 421.875 1415
-31.25 382.812 1489
-15.625 210.938 1255
-101.562 390.625 1464
453.125 31.25 1536
398.438 46.875 1483
359.375 -93.75 1523
-179.688 390.625 1227
-85.9375 375 1483
320.312 -164.062 1833
23.4375 125 1283
-132.812 382.812 1439
195.312 101.562 1343
117.188 85.9375 1273
476.562 226.562 1863
-39.0625 414.062 1433
-15.625 398.438 1452
476.562 351.562 1873
93.75 101.562 1273
0 406.25 1458
-23.4375 421.875 1445
156.25 93.75 1354
234.375 -203.125 1421
140.625 62.5 1297
367.188 234.375 1853
234.375 375 1813
148.438 429.688 1594
265.625 85.9375 1381
437.5 -117.188 1601
218.75 -15.625 1302
-46.875 218.75 1232
218.75 -164.062 1421
484.375 226.562 1981
-109.375 234.375 1206
85.9375 382.812 1509
-109.375 382.812 1464
242.188 -156.25 1458
-62.5 -23.4375 1312
-195.312 101.562 1307
156.25 -203.125 1427
445.312 281.25 1739
-101.562 414.062 1433
414.062 -78.125 1464
-31.25 375 1489
109.375 -218.75 1564
125 -148.438 1632
281.25 -218.75 4190
101.562 -218.75 1564
-101.562 203.125 1157
250 -15.625 1317
148.438 70.3125 1288
179.688 203.125 1370
-164.062 406.25 1245
54.6875 62.5 1268
257.812 -101.562 1496
31.25 359.375 1523
-54.6875 429.688 1421
-78.125 390.625 1439
-7.8125 390.625 1458
460.938 -429.688 3614
-15.625 359.375 1536
-171.875 398.438 1245
-54.6875 390.625 1458
226.562 93.75 1359
242.188 -15.625 1312
46.875 54.6875 1278
-39.0625 62.5 1365
257.812 85.9375 1381
-15.625 390.625 1470
85.9375 101.562 1268
164.062 101.562 1338
273.438 -156.25 1464
85.9375 -23.4375 1292
242.188 93.75 1359
46.875 390.625 1489
-70.3125 367.188 1496
-31.25 414.062 1445
31.25 62.5 1283
-70.3125 421.875 1415
-54.6875 -78.125 1464
-70.3125 -78.125 1470
85.9375 187.5 1297
62.5 -7.8125 1273
367.188 -46.875 1392
-46.875 406.25 1421
7.8125 359.375 1536
7.8125 93.75 1349
-187.5 406.25 1241
-132.812 -39.0625 1359
164.062 -23.4375 1343
46.875 375 1489
62.5 367.188 1509
-62.5 406.25 1452
-54.6875 421.875 1421
-187.5 382.812 1223
0 351.562 1550
23.4375 398.438 1477
117.188 -117.188 1564
289.062 351.562 1833
23.4375 367.188 1523
234.375 289.062 1853
125 351.562 1509
-7.8125 -85.9375 1445
23.4375 -117.188 1632
109.375 367.188 1536
453.125 335.938 1883
39.0625 367.188 1516
484.375 335.938 1883
-70.3125 390.625 1452
-78.125 437.5 1421
78.125 343.75 1609
140.625 -125 1632
351.562 289.062 1894
39.0625 78.125 1268
187.5 210.938 1376
23.4375 78.125 1273
187.5 -7.8125 1297
-492.188 398.438 1970
460.938 234.375 1833
39.0625 375 1516
-23.4375 179.688 1193
109.375 375 1536
-78.125 93.75 1338
281.25 78.125 1398
7.8125 398.438 1464
335.938 117.188 1404
335.938 -195.312 2028
273.438 320.312 1804
-85.9375 390.625 1433
257.812 -23.4375 1328
78.125 390.625 1503
-31.25 281.25 1241
39.0625 195.312 1273
210.938 -164.062 1415
484.375 -171.875 1915
257.812 304.688 1813
406.25 398.438 1804
-117.188 437.5 1404
132.812 148.438 1268
0 335.938 1312
335.938 304.688 1936
445.312 343.75 1853
109.375 304.688 1392
343.75 62.5 1445
359.375 46.875 1445
390.625 -140.625 1536
367.188 54.6875 1464
421.875 320.312 1757
-85.9375 31.25 1343
492.188 164.062 1655
437.5 15.625 1496
445.312 273.438 1731
54.6875 156.25 1227
468.75 328.125 1894
320.312 125 1470
-117.188 382.812 1464
-117.188 406.25 1427
-54.6875 85.9375 1354
-85.9375 429.688 1410
-132.812 390.625 1439
-78.125 226.562 1219
-101.562 437.5 1404
-85.9375 359.375 1264
390.625 -109.375 1509
-46.875 375 1489
140.625 78.125 1288
15.625 343.75 1586
421.875 31.25 1489
250 -125 1477
492.188 312.5 1926
125 -234.375 1572
468.75 15.625 1529
257.812 -109.375 1489
93.75 31.25 1268
-15.625 -156.25 1766
265.625 335.938 1833
-421.875 15.625 3300
15.625 39.0625 1328
171.875 -203.125 1415
195.312 -132.812 1421
-7.8125 39.0625 1338
492.188 -218.75 1883
-39.0625 187.5 1181
304.688 -187.5 1572
406.25 -132.812 1543
460.938 23.4375 1529
421.875 39.0625 1503
-78.125 70.3125 1359
-343.75 382.812 2065
257.812 -148.438 1470
273.438 -109.375 1543
-187.5 218.75 1115
62.5 390.625 1496
304.688 93.75 1376
265.625 265.625 1947
476.562 -164.062 1926
7.8125 382.812 1503
187.5 328.125 1883
203.125 101.562 1343
-164.062 390.625 1232
218.75 273.438 1894
46.875 -7.8125 1288
312.5 351.562 1823
-46.875 46.875 1349
62.5 351.562 1696
-31.25 398.438 1445
-62.5 382.812 1489
-148.438 375 1236
406.25 -54.6875 1421
-70.3125 406.25 1452
359.375 234.375 1873
-15.625 414.062 1439
289.062 343.75 1794
320.312 -257.812 4041
117.188 375 1529
-31.25 382.812 1489
54.6875 23.4375 1288
23.4375 359.375 1543
453.125 -70.3125 1458
140.625 406.25 1543
-382.812 390.625 2040
343.75 70.3125 1421
359.375 382.812 1785
281.25 343.75 1794
62.5 375 1509
375 -46.875 1398
39.0625 -15.625 1264
257.812 273.438 1926
484.375 -164.062 1926
7.8125 -62.5 1427
390.625 414.062 2005
-101.562 382.812 1483
-39.0625 31.25 1354
140.625 -39.0625 1381
-281.25 242.188 1077
453.125 375 1853
-46.875 296.875 1268
210.938 -7.8125 1292
320.312 250 1981
242.188 -179.688 1439
250 335.938 1833
-289.062 179.688 1141
101.562 375 1536
-62.5 93.75 1338
-179.688 179.688 1157
0 -62.5 1439
109.375 0 1273
31.25 187.5 1223
437.5 -421.875 3576
265.625 -203.125 1458
359.375 -148.438 1550
109.375 78.125 1273
85.9375 -203.125 1564
62.5 70.3125 1259
351.562 62.5 1445
-70.3125 375 1496
70.3125 382.812 1503
-117.188 367.188 1255
179.688 -203.125 1410
242.188 281.25 1863
195.312 132.812 1302
210.938 -203.125 1410
437.5 -62.5 1439
70.3125 -242.188 1579
320.312 62.5 1427
203.125 -85.9375 1452
93.75 -234.375 1564
148.438 54.6875 1292
-70.3125 93.75 1338
226.562 -210.938 1421
-78.125 367.188 1268
250 351.562 1794
-70.3125 429.688 1421
117.188 7.8125 1317
125 78.125 1283
492.188 351.562 1883
289.062 265.625 1936
54.6875 -203.125 1586
-70.3125 414.062 1415
132.812 -210.938 1572
218.75 -203.125 1415
437.5 343.75 1863
15.625 -15.625 1278
414.062 328.125 1757
-101.562 421.875 1398
-101.562 414.062 1433
31.25 406.25 1489
-140.625 226.562 1130
484.375 203.125 1993
265.625 78.125 1398
54.6875 351.562 1713
132.812 296.875 1392
359.375 101.562 1421
-15.625 398.438 1452
195.312 187.5 1365
-62.5 -78.125 1477
70.3125 164.062 1232
7.8125 78.125 1273
250 273.438 1936
101.562 101.562 1264
31.25 328.125 1354
187.5 101.562 1343
468.75 -226.562 1863
78.125 382.812 1503
101.562 156.25 1250
406.25 -109.375 1523
171.875 250 1398
476.562 -281.25 1833
-54.6875 382.812 1483
250 359.375 1813
382.812 46.875 1470
-15.625 70.3125 1349
203.125 -210.938 1404
-125 398.438 1458
-78.125 375 1483
93.75 -70.3125 1365
54.6875 390.625 1489
7.8125 179.688 1202
-7.8125 437.5 1696
-148.438 406.25 1445
328.125 250 1959
0 375 1496
101.562 304.688 1376
171.875 101.562 1338
-31.25 -78.125 1458
23.4375 39.0625 1312
46.875 132.812 1268
281.25 -23.4375 1343
234.375 -93.75 1477
312.5 -31.25 1354
375 -312.5 3859
250 -148.438 1470
93.75 -281.25 1594
312.5 -187.5 4041
85.9375 382.812 1509
-85.9375 398.438 1433
476.562 226.562 1863
343.75 54.6875 1445
78.125 125 1288
109.375 31.25 1268
15.625 351.562 1550
39.0625 398.438 1496
132.812 54.6875 1288
250 304.688 1813
273.438 140.625 1410
476.562 -203.125 1894
312.5 -250 4089
437.5 -117.188 1601
164.062 -101.562 1470
335.938 -46.875 1381
429.688 273.438 1731
39.0625 382.812 1489
429.688 -359.375 3692
7.8125 39.0625 1328
46.875 367.188 1757
-46.875 429.688 1421
-23.4375 -70.3125 1458
421.875 351.562 1843
-23.4375 421.875 1445
54.6875 -62.5 1392
250 117.188 1333
31.25 15.625 1307
-15.625 -85.9375 1458
-273.438 15.625 1516
226.562 117.188 1322
234.375 -179.688 1427
234.375 -101.562 1470
39.0625 187.5 1223
-375 78.125 1365
-54.6875 390.625 1458
-117.188 398.438 1458
15.625 382.812 1496
-54.6875 398.438 1458
54.6875 320.312 1354
0 414.062 1464
304.688 304.688 1843
156.25 421.875 1594
187.5 195.312 1365
15.625 -23.4375 1250
-335.938 179.688 1157
-23.4375 78.125 1381
343.75 -156.25 1785
148.438 367.188 1509
468.75 85.9375 1601
23.4375 382.812 1477
460.938 265.625 1823
46.875 -54.6875 1410
93.75 -7.8125 1273
265.625 375 1794
242.188 148.438 1387
-101.562 359.375 1268
187.5 148.438 1288
218.75 367.188 1823
-85.9375 195.312 1161
-15.625 390.625 1470
-31.25 187.5 1189
109.375 148.438 1255
242.188 -31.25 1322
429.688 70.3125 1445
203.125 132.812 1307
328.125 -39.0625 1370
-31.25 195.312 1189
-273.438 187.5 1126
218.75 -7.8125 1302
78.125 85.9375 1268
39.0625 390.625 1489
132.812 117.188 1302
31.25 78.125 1273
-54.6875 421.875 1421
421.875 70.3125 1445
-39.0625 406.25 1439
164.062 -117.188 1439
234.375 -140.625 1452
46.875 -218.75 1586
-39.0625 421.875 1433
234.375 -218.75 1439
-117.188 375 1503
132.812 85.9375 1288
453.125 195.312 1655
31.25 70.3125 1273
78.125 7.8125 1268
54.6875 187.5 1236
234.375 85.9375 1376
375 -312.5 3859
23.4375 367.188 1523
390.625 -304.688 1883
0 39.0625 1333
218.75 -70.3125 1433
398.438 -132.812 1543
39.0625 171.875 1219
101.562 -15.625 1288
343.75 93.75 1398
445.312 -85.9375 1458
-335.938 164.062 1165
210.938 -70.3125 1433
250 132.812 1370
445.312 31.25 1529
132.812 -46.875 1398
164.062 289.062 1415
382.812 -312.5 3816
148.438 140.625 1273
117.188 242.188 1354
117.188 -54.6875 1427
0 335.938 1312
-101.562 46.875 1365
460.938 54.6875 1477
70.3125 -85.9375 1381
375 54.6875 1470
85.9375 -78.125 1365
492.188 148.438 1639
23.4375 406.25 1464
242.188 437.5 1680
226.562 125 1322
-85.9375 -23.4375 1343
31.25 203.125 1273
-343.75 46.875 1410
429.688 -281.25 1813
-62.5 15.625 1349
429.688 62.5 1458
460.938 15.625 1516
390.625 -312.5 3774
164.062 -156.25 1445
335.938 62.5 1439
70.3125 125 1283
289.062 -23.4375 1349
39.0625 343.75 1601
406.25 -62.5 1427
31.25 23.4375 1297
15.625 390.625 1483
31.25 -15.625 1264
46.875 -15.625 1273
-320.312 117.188 1255
-195.312 250 1165
23.4375 203.125 1268
414.062 -273.438 1813
85.9375 117.188 1302
437.5 -296.875 1833
109.375 289.062 1387
390.625 -101.562 1489
234.375 93.75 1365
226.562 -164.062 1433
-93.75 -31.25 1338
-117.188 421.875 1415
140.625 421.875 1557
351.562 101.562 1404
-70.3125 429.688 1421
62.5 132.812 1268
0 328.125 1317
7.8125 195.312 1206
460.938 226.562 1843
109.375 -125 1632
-179.688 382.812 1197
-101.562 382.812 1483
414.062 -304.688 3692
390.625 -304.688 1883
312.5 101.562 1376
-23.4375 39.0625 1349
-46.875 281.25 1236
398.438 -78.125 1470
343.75 -46.875 1381
171.875 242.188 1398
148.438 171.875 1338
250 -164.062 1458
234.375 -164.062 1439
398.438 -289.062 1833
-39.0625 -78.125 1464
-257.812 234.375 1087
296.875 70.3125 1421
-132.812 390.625 1439
359.375 -132.812 1564
390.625 -78.125 1464
289.062 -195.312 1601
320.312 70.3125 1421
-218.75 226.562 1101
-46.875 132.812 1255
15.625 406.25 1464
-23.4375 414.062 1445
460.938 -289.062 1863
195.312 164.062 1365
-62.5 31.25 1343
375 -312.5 3859
445.312 23.4375 1509
-39.0625 62.5 1365
375 46.875 1464
-15.625 367.188 1536
78.125 390.625 1503
218.75 93.75 1359
414.062 -125 1523
273.438 273.438 1936
-62.5 195.312 1169
-93.75 375 1503
273.438 265.625 1936
-85.9375 390.625 1433
171.875 164.062 1349
296.875 -195.312 1586
-54.6875 289.062 1264
281.25 281.25 1915
-39.0625 398.438 1477
54.6875 398.438 1489
-93.75 226.562 1210
187.5 164.062 1354
-85.9375 -78.125 1458
0 406.25 1458
109.375 -148.438 1616
242.188 -109.375 1470
93.75 101.562 1273
335.938 -156.25 1804
54.6875 390.625 1489
78.125 382.812 1503
468.75 -289.062 1833
156.25 359.375 1503
140.625 78.125 1288
257.812 117.188 1343
164.062 -23.4375 1343
101.562 359.375 1572
125 179.688 1322
164.062 210.938 1370
-39.0625 367.188 1843
382.812 -312.5 3816
-109.375 437.5 1404
218.75 156.25 1381
-23.4375 375 1470
-78.125 437.5 1421
-117.188 406.25 1427
445.312 367.188 1833
296.875 78.125 1398
-148.438 375 1236
234.375 289.062 1853
7.8125 78.125 1273
257.812 85.9375 1381
-70.3125 375 1496
429.688 39.0625 1503
359.375 -31.25 1392
218.75 164.062 2226
109.375 304.688 1392
23.4375 273.438 1312
-93.75 390.625 1477
78.125 367.188 1509
132.812 78.125 1288
46.875 -31.25 1268
62.5 -15.625 1273
156.25 320.312 1464
-54.6875 382.812 1483
296.875 414.062 1722
296.875 85.9375 1381
7.8125 414.062 1464
15.625 382.812 1496
187.5 132.812 1297
31.25 406.25 1489
140.625 62.5 1297
171.875 93.75 1349
-70.3125 15.625 1354
226.562 -203.125 1421
-179.688 250 1173
-156.25 375 1236
398.438 39.0625 1483
468.75 273.438 2053
257.812 273.438 1926
-85.9375 398.438 1433
210.938 250 1993
148.438 -164.062 1609
476.562 23.4375 1550
257.812 -15.625 1328
31.25 359.375 1523
85.9375 78.125 1268
-15.625 101.562 1333
62.5 -62.5 1376
101.562 -257.812 1579
234.375 -164.062 1439
23.4375 117.188 1292
-70.3125 -23.4375 1317
148.438 78.125 1288
85.9375 312.5 1370
242.188 85.9375 1381
148.438 70.3125 1288
281.25 312.5 1804
85.9375 101.562 1268
468.75 367.188 1873
125 85.9375 1283
289.062 78.125 1398
117.188 85.9375 1273
-179.688 414.062 1241
-164.062 398.438 1245
-62.5 367.188 1496
-125 -39.0625 1354
109.375 171.875 1288
-445.312 390.625 2005
320.312 -273.438 4041
468.75 359.375 1873
203.125 429.688 1705
31.25 328.125 1354
117.188 382.812 1543
218.75 -203.125 1415
93.75 187.5 1302
382.812 -351.562 3816
-78.125 359.375 1268
46.875 70.3125 1268
62.5 -250 1594
78.125 117.188 1302
210.938 -109.375 1445
421.875 304.688 1739
-46.875 429.688 1421
31.25 398.438 1489
421.875 31.25 1489
62.5 195.312 1292
179.688 328.125 1883
-109.375 367.188 1255
359.375 -148.438 1550
85.9375 328.125 1601
195.312 -62.5 1410
406.25 31.25 1477
-148.438 406.25 1445
156.25 171.875 1338
187.5 -7.8125 1297
210.938 101.562 1349
429.688 351.562 1853
390.625 -132.812 1543
-23.4375 359.375 1536
210.938 -203.125 1410
-78.125 93.75 1338
140.625 156.25 1273
-39.0625 421.875 1433
-117.188 367.188 1255
390.625 -54.6875 1410
-296.875 242.188 1067
39.0625 125 1278
398.438 -54.6875 1415
70.3125 78.125 1264
-54.6875 390.625 1458
304.688 335.938 1823
-39.0625 406.25 1439
164.062 320.312 1970
335.938 -31.25 1376
-85.9375 93.75 1338
140.625 -156.25 1624
484.375 -210.938 1883
70.3125 62.5 1268
218.75 140.625 1333
335.938 421.875 1722
265.625 -203.125 1458
148.438 367.188 1509
-54.6875 406.25 1421
-70.3125 414.062 1415
265.625 140.625 1415
-7.8125 398.438 1458
476.562 367.188 2103
445.312 -62.5 1445
-7.8125 210.938 1255
195.312 406.25 1748
492.188 -226.562 1894
171.875 320.312 1959
492.188 195.312 1970
226.562 -15.625 1302
320.312 101.562 1381
31.25 -109.375 1624
320.312 -265.625 4041
93.75 359.375 1579
226.562 -210.938 1421
359.375 62.5 1439
203.125 101.562 1343
39.0625 -62.5 1410
15.625 93.75 1273
31.25 -23.4375 1255
296.875 -171.875 1564
-70.3125 390.625 1452
54.6875 -15.625 1278
-93.75 421.875 1398
-125 390.625 1464
23.4375 -23.4375 1250
39.0625 -15.625 1264
39.0625 -101.562 1594
-15.625 421.875 1439
-23.4375 421.875 1445
203.125 -210.938 1404
85.9375 -125 1632
187.5 -62.5 1415
156.25 93.75 1354
390.625 46.875 1489
312.5 -226.562 4139
70.3125 328.125 1632
406.25 46.875 1489
7.8125 335.938 1312
39.0625 132.812 1264
0 -156.25 1722
195.312 -7.8125 1292
437.5 -7.8125 1470
343.75 -39.0625 1376
-54.6875 218.75 1227
15.625 390.625 1483
-140.625 382.812 1439
492.188 359.375 1883
-109.375 406.25 1433
39.0625 -78.125 1415
15.625 406.25 1464
210.938 -210.938 1421
179.688 -62.5 1415
179.688 -62.5 1415
78.125 -210.938 1564
0 375 1496
-109.375 -39.0625 1343
101.562 375 1536
476.562 -101.562 1550
-93.75 382.812 1483
265.625 359.375 1813
46.875 250 1292
484.375 23.4375 1557
351.562 54.6875 1458
140.625 437.5 1550
-93.75 437.5 1398
273.438 78.125 1398
15.625 351.562 1550
-31.25 39.0625 1354
257.812 -132.812 1477
15.625 398.438 1470
398.438 -132.812 1543
-109.375 382.812 1464
117.188 78.125 1273
54.6875 78.125 1264
-39.0625 375 1804
-7.8125 390.625 1458
296.875 -31.25 1349
-125 382.812 1470
-70.3125 109.375 1302
70.3125 31.25 1273
54.6875 54.6875 1278
312.5 70.3125 1421
39.0625 398.438 1496
-23.4375 414.062 1445
-7.8125 359.375 1536
164.062 101.562 1338
265.625 -23.4375 1333
414.062 -54.6875 1421
398.438 70.3125 1439
109.375 101.562 1264
-62.5 226.562 1227
-148.438 171.875 1173
-148.438 382.812 1464
-93.75 203.125 1157
-39.0625 414.062 1433
179.688 140.625 1288
476.562 -70.3125 1470
-31.25 78.125 1376
70.3125 -125 1632
-312.5 242.188 1077
-46.875 101.562 1328
164.062 164.062 1343
382.812 -101.562 1503
250 -15.625 1317
320.312 -164.062 1833
31.25 132.812 1264
-15.625 70.3125 1349
54.6875 70.3125 1259
265.625 85.9375 1381
-179.688 382.812 1197
-187.5 250 1173
195.312 164.062 1365
54.6875 390.625 1489
-125 -62.5 1387
421.875 -62.5 1433
-7.8125 351.562 1536
187.5 210.938 1376
46.875 265.625 1278
-265.625 234.375 1080
0 437.5 1688
-250 234.375 1090
320.312 -31.25 1359
164.062 234.375 1392
453.125 -195.312 1873
-78.125 398.438 1439
39.0625 109.375 1283
70.3125 -7.8125 1273
273.438 312.5 1813
-23.4375 390.625 1470
320.312 78.125 1398
226.562 -62.5 1415
-93.75 414.062 1433
-46.875 85.9375 1359
31.25 31.25 1297
304.688 328.125 1833
-23.4375 375 1470
78.125 31.25 1268
85.9375 296.875 1370
70.3125 367.188 1671
281.25 -23.4375 1343
78.125 -15.625 1278
7.8125 375 1503
171.875 140.625 1288
109.375 156.25 1255
-492.188 398.438 1970
-46.875 31.25 1359
-101.562 375 1503
-54.6875 -23.4375 1312
242.188 -78.125 1470
101.562 117.188 1302
7.8125 406.25 1464
54.6875 375 1489
398.438 46.875 1483
156.25 429.688 1594
265.625 117.188 1349
-187.5 414.062 1245
54.6875 351.562 1713
375 421.875 1981
445.312 257.812 1722
328.125 312.5 1883
-93.75 218.75 1161
0 125 1283
39.0625 257.812 1288
421.875 117.188 1705
7.8125 250 1283
-375 -312.5 3010
476.562 -171.875 1904
15.625 382.812 1496
-31.25 375 1489
242.188 -85.9375 1489
101.562 367.188 1536
15.625 -15.625 1278
-31.25 414.062 1445
-7.8125 414.062 1439
78.125 179.688 1241
226.562 -70.3125 1433
414.062 46.875 1489
-101.562 414.062 1433
31.25 398.438 1489
242.188 359.375 1823
484.375 320.312 1926
460.938 117.188 1632
31.25 359.375 1523
304.688 -31.25 1354
140.625 85.9375 1288
7.8125 367.188 1509
-312.5 234.375 1073
-31.25 359.375 1863
265.625 -195.312 1458
242.188 -70.3125 1445
242.188 93.75 1359
-148.438 242.188 1189
0 210.938 1259
226.562 -171.875 1427
-500 398.438 1970
-70.3125 273.438 1245
406.25 351.562 1794
-54.6875 421.875 1421
195.312 -164.062 1410
7.8125 210.938 1264
328.125 62.5 1439
429.688 -62.5 1433
-226.562 210.938 1101
-78.125 -31.25 1322
148.438 421.875 1586
-39.0625 93.75 1343
85.9375 7.8125 1264
-187.5 421.875 1250
367.188 250 1853
-62.5 281.25 1255
-62.5 281.25 1255
226.562 62.5 1349
140.625 78.125 1288
257.812 -195.312 1452
453.125 31.25 1536
273.438 257.812 1936
54.6875 15.625 1292
-85.9375 359.375 1264
234.375 -70.3125 1439
250 304.688 1813
-117.188 203.125 1145
492.188 -93.75 1470
242.188 125 1333
0 -62.5 1439
132.812 -148.438 1616
-31.25 -70.3125 1464
164.062 -85.9375 1483
335.938 218.75 1936
-39.0625 398.438 1477
476.562 343.75 1873
-23.4375 398.438 1452
218.75 -70.3125 1433
70.3125 375 1503
-78.125 390.625 1439
78.125 140.625 1255
203.125 -62.5 1415
234.375 -148.438 1445
31.25 367.188 1523
-109.375 414.062 1433
-31.25 179.688 1189
140.625 148.438 1273
-23.4375 -125 1776
-62.5 414.062 1421
375 46.875 1464
-7.8125 101.562 1328
70.3125 390.625 1496
179.688 257.812 1398
-78.125 93.75 1338
414.062 -125 1523
15.625 125 1283
78.125 0 1268
476.562 210.938 1863
437.5 39.0625 1496
-101.562 70.3125 1376
-109.375 -7.8125 1370
-132.812 210.938 1141
171.875 -203.125 1415
-140.625 414.062 1427
46.875 375 1489
-109.375 23.4375 1387
-109.375 398.438 1470
-70.3125 226.562 1227
62.5 398.438 1496
140.625 117.188 1307
-15.625 -78.125 1452
-78.125 429.688 1421
-46.875 421.875 1421
296.875 109.375 1370
289.062 312.5 1813
492.188 7.8125 1543
-187.5 382.812 1223
-62.5 421.875 1421
-179.688 414.062 1241
-7.8125 93.75 1354
359.375 421.875 1776
46.875 382.812 1489
289.062 109.375 1359
31.25 382.812 1489
250 93.75 1365
-62.5 406.25 1452
-101.562 390.625 1464
85.9375 -265.625 1586
-46.875 70.3125 1349
-85.9375 429.688 1410
468.75 328.125 1894
296.875 -265.625 4139
39.0625 -218.75 1601
-54.6875 195.312 1173
210.938 312.5 1873
429.688 289.062 1739
62.5 320.312 1359
7.8125 414.062 1464
-109.375 375 1464
125 15.625 1302
39.0625 328.125 1349
476.562 15.625 1543
-132.812 46.875 1452
468.75 15.625 1529
-398.438 31.25 1464
78.125 164.062 1236
453.125 -289.062 1873
-171.875 382.812 1197
-109.375 437.5 1404
484.375 -164.062 1926
46.875 -203.125 1594
23.4375 -140.625 1688
281.25 312.5 1804
226.562 -187.5 1421
125 148.438 1264
218.75 -179.688 1415
0 171.875 1202
7.8125 171.875 1202
437.5 -179.688 1883
46.875 398.438 1489
351.562 -39.0625 1381
390.625 -46.875 1410
195.312 195.312 2241
468.75 -70.3125 1464
-109.375 234.375 1206
375 406.25 1757
335.938 -39.0625 1376
62.5 -46.875 1302
-46.875 78.125 1376
-78.125 359.375 1268
-476.562 398.438 1981
46.875 335.938 1601
-23.4375 406.25 1445
289.062 -195.312 1601
85.9375 406.25 1632
-62.5 375 1496
351.562 335.938 1894
93.75 -148.438 1632
-171.875 390.625 1197
7.8125 -23.4375 1264
250 -78.125 1470
437.5 335.938 1883
195.312 101.562 1343
-171.875 406.25 1245
-93.75 375 1503
-109.375 367.188 1255
-46.875 390.625 1464
437.5 -117.188 1601
382.812 359.375 1813
-31.25 390.625 1483
85.9375 -140.625 1655
304.688 132.812 1458
257.812 -93.75 1496
445.312 31.25 1529
15.625 195.312 1210
-93.75 421.875 1398
-31.25 93.75 1349
179.688 101.562 1343
-7.8125 398.438 1458
-109.375 406.25 1433
164.062 -93.75 1489
351.562 -296.875 1936
78.125 187.5 1292
-7.8125 390.625 1458
250 85.9375 1387
54.6875 242.188 1302
23.4375 343.75 1594
179.688 195.312 1365
39.0625 132.812 1264
93.75 312.5 1376
46.875 132.812 1268
-70.3125 23.4375 1343
93.75 382.812 1509
23.4375 398.438 1477
39.0625 375 1516
343.75 62.5 1445
-195.312 328.125 1197
320.312 70.3125 1421
382.812 -140.625 1536
492.188 -78.125 1489
132.812 367.188 1503
-15.625 85.9375 1370
62.5 132.812 1268
-85.9375 343.75 1268
-93.75 382.812 1483
281.25 140.625 1415
335.938 -156.25 1804
351.562 -101.562 1557
195.312 -156.25 1415
-7.8125 359.375 1536
-78.125 406.25 1433
414.062 -101.562 1483
140.625 429.688 1543
375 54.6875 1470
93.75 -7.8125 1273
-195.312 273.438 1173
296.875 343.75 1813
234.375 -15.625 1307
226.562 -7.8125 1302
-93.75 437.5 1398
-140.625 406.25 1445
-78.125 398.438 1439
-70.3125 367.188 1496
429.688 31.25 1509
-109.375 421.875 1398
-125 226.562 1193
140.625 328.125 1477
-15.625 421.875 1439
-46.875 382.812 1496
265.625 -187.5 1464
460.938 62.5 1477
351.562 62.5 1445
62.5 140.625 1250
-148.438 203.125 1134
54.6875 70.3125 1259
453.125 -70.3125 1458
-78.125 23.4375 1343
375 -140.625 1543
7.8125 -156.25 1713
-15.625 -140.625 1739
250 335.938 1833
492.188 -210.938 1883
-101.562 -31.25 1343
226.562 351.562 1804
460.938 -195.312 1873
62.5 390.625 1496
210.938 -195.312 1404
7.8125 367.188 1509
117.188 171.875 1264
242.188 382.812 1804
367.188 -46.875 1392
453.125 273.438 1853
101.562 187.5 1312
390.625 -304.688 1883
382.812 -312.5 3816
-54.6875 39.0625 1343
195.312 -171.875 1398
46.875 171.875 1223
398.438 -296.875 1833
-46.875 429.688 1421
-85.9375 70.3125 1359
-15.625 39.0625 1349
289.062 -226.562 4190
31.25 375 1516
148.438 171.875 1338
484.375 273.438 2040
7.8125 375 1503
-78.125 390.625 1439
453.125 281.25 2016
492.188 -281.25 1843
492.188 281.25 2005
62.5 -7.8125 1273
62.5 351.562 1696
-31.25 406.25 1445
281.25 265.625 1936
367.188 85.9375 1415
-164.062 234.375 1130
-78.125 -23.4375 1328
289.062 -23.4375 1349
117.188 367.188 1529
85.9375 46.875 1268
429.688 -296.875 1853
46.875 250 1292
7.8125 -15.625 1278
140.625 281.25 1404
375 -312.5 3859
-320.312 226.562 1080
39.0625 -7.8125 1292
-164.062 218.75 1126
382.812 -312.5 3816
117.188 289.062 1392
265.625 -15.625 1333
-78.125 31.25 1343
460.938 -70.3125 1464
460.938 250 1813
-320.312 218.75 1101
289.062 125 1370
23.4375 -7.8125 1302
101.562 -7.8125 1273
7.8125 179.688 1202
-125 210.938 1145
117.188 -54.6875 1427
140.625 140.625 1273
398.438 -46.875 1415
7.8125 335.938 1312
257.812 -101.562 1496
226.562 164.062 2241
-359.375 132.812 1255
414.062 23.4375 1483
210.938 156.25 1392
85.9375 140.625 1250
320.312 -257.812 4041
93.75 39.0625 1268
-23.4375 70.3125 1354
-460.938 23.4375 3238
70.3125 367.188 1671
31.25 203.125 1273
78.125 39.0625 1268
23.4375 85.9375 1273
-132.812 382.812 1439
117.188 304.688 1387
-7.8125 414.062 1439
179.688 210.938 1376
382.812 46.875 1470
85.9375 156.25 1241
156.25 -210.938 1586
445.312 -281.25 1823
23.4375 382.812 1477
226.562 -85.9375 1477
273.438 312.5 1813
117.188 -171.875 1579
140.625 296.875 1404
46.875 -62.5 1404
140.625 320.312 1477
304.688 70.3125 1421
210.938 101.562 1349
0 15.625 1307
390.625 -304.688 1883
62.5 -218.75 1579
453.125 265.625 1853
390.625 101.562 1452
-78.125 414.062 1415
-500 31.25 2908
-15.625 179.688 1193
382.812 -312.5 3816
-15.625 359.375 1536
273.438 85.9375 1387
164.062 414.062 1579
429.688 281.25 1731
-140.625 242.188 1193
375 101.562 1427
453.125 62.5 1470
234.375 359.375 1813
476.562 328.125 1904
125 70.3125 1278
492.188 -218.75 1883
-156.25 203.125 1130
484.375 -156.25 1926
195.312 164.062 1365
367.188 -39.0625 1392
-70.3125 437.5 1421
-70.3125 -23.4375 1317
226.562 -117.188 1464
257.812 -15.625 1328
15.625 335.938 1333
468.75 273.438 2053
70.3125 390.625 1496
54.6875 -140.625 1688
234.375 296.875 1843
46.875 398.438 1489
-484.375 398.438 1981
421.875 -85.9375 1489
132.812 70.3125 1288
85.9375 390.625 1509
-31.25 367.188 1843
39.0625 -23.4375 1264
437.5 289.062 1739
132.812 164.062 1268
195.312 -62.5 1410
437.5 -62.5 1439
78.125 -125 1632
-39.0625 367.188 1843
132.812 179.688 1322
85.9375 382.812 1509
-468.75 398.438 1981
-140.625 375 1470
-375 390.625 2040
-23.4375 382.812 1470
-46.875 390.625 1464
-140.625 414.062 1427
156.25 289.062 1421
382.812 -46.875 1404
46.875 375 1489
-46.875 421.875 1421
101.562 -23.4375 1292
62.5 -54.6875 1302
-31.25 -15.625 1302
164.062 -78.125 1458
54.6875 85.9375 1259
39.0625 101.562 1283
429.688 -117.188 1609
39.0625 70.3125 1268
-62.5 375 1496
-7.8125 375 1496
226.562 156.25 1381
195.312 -7.8125 1292
62.5 31.25 1278
429.688 351.562 1853
-39.0625 -23.4375 1302
-15.625 187.5 1197
-101.562 437.5 1404
23.4375 367.188 1523
210.938 367.188 1843
390.625 367.188 1804
-23.4375 398.438 1452
-31.25 421.875 1445
382.812 54.6875 1470
343.75 -117.188 1579
39.0625 203.125 1278
54.6875 171.875 1227
7.8125 390.625 1483
-226.562 226.562 1097
406.25 39.0625 1496
-156.25 398.438 1445
335.938 78.125 1404
-78.125 62.5 1349
-359.375 390.625 2040
46.875 382.812 1489
-445.312 23.4375 3269
31.25 382.812 1489
164.062 171.875 1349
-367.188 390.625 2040
39.0625 -406.25 3539
187.5 -62.5 1415
187.5 109.375 1328
0 351.562 1550
304.688 78.125 1398
39.0625 406.25 1496
359.375 -109.375 1543
0 -23.4375 1273
-31.25 101.562 1328
23.4375 273.438 1312
164.062 109.375 1322
-85.9375 390.625 1433
125 93.75 1273
-382.812 390.625 2040
109.375 -109.375 1564
210.938 351.562 1853
156.25 406.25 1579
492.188 335.938 1883
-132.812 242.188 1197
140.625 437.5 1550
304.688 -195.312 1586
460.938 335.938 1873
31.25 273.438 1312
39.0625 164.062 1219
492.188 -7.8125 1536
23.4375 406.25 1464
179.688 109.375 1322
-23.4375 -101.562 1785
62.5 390.625 1496
46.875 343.75 1739
-171.875 382.812 1197
148.438 101.562 1338
-70.3125 429.688 1421
375 265.625 1833
140.625 -39.0625 1381
-85.9375 93.75 1338
187.5 203.125 1370
-78.125 359.375 1268
-62.5 367.188 1496
382.812 203.125 1813
-453.125 23.4375 3269
296.875 78.125 1398
382.812 -140.625 1536
203.125 -7.8125 1292
312.5 -31.25 1354
39.0625 398.438 1496
39.0625 328.125 1349
148.438 78.125 1288
398.438 93.75 1439
289.062 312.5 1813
-101.562 367.188 1268
0 -132.812 1696
437.5 -429.688 3576
375 -140.625 1543
218.75 -203.125 1415
429.688 39.0625 1503
85.9375 312.5 1370
85.9375 -31.25 1302
164.062 101.562 1338
-70.3125 31.25 1343
-39.0625 429.688 1433
351.562 343.75 1873
-70.3125 359.375 1268
-62.5 406.25 1452
-46.875 406.25 1421
-109.375 203.125 1149
-39.0625 39.0625 1359
421.875 -304.688 1853
46.875 31.25 1288
132.812 -148.438 1616
-210.938 -46.875 1731
406.25 367.188 1804
343.75 -304.688 1959
242.188 -164.062 1445
46.875 15.625 1297
414.062 -125 1523
226.562 382.812 1804
62.5 398.438 1496
320.312 117.188 1387
-195.312 289.062 1177
445.312 78.125 1483
257.812 -171.875 1464
46.875 101.562 1273
484.375 -171.875 1915
195.312 171.875 1354
-101.562 234.375 1210
203.125 -70.3125 1433
-304.688 257.812 1067
125 -125 1624
70.3125 195.312 1292
85.9375 39.0625 1268
-54.6875 85.9375 1354
-132.812 101.562 1312
23.4375 382.812 1477
265.625 382.812 1794
320.312 -31.25 1359
15.625 414.062 1464
-62.5 226.562 1227
-85.9375 421.875 1415
101.562 31.25 1268
-179.688 382.812 1197
140.625 101.562 1338
39.0625 132.812 1264
0 46.875 1333
312.5 312.5 1863
414.062 359.375 1813
468.75 31.25 1536
304.688 -234.375 4139
46.875 359.375 1739
23.4375 242.188 1292
484.375 359.375 1863
125 -132.812 1663
93.75 117.188 1302
-54.6875 31.25 1349
-23.4375 85.9375 1370
101.562 359.375 1572
109.375 85.9375 1273
156.25 312.5 1464
0 390.625 1470
359.375 62.5 1439
-179.688 250 1173
15.625 210.938 1268
62.5 -195.312 1579
-54.6875 226.562 1232
242.188 -187.5 1433
-23.4375 289.062 1255
-117.188 421.875 1415
23.4375 390.625 1477
-85.9375 414.062 1439
-109.375 203.125 1149
54.6875 62.5 1268
179.688 -203.125 1410
250 281.25 1926
343.75 281.25 1915
335.938 -195.312 2028
296.875 312.5 1813
-156.25 390.625 1445
93.75 312.5 1376
-351.562 390.625 2053
265.625 -101.562 1496
148.438 62.5 1288
39.0625 109.375 1283
-7.8125 46.875 1338
-15.625 375 1477
-85.9375 203.125 1161
-62.5 414.062 1421
250 -132.812 1470
492.188 320.312 1915
-117.188 437.5 1404
-31.25 406.25 1445
437.5 273.438 1731
101.562 -117.188 1601
46.875 148.438 1236
-15.625 390.625 1470
281.25 -109.375 1543
125 -203.125 1572
-54.6875 367.188 1489
304.688 85.9375 1381
78.125 125 1288
281.25 78.125 1398
62.5 70.3125 1259
125 156.25 1264
39.0625 210.938 1288
218.75 101.562 1343
437.5 109.375 1680
453.125 -203.125 1883
39.0625 46.875 1292
390.625 54.6875 1464
148.438 437.5 1601
226.562 93.75 1359
476.562 -54.6875 1477
148.438 148.438 1278
117.188 406.25 1550
-15.625 414.062 1439
335.938 70.3125 1421
15.625 179.688 1210
0 398.438 1458
296.875 273.438 1894
93.75 359.375 1579
-15.625 46.875 1349
328.125 -31.25 1370
-125 406.25 1427
382.812 46.875 1470
15.625 -156.25 1705
406.25 101.562 1496
171.875 -15.625 1322
-15.625 382.812 1477
101.562 39.0625 1268
-148.438 390.625 1445
257.812 257.812 1947
54.6875 140.625 1250
39.0625 359.375 1739
148.438 429.688 1594
-46.875 382.812 1496
0 406.25 1458
437.5 351.562 1853
187.5 85.9375 1343
437.5 281.25 1739
-7.8125 85.9375 1370
0 -15.625 1283
46.875 265.625 1278
281.25 85.9375 1392
460.938 31.25 1543
7.8125 125 1288
140.625 93.75 1354
445.312 343.75 1853
226.562 -164.062 1433
23.4375 351.562 1543
250 -78.125 1470
304.688 304.688 1843
343.75 421.875 1739
242.188 -15.625 1312
-187.5 398.438 1236
-179.688 398.438 1236
-62.5 93.75 1338
414.062 296.875 1757
7.8125 46.875 1328
203.125 -156.25 1415
484.375 23.4375 1557
328.125 429.688 1722
335.938 -156.25 1804
-203.125 226.562 1105
-109.375 398.438 1470
109.375 -23.4375 1307
164.062 218.75 1376
109.375 -125 1632
109.375 78.125 1273
-15.625 351.562 1536
-289.062 242.188 1073
250 382.812 1804
476.562 109.375 1609
445.312 -62.5 1445
406.25 -78.125 1464
-85.9375 375 1483
78.125 367.188 1509
109.375 375 1536
39.0625 265.625 1288
304.688 -23.4375 1354
359.375 -148.438 1550
242.188 93.75 1359
343.75 109.375 1427
62.5 -210.938 1579
-23.4375 375 1470
-85.9375 62.5 1359
312.5 -226.562 4139
203.125 0 1292
187.5 -171.875 1404
273.438 -226.562 4190
406.25 -39.0625 1421
476.562 -70.3125 1470
242.188 -101.562 1483
359.375 -39.0625 1392
-46.875 195.312 1181
23.4375 367.188 1523
39.0625 101.562 1283
-156.25 234.375 1134
484.375 -250 1863
-85.9375 23.4375 1381
-257.812 250 1087
23.4375 406.25 1464
7.8125 367.188 1509
62.5 132.812 1268
195.312 125 1302
39.0625 -101.562 1594
382.812 -140.625 1536
132.812 -242.188 1572
-54.6875 429.688 1421
70.3125 85.9375 1259
-101.562 7.8125 1387
-242.188 234.375 1090
-23.4375 414.062 1445
242.188 125 1333
7.8125 382.812 1503
85.9375 164.062 1241
359.375 93.75 1415
-62.5 382.812 1489
304.688 414.062 1722
421.875 -54.6875 1433
23.4375 -62.5 1421
93.75 85.9375 1268
492.188 -210.938 1883
296.875 -242.188 4190
312.5 -210.938 4089
-101.562 203.125 1157
460.938 23.4375 1529
296.875 257.812 1936
31.25 343.75 1601
-195.312 335.938 1197
445.312 257.812 1722
406.25 46.875 1489
-54.6875 187.5 1173
406.25 39.0625 1496
101.562 -15.625 1288
-85.9375 -31.25 1333
15.625 406.25 1464
101.562 382.812 1536
375 -46.875 1398
109.375 109.375 1264
-39.0625 421.875 1433
-39.0625 -70.3125 1464
453.125 257.812 1823
-93.75 39.0625 1354
70.3125 39.0625 1273
289.062 289.062 1883
0 359.375 1536
-117.188 390.625 1464
-31.25 421.875 1445
78.125 132.812 1268
-367.188 101.562 1292
46.875 -7.8125 1288
54.6875 70.3125 1259
-70.3125 359.375 1268
-39.0625 218.75 1236
414.062 335.938 1757
148.438 78.125 1288
39.0625 398.438 1496
171.875 101.562 1338
125 328.125 1496
-101.562 406.25 1433
-7.8125 421.875 1731
-23.4375 218.75 1250
273.438 85.9375 1387
492.188 -70.3125 1489
-85.9375 437.5 1398
148.438 -31.25 1359
265.625 -187.5 1464
23.4375 273.438 1312
226.562 -70.3125 1433
-85.9375 421.875 1415
-117.188 382.812 1464
351.562 54.6875 1458
-70.3125 429.688 1421
179.688 289.062 1936
62.5 375 1509
7.8125 -125 1680
304.688 -242.188 4139
-140.625 203.125 1134
-164.062 390.625 1232
-46.875 -23.4375 1302
-54.6875 382.812 1483
171.875 328.125 1970
296.875 132.812 1427
140.625 78.125 1288
-7.8125 406.25 1452
343.75 -39.0625 1376
312.5 -164.062 1853
7.8125 375 1503
-31.25 398.438 1445
351.562 -148.438 1766
171.875 -70.3125 1433
-78.125 -78.125 1464
39.0625 406.25 1496
-70.3125 390.625 1452
312.5 -187.5 4041
117.188 156.25 1259
125 109.375 1317
54.6875 -85.9375 1392
-117.188 210.938 1149
-132.812 414.062 1427
335.938 62.5 1439
359.375 54.6875 1464
492.188 -226.562 1894
171.875 148.438 1288
140.625 179.688 1333
492.188 -203.125 1904
117.188 -242.188 1564
-140.625 375 1470
398.438 -93.75 1483
39.0625 367.188 1516
46.875 203.125 1283
-54.6875 406.25 1421
398.438 171.875 1776
257.812 85.9375 1381
484.375 -70.3125 1477
484.375 289.062 1993
23.4375 179.688 1219
85.9375 343.75 1601
203.125 101.562 1343
-78.125 187.5 1165
242.188 -218.75 1452
414.062 328.125 1757
-78.125 31.25 1343
