ply
format ascii 1.0
comment Created by Open3D
element vertex 2328
property double x
property double y
property double z
end_header
-78.125 -250 1255
179.688 62.5 1126
-390.625 250 1223
164.062 -125 1130
265.625 0 1153
296.875 46.875 1130
-257.812 -101.562 1227
78.125 312.5 1883
-367.188 312.5 1427
414.062 312.5 1398
-218.75 -46.875 1157
-171.875 23.4375 1181
-406.25 -140.625 1354
-343.75 -93.75 1193
-367.188 0 1177
-390.625 -101.562 1283
-289.062 312.5 1427
-109.375 46.875 1138
23.4375 -265.625 1421
15.625 367.188 1731
-218.75 85.9375 1177
-281.25 -39.0625 1177
148.438 140.625 1794
421.875 320.312 1387
171.875 390.625 1483
-179.688 15.625 1181
179.688 -132.812 1130
148.438 179.688 1804
-296.875 343.75 1359
-382.812 296.875 1452
-226.562 281.25 1259
-406.25 234.375 1227
-351.562 15.625 1185
351.562 62.5 1126
476.562 85.9375 1145
70.3125 414.062 1452
-210.938 273.438 1259
140.625 179.688 1804
390.625 -234.375 1458
-343.75 39.0625 1145
-265.625 351.562 1338
484.375 343.75 1433
406.25 -62.5 1509
-210.938 195.312 1214
0 273.438 1873
328.125 359.375 1370
-62.5 46.875 1141
31.25 23.4375 1169
-203.125 23.4375 1185
-148.438 15.625 1181
-289.062 23.4375 1193
-390.625 78.125 1185
375 62.5 1123
429.688 398.438 1370
-375 -85.9375 1259
70.3125 7.8125 1161
-289.062 335.938 1376
54.6875 304.688 1883
-492.188 39.0625 1149
-398.438 -132.812 1210
140.625 250 1853
132.812 328.125 1579
171.875 -132.812 1130
-156.25 23.4375 1181
210.938 -132.812 1126
7.8125 31.25 1173
-226.562 328.125 1404
0 -187.5 1283
-304.688 -85.9375 1177
-304.688 -62.5 1177
-289.062 320.312 1410
-296.875 312.5 1427
359.375 -78.125 1149
-421.875 320.312 1381
39.0625 23.4375 1169
-398.438 312.5 1415
468.75 -62.5 1489
46.875 -265.625 1433
476.562 375 1427
-218.75 62.5 1141
-234.375 328.125 1404
-218.75 93.75 1185
-281.25 320.312 1421
-218.75 101.562 1189
148.438 -164.062 1181
-476.562 328.125 1376
-203.125 250 1232
-320.312 -85.9375 1173
-296.875 328.125 1404
-289.062 15.625 1219
85.9375 23.4375 1165
390.625 304.688 1392
421.875 406.25 1359
265.625 -117.188 1126
-406.25 210.938 1219
492.188 351.562 1427
-171.875 367.188 1322
328.125 367.188 1264
-148.438 101.562 1193
-156.25 15.625 1181
-273.438 296.875 1483
101.562 304.688 1883
-257.812 257.812 1223
-54.6875 -273.438 1255
445.312 62.5 1112
-281.25 351.562 1343
46.875 -289.062 1439
-187.5 382.812 1297
429.688 359.375 1359
390.625 414.062 1359
281.25 265.625 1370
-367.188 328.125 1398
-335.938 343.75 1359
-335.938 343.75 1343
359.375 -39.0625 1153
492.188 148.438 1173
-296.875 85.9375 1185
-70.3125 23.4375 1181
-93.75 -296.875 1255
-210.938 171.875 1210
359.375 171.875 1193
-195.312 359.375 1292
-164.062 296.875 1328
-62.5 -226.562 1268
-23.4375 -304.688 1255
320.312 -117.188 1123
7.8125 -156.25 1292
78.125 -242.188 1328
445.312 328.125 1387
-500 31.25 1149
54.6875 46.875 1134
-54.6875 351.562 1766
187.5 23.4375 1189
-414.062 234.375 1232
335.938 375 1381
-46.875 -273.438 1255
-304.688 328.125 1398
-46.875 -203.125 1273
-78.125 15.625 1177
-117.188 101.562 1197
335.938 265.625 1219
-476.562 226.562 1236
320.312 382.812 1278
23.4375 335.938 1794
62.5 46.875 1126
-312.5 15.625 1210
-148.438 23.4375 1189
460.938 -226.562 1445
257.812 304.688 1489
351.562 382.812 1359
-312.5 335.938 1376
-187.5 375 1292
-265.625 335.938 1381
31.25 -257.812 1349
382.812 304.688 1387
320.312 328.125 1259
156.25 390.625 1439
476.562 93.75 1161
-328.125 -70.3125 1177
-39.0625 281.25 1873
-101.562 23.4375 1181
250 23.4375 1189
78.125 7.8125 1165
-265.625 289.062 1496
7.8125 335.938 1785
-117.188 15.625 1177
-210.938 367.188 1328
429.688 250 1206
484.375 234.375 1202
-375 -78.125 1273
453.125 273.438 1458
46.875 7.8125 1165
-195.312 351.562 1283
-125 -101.562 1145
78.125 46.875 1126
359.375 -70.3125 1141
46.875 -281.25 1439
359.375 -54.6875 1145
-335.938 328.125 1392
-195.312 296.875 1268
257.812 0 1157
-132.812 367.188 1338
-312.5 242.188 1227
-437.5 312.5 1410
429.688 390.625 1392
-179.688 296.875 1268
351.562 390.625 1370
-234.375 -54.6875 1157
-414.062 -242.188 3238
289.062 0 1157
359.375 -31.25 1157
-101.562 -148.438 1288
359.375 164.062 1189
460.938 -218.75 1452
367.188 414.062 1338
-85.9375 23.4375 1181
-7.8125 304.688 1883
367.188 242.188 1206
-335.938 -23.4375 1173
-117.188 117.188 1202
-351.562 -140.625 1197
-7.8125 -250 1268
-210.938 203.125 1214
-85.9375 -171.875 1283
-359.375 265.625 688
382.812 -242.188 1470
-54.6875 23.4375 1185
367.188 406.25 1354
-335.938 242.188 1232
39.0625 304.688 1883
-398.438 304.688 1433
-203.125 335.938 1283
-289.062 -54.6875 1177
-281.25 85.9375 1185
-460.938 320.312 1370
492.188 164.062 1157
359.375 382.812 1343
-367.188 367.188 1338
-304.688 312.5 1433
125 382.812 1439
359.375 289.062 1427
437.5 335.938 1365
351.562 -54.6875 1145
31.25 -289.062 1433
-187.5 359.375 1292
85.9375 7.8125 1165
-195.312 367.188 1297
0 -125 1138
132.812 23.4375 1181
187.5 -101.562 1134
250 -195.312 3365
-257.812 -125 1223
-398.438 289.062 1477
-328.125 -93.75 1185
-101.562 62.5 1138
54.6875 31.25 1169
-203.125 367.188 1333
-375 312.5 1410
101.562 23.4375 1189
460.938 375 1398
-429.688 304.688 1410
117.188 382.812 1439
156.25 132.812 1785
-125 367.188 1338
375 398.438 1365
-171.875 398.438 1307
414.062 -54.6875 1523
-179.688 429.688 1312
-359.375 -132.812 1202
-320.312 257.812 1232
-140.625 23.4375 1189
-382.812 304.688 1445
-343.75 -109.375 1232
-281.25 -132.812 1232
-234.375 359.375 1322
-70.3125 -343.75 1477
390.625 382.812 1322
-398.438 234.375 1232
-203.125 351.562 1268
375 257.812 1197
367.188 93.75 1173
-343.75 -140.625 1189
203.125 -171.875 1169
359.375 398.438 1365
421.875 398.438 1365
-78.125 -148.438 1288
-7.8125 -148.438 1288
-398.438 -31.25 1317
195.312 375 1496
-203.125 304.688 1268
-109.375 23.4375 1181
164.062 390.625 1445
-31.25 367.188 1739
-85.9375 -312.5 1458
406.25 62.5 1119
-289.062 -164.062 1427
125 429.688 1427
492.188 171.875 1153
-226.562 -62.5 1157
-335.938 281.25 1503
-289.062 -31.25 1173
-398.438 367.188 1338
484.375 398.438 1349
-320.312 351.562 1338
390.625 312.5 1381
257.812 -117.188 1126
492.188 156.25 1173
78.125 320.312 1863
46.875 31.25 1165
-242.188 273.438 1543
250 0 1157
-304.688 359.375 1338
-296.875 242.188 1227
109.375 7.8125 1161
437.5 390.625 1381
-179.688 421.875 1307
-54.6875 -289.062 1250
296.875 -46.875 1141
437.5 343.75 1370
-210.938 -54.6875 1161
-179.688 31.25 1161
-296.875 0 1173
-320.312 -46.875 1169
484.375 39.0625 1141
312.5 429.688 1297
351.562 195.312 1197
-460.938 78.125 1189
437.5 375 1421
-367.188 -7.8125 1193
-257.812 -46.875 1189
-460.938 78.125 1189
359.375 218.75 1206
-23.4375 -148.438 1288
7.8125 304.688 1894
359.375 132.812 1177
-296.875 -250 3300
-351.562 343.75 1338
23.4375 -257.812 1359
-289.062 281.25 1509
-210.938 156.25 1206
-250 -7.8125 1202
0 23.4375 1181
-445.312 85.9375 1189
-101.562 15.625 1177
179.688 390.625 1470
-23.4375 23.4375 1181
343.75 62.5 1126
-343.75 343.75 1343
484.375 140.625 1177
-218.75 343.75 1365
-367.188 -70.3125 1268
-304.688 62.5 1145
429.688 -62.5 1503
-203.125 15.625 1181
-210.938 -39.0625 1165
-210.938 164.062 1210
-46.875 -312.5 1464
164.062 -156.25 1189
-375 304.688 1439
-54.6875 -203.125 1273
-390.625 328.125 1376
-429.688 -148.438 3269
148.438 328.125 1586
-195.312 171.875 1219
375 242.188 1206
39.0625 7.8125 1165
-351.562 328.125 1381
-390.625 343.75 1333
-218.75 250 1223
-335.938 -54.6875 1177
-195.312 289.062 1264
-335.938 273.438 1509
109.375 375 1470
-320.312 -39.0625 1165
242.188 375 1564
312.5 437.5 1292
-179.688 289.062 1273
-195.312 15.625 1181
-187.5 203.125 1232
-289.062 382.812 1639
-109.375 421.875 1349
-250 343.75 1365
156.25 -164.062 1189
-242.188 257.812 1223
0 304.688 1894
-31.25 -304.688 1255
-164.062 437.5 1322
-367.188 148.438 1197
-218.75 117.188 1193
156.25 140.625 1804
289.062 -117.188 1126
-460.938 359.375 1496
-109.375 15.625 1181
62.5 23.4375 1185
-46.875 -148.438 1268
-453.125 335.938 1376
-226.562 -15.625 1173
-210.938 296.875 1268
-265.625 296.875 1477
-375 320.312 1404
390.625 281.25 1376
-31.25 -257.812 1259
-382.812 210.938 1223
367.188 398.438 1365
484.375 382.812 1349
-187.5 367.188 1292
-343.75 15.625 1193
-218.75 328.125 1404
-367.188 335.938 1365
-343.75 23.4375 1177
-328.125 281.25 1503
-187.5 351.562 1283
-195.312 320.312 1278
-492.188 281.25 1255
484.375 335.938 1439
-242.188 281.25 1503
-296.875 281.25 1516
-250 -85.9375 1219
359.375 390.625 1359
-195.312 179.688 1219
132.812 171.875 1813
62.5 7.8125 1165
429.688 335.938 1365
382.812 218.75 1197
-234.375 335.938 1381
-62.5 -234.375 1264
-109.375 -289.062 1250
46.875 312.5 1894
-109.375 -242.188 1264
-320.312 296.875 1470
226.562 31.25 1181
-289.062 -39.0625 1173
328.125 7.8125 1161
476.562 335.938 1445
343.75 390.625 1381
-328.125 31.25 1161
320.312 375 1278
-328.125 0 1181
-414.062 335.938 1343
-265.625 -125 1223
-39.0625 -289.062 1259
-390.625 -15.625 1317
-429.688 343.75 1343
-351.562 15.625 1189
429.688 406.25 1359
-382.812 78.125 1185
-179.688 414.062 1307
-164.062 187.5 1328
164.062 101.562 1177
-335.938 -46.875 1177
-453.125 78.125 1189
-250 -39.0625 1193
93.75 320.312 1883
15.625 375 1696
-39.0625 -148.438 1268
-437.5 304.688 1415
-210.938 187.5 1214
179.688 335.938 1572
-296.875 23.4375 1185
-320.312 265.625 1529
-250 -93.75 1236
-203.125 296.875 1268
-421.875 335.938 1343
-375 351.562 1333
-281.25 296.875 1470
148.438 23.4375 1181
-210.938 250 1227
468.75 -226.562 1445
-359.375 328.125 1381
-164.062 15.625 1181
46.875 -257.812 1349
382.812 -250 1470
101.562 289.062 1873
54.6875 7.8125 1165
23.4375 -164.062 1387
187.5 359.375 1543
-281.25 -117.188 1206
375 -85.9375 1141
-54.6875 281.25 1873
328.125 -125 1126
250 -117.188 1126
453.125 296.875 1452
-484.375 312.5 1370
-296.875 359.375 1338
335.938 -125 1130
125 359.375 1572
-210.938 148.438 1202
-335.938 -117.188 1206
476.562 78.125 1153
-273.438 -117.188 1210
148.438 390.625 1439
-367.188 -15.625 1193
-304.688 218.75 1223
-429.688 -265.625 3333
-187.5 -117.188 1153
-101.562 -156.25 1288
-132.812 -265.625 1470
23.4375 304.688 1883
335.938 390.625 1381
-250 320.312 1410
-460.938 359.375 1496
-210.938 304.688 1268
-117.188 265.625 1713
23.4375 -265.625 1421
-273.438 351.562 1338
367.188 101.562 1173
265.625 -117.188 1126
-289.062 -140.625 1210
-289.062 304.688 1470
179.688 351.562 1564
-234.375 15.625 1223
367.188 265.625 1202
-62.5 351.562 1757
23.4375 109.375 1197
-171.875 15.625 1181
125 406.25 1439
-7.8125 -218.75 1273
414.062 382.812 1359
-70.3125 351.562 1757
-93.75 23.4375 1181
-210.938 -70.3125 1161
23.4375 -281.25 1421
148.438 171.875 1813
-125 125 1696
382.812 -70.3125 1529
148.438 125 1785
-328.125 15.625 1197
390.625 85.9375 1161
-265.625 304.688 1452
359.375 156.25 1185
-31.25 23.4375 1185
0 46.875 1138
54.6875 304.688 1883
-343.75 -46.875 1185
-273.438 -132.812 1232
-367.188 320.312 1415
-195.312 281.25 1264
-468.75 226.562 1236
382.812 85.9375 1165
335.938 281.25 1236
-312.5 39.0625 1145
492.188 -62.5 1503
-390.625 -78.125 1283
-367.188 -46.875 1189
-312.5 351.562 1338
179.688 23.4375 1185
-273.438 23.4375 1181
187.5 -132.812 1134
242.188 0 1157
-273.438 -109.375 1210
359.375 343.75 1359
-210.938 -62.5 1161
-359.375 -15.625 1173
15.625 304.688 1883
468.75 359.375 1439
195.312 -132.812 1134
468.75 390.625 1365
-187.5 15.625 1185
-226.562 359.375 1322
195.312 -140.625 1134
320.312 62.5 1126
-281.25 320.312 1404
-437.5 148.438 1197
-257.812 62.5 1145
-289.062 343.75 1354
-375 -15.625 1210
-328.125 85.9375 1189
0 -289.062 1264
-78.125 -195.312 1273
-382.812 343.75 1333
140.625 195.312 1823
468.75 375 1404
-281.25 328.125 1398
335.938 398.438 1376
-273.438 320.312 1410
-289.062 328.125 1404
-406.25 320.312 1381
-421.875 320.312 1381
-382.812 -93.75 1297
-492.188 31.25 1153
-289.062 -132.812 1214
-70.3125 31.25 1169
-281.25 351.562 1333
-62.5 -273.438 1255
421.875 382.812 1365
-335.938 -156.25 1433
-296.875 -39.0625 1169
-476.562 328.125 1370
187.5 328.125 1823
335.938 273.438 1241
-359.375 -109.375 1241
398.438 -62.5 1523
-132.812 429.688 1338
-453.125 31.25 1149
-195.312 304.688 1268
226.562 0 1157
351.562 406.25 1359
-242.188 320.312 1415
-359.375 335.938 1343
-289.062 210.938 1219
46.875 304.688 1883
-398.438 335.938 1349
-437.5 78.125 1189
-390.625 289.062 1477
-367.188 -7.8125 1193
-492.188 351.562 1278
382.812 -257.812 1470
468.75 -78.125 1489
-296.875 -148.438 1210
-320.312 320.312 1410
-195.312 -117.188 1153
-7.8125 -179.688 1288
-343.75 148.438 1206
-46.875 -125 1138
78.125 54.6875 1123
328.125 414.062 1322
-359.375 312.5 1427
-101.562 -296.875 1250
398.438 359.375 1343
-414.062 320.312 1381
-359.375 140.625 1202
-250 257.812 1223
218.75 0 1157
101.562 437.5 1421
-367.188 351.562 1338
-289.062 39.0625 1145
-7.8125 367.188 1731
46.875 -296.875 3300
-109.375 437.5 1343
-210.938 343.75 1268
-234.375 -31.25 1210
132.812 257.812 1843
109.375 437.5 1421
-187.5 23.4375 1189
375 343.75 1354
-93.75 -250 1259
-351.562 -70.3125 1189
-39.0625 31.25 1181
414.062 -62.5 1509
398.438 62.5 1123
437.5 289.062 1483
-242.188 85.9375 1185
-312.5 289.062 1477
-15.625 414.062 1594
-281.25 335.938 1376
429.688 351.562 1365
156.25 -132.812 1138
125 382.812 1439
39.0625 -289.062 1433
-218.75 15.625 1181
156.25 390.625 1439
-187.5 351.562 1283
234.375 0 1157
-210.938 171.875 1210
-62.5 -289.062 1250
-312.5 62.5 1145
210.938 0 1157
70.3125 7.8125 1165
-218.75 359.375 1333
-15.625 -195.312 1288
492.188 335.938 1415
39.0625 7.8125 1165
-445.312 148.438 1202
218.75 -164.062 1227
390.625 -335.938 3092
-328.125 351.562 1338
-210.938 54.6875 1145
-296.875 304.688 1452
171.875 335.938 1586
-218.75 54.6875 1141
-390.625 234.375 1232
-179.688 421.875 1307
406.25 242.188 1206
-15.625 359.375 1748
359.375 414.062 1328
-23.4375 359.375 1748
-156.25 62.5 1145
-304.688 296.875 1470
132.812 421.875 1445
398.438 351.562 1343
-429.688 304.688 1410
-39.0625 -289.062 1259
-210.938 179.688 1210
-492.188 304.688 1259
140.625 -132.812 1130
-273.438 335.938 1381
140.625 359.375 1579
437.5 257.812 1206
476.562 367.188 1433
414.062 398.438 1370
78.125 23.4375 1169
-62.5 -148.438 1288
-320.312 15.625 1210
-421.875 328.125 1370
132.812 359.375 1579
-195.312 -109.375 1149
187.5 367.188 1536
406.25 398.438 1365
-289.062 -148.438 1210
-429.688 328.125 1376
468.75 78.125 1149
-210.938 328.125 1404
203.125 101.562 1181
-367.188 210.938 1223
-468.75 328.125 1370
304.688 -117.188 1126
-148.438 328.125 1392
-93.75 -156.25 1288
359.375 179.688 1189
-367.188 -156.25 1410
171.875 -132.812 1134
-328.125 -156.25 1433
359.375 -15.625 1153
-62.5 -125 1141
359.375 62.5 1126
-250 85.9375 1185
-289.062 312.5 1410
-203.125 85.9375 1189
351.562 414.062 1322
-195.312 85.9375 1185
390.625 54.6875 1123
359.375 -85.9375 1134
-312.5 -70.3125 1173
-78.125 -335.938 1477
382.812 -265.625 1470
-31.25 54.6875 1134
0 -156.25 1292
257.812 101.562 1185
-312.5 335.938 1376
437.5 351.562 1365
148.438 132.812 1785
-382.812 54.6875 1141
-375 78.125 1189
-406.25 148.438 1202
343.75 406.25 1365
343.75 406.25 1365
-382.812 234.375 1232
7.8125 -156.25 1292
437.5 359.375 1365
195.312 343.75 1776
109.375 -78.125 1138
-23.4375 414.062 1601
445.312 265.625 1477
390.625 242.188 1206
265.625 -187.5 3399
-359.375 351.562 1338
382.812 62.5 1126
-351.562 156.25 1206
-265.625 85.9375 1185
414.062 390.625 1365
-257.812 218.75 1223
15.625 -281.25 1268
359.375 382.812 1343
453.125 39.0625 1134
-367.188 78.125 1189
-250 -62.5 1197
-359.375 -39.0625 1181
179.688 15.625 1157
414.062 -70.3125 1509
-304.688 -85.9375 1157
-320.312 -117.188 1193
359.375 -93.75 1126
-195.312 367.188 1297
-31.25 -171.875 1283
7.8125 -179.688 1292
-54.6875 351.562 1766
-226.562 335.938 1387
492.188 242.188 1202
-421.875 343.75 1338
203.125 351.562 1748
-375 335.938 1365
101.562 7.8125 1161
453.125 328.125 1387
-195.312 156.25 1219
-312.5 242.188 1227
-210.938 -39.0625 1165
-15.625 23.4375 1181
-234.375 281.25 1509
-273.438 -132.812 1232
351.562 390.625 1370
-335.938 320.312 1410
492.188 -328.125 1415
210.938 -171.875 1245
335.938 367.188 1381
-195.312 23.4375 1189
-218.75 -70.3125 1157
406.25 382.812 1328
-218.75 109.375 1189
375 -78.125 1145
-320.312 335.938 1376
484.375 78.125 1149
171.875 390.625 1445
-328.125 -15.625 1173
-468.75 140.625 1210
-296.875 312.5 1445
-320.312 351.562 1338
343.75 335.938 1370
31.25 7.8125 1165
-179.688 406.25 1307
93.75 320.312 1883
-343.75 93.75 1189
-265.625 -132.812 1241
-70.3125 -257.812 1255
359.375 -125 1123
-359.375 78.125 1189
421.875 -62.5 1509
187.5 101.562 1181
-210.938 -78.125 1157
273.438 85.9375 1165
242.188 70.3125 1126
7.8125 23.4375 1185
101.562 367.188 1470
140.625 187.5 1813
-320.312 -140.625 1206
484.375 -62.5 1496
-351.562 312.5 1421
140.625 429.688 1427
109.375 375 1470
-234.375 -7.8125 1206
-312.5 -39.0625 1165
-398.438 -31.25 1317
-453.125 171.875 1214
328.125 62.5 1126
-296.875 296.875 1477
-226.562 -85.9375 1153
-460.938 226.562 1236
203.125 -132.812 1141
343.75 -117.188 1126
351.562 242.188 1206
46.875 7.8125 1165
93.75 367.188 1470
-429.688 273.438 1503
-195.312 289.062 1264
-359.375 7.8125 1177
-109.375 -296.875 1250
-70.3125 -187.5 1278
281.25 226.562 1381
-93.75 -257.812 1259
359.375 296.875 1421
492.188 78.125 1141
-296.875 -85.9375 1173
39.0625 406.25 1496
429.688 375 1381
484.375 156.25 1173
250 62.5 1123
476.562 320.312 1445
39.0625 -250 1349
-367.188 312.5 1421
-195.312 312.5 1273
164.062 390.625 1445
-210.938 -62.5 1161
351.562 15.625 1197
445.312 -62.5 1503
468.75 -62.5 1496
-289.062 359.375 1328
343.75 390.625 1381
-312.5 -54.6875 1169
-46.875 23.4375 1185
-320.312 -78.125 1169
-203.125 289.062 1268
-179.688 437.5 1322
179.688 343.75 1572
-171.875 359.375 1288
-7.8125 304.688 1883
-164.062 421.875 1317
132.812 273.438 1853
-23.4375 -257.812 1264
-328.125 -109.375 1189
-367.188 335.938 1365
-328.125 23.4375 1181
375 242.188 1206
-257.812 -148.438 1250
312.5 335.938 1264
296.875 62.5 1126
-62.5 -195.312 1278
-265.625 351.562 1343
-406.25 234.375 1232
187.5 -140.625 1134
-351.562 15.625 1189
210.938 -101.562 1134
-164.062 257.812 1307
382.812 312.5 1387
-351.562 328.125 1381
62.5 7.8125 1165
-125 -218.75 1264
-218.75 -62.5 1157
203.125 0 1157
359.375 -101.562 1119
460.938 234.375 1197
15.625 -109.375 1138
-179.688 273.438 1268
-296.875 343.75 1365
-460.938 164.062 1214
-390.625 257.812 1557
-210.938 164.062 1210
351.562 398.438 1376
156.25 132.812 1785
-132.812 -281.25 1477
-226.562 351.562 1338
242.188 304.688 1601
226.562 382.812 1647
-289.062 242.188 1227
46.875 -273.438 1439
-242.188 0 1206
140.625 250 1843
-203.125 242.188 1227
-289.062 320.312 1410
140.625 203.125 1823
359.375 164.062 1189
414.062 375 1359
-281.25 218.75 1223
257.812 -125 1126
-187.5 367.188 1292
421.875 375 1365
-312.5 218.75 1223
312.5 15.625 1193
218.75 382.812 1503
-250 -70.3125 1197
359.375 -31.25 1157
359.375 242.188 1206
382.812 -304.688 1452
-468.75 156.25 1206
-398.438 -39.0625 1312
460.938 -62.5 1503
-242.188 -148.438 1259
-351.562 265.625 1550
476.562 382.812 1354
468.75 -234.375 1439
-195.312 265.625 1259
-312.5 296.875 1470
-46.875 351.562 1757
164.062 328.125 1586
-359.375 -70.3125 1264
-257.812 351.562 1343
312.5 257.812 1255
-281.25 328.125 1398
-335.938 39.0625 1149
328.125 328.125 1259
-500 -234.375 2503
250 -125 1130
-132.812 23.4375 1185
-179.688 281.25 1273
31.25 -257.812 1349
-289.062 218.75 1219
-39.0625 -234.375 1268
-85.9375 -257.812 1259
-179.688 414.062 1307
429.688 39.0625 1138
-304.688 -164.062 1452
453.125 78.125 1134
-210.938 -85.9375 1149
414.062 382.812 1359
23.4375 -257.812 1359
164.062 101.562 1177
-148.438 15.625 1181
-421.875 54.6875 1145
492.188 39.0625 1134
125 382.812 1439
31.25 -265.625 1421
-234.375 328.125 1398
-367.188 54.6875 1145
406.25 85.9375 1161
46.875 -257.812 1349
179.688 -132.812 1130
-359.375 -421.875 3149
-101.562 -171.875 1283
-148.438 421.875 1354
359.375 -109.375 1119
-289.062 -132.812 1214
171.875 101.562 1177
476.562 343.75 1452
-273.438 351.562 1338
156.25 -171.875 1189
468.75 234.375 1202
54.6875 296.875 1883
-375 273.438 683
398.438 242.188 1206
-187.5 234.375 1245
-304.688 -39.0625 1165
460.938 78.125 1134
-328.125 242.188 1232
-460.938 382.812 1483
140.625 195.312 1823
304.688 15.625 1153
-468.75 148.438 1210
-328.125 -140.625 1197
367.188 109.375 1173
359.375 171.875 1193
-312.5 281.25 1496
-312.5 -62.5 1173
-101.562 -179.688 1278
-320.312 242.188 1227
-23.4375 -304.688 1255
-210.938 289.062 1268
226.562 0 1157
359.375 218.75 1206
375 218.75 1202
484.375 289.062 1439
375 382.812 1328
-117.188 234.375 1722
-164.062 -101.562 1149
-257.812 -93.75 1197
-117.188 23.4375 1185
-312.5 -140.625 1206
148.438 -132.812 1134
421.875 390.625 1381
-273.438 320.312 1410
148.438 351.562 1586
-187.5 351.562 1283
-242.188 62.5 1141
-335.938 23.4375 1177
-203.125 218.75 1227
-15.625 -187.5 1288
-429.688 312.5 1404
-85.9375 -296.875 1245
-367.188 -15.625 1193
335.938 -132.812 1138
-117.188 -78.125 1153
-343.75 -85.9375 1189
406.25 390.625 1359
-328.125 -15.625 1173
109.375 375 1470
367.188 257.812 1202
-101.562 -187.5 1278
148.438 195.312 1823
-234.375 273.438 1509
-132.812 101.562 1202
-289.062 -140.625 1210
-351.562 -148.438 1197
-46.875 31.25 1169
62.5 31.25 1173
-390.625 281.25 1489
-148.438 429.688 1349
257.812 0 1157
367.188 382.812 1338
-273.438 328.125 1404
335.938 210.938 1202
-210.938 -93.75 1149
54.6875 7.8125 1165
-31.25 312.5 1873
-101.562 23.4375 1181
-210.938 -93.75 1149
15.625 7.8125 1169
226.562 296.875 1713
-78.125 23.4375 1181
460.938 -39.0625 1439
-281.25 -117.188 1206
460.938 -218.75 1452
-312.5 -109.375 1189
-203.125 250 1232
210.938 31.25 1169
421.875 406.25 1365
351.562 203.125 1193
187.5 335.938 1794
398.438 390.625 1322
210.938 406.25 1489
-414.062 335.938 1343
-375 304.688 1439
242.188 296.875 1601
445.312 -39.0625 1439
-109.375 -320.312 1496
179.688 31.25 1173
-398.438 210.938 1223
23.4375 23.4375 1181
484.375 351.562 1439
-335.938 15.625 1197
46.875 -289.062 1433
218.75 0 1157
-242.188 218.75 1219
-460.938 -85.9375 1671
460.938 382.812 1398
468.75 -218.75 1445
-62.5 23.4375 1185
398.438 85.9375 1161
-187.5 335.938 1283
-367.188 -7.8125 1193
-343.75 343.75 1343
125 273.438 1863
-453.125 320.312 1370
-421.875 312.5 1398
242.188 0 1157
156.25 304.688 1883
-164.062 273.438 1307
-7.8125 359.375 1748
382.812 382.812 1322
23.4375 -125 1138
335.938 390.625 1381
-93.75 -242.188 1259
-234.375 179.688 1210
406.25 406.25 1365
453.125 85.9375 1157
-367.188 -85.9375 1259
328.125 390.625 1278
375 414.062 1343
-281.25 359.375 1328
-164.062 23.4375 1185
39.0625 7.8125 1165
-78.125 -296.875 1245
-46.875 -257.812 1255
-406.25 148.438 1202
-304.688 23.4375 1185
-335.938 -23.4375 1173
476.562 328.125 1445
-31.25 -281.25 1255
460.938 375 1398
-46.875 -234.375 1268
375 85.9375 1169
-234.375 85.9375 1185
-7.8125 23.4375 1181
453.125 312.5 1458
328.125 406.25 1278
484.375 164.062 1177
281.25 0 1153
-39.0625 23.4375 1181
-492.188 -85.9375 1671
-70.3125 -218.75 1268
-359.375 -15.625 1173
-367.188 -70.3125 1268
-179.688 406.25 1307
-179.688 398.438 1307
-101.562 -164.062 1283
-273.438 343.75 1365
312.5 421.875 1288
343.75 406.25 1365
335.938 406.25 1365
78.125 31.25 1173
335.938 289.062 1245
382.812 343.75 1349
445.312 -296.875 1421
140.625 406.25 1439
453.125 234.375 1202
70.3125 406.25 1470
-46.875 -203.125 1273
343.75 132.812 1177
23.4375 31.25 1165
-273.438 -125 1223
-437.5 343.75 1338
382.812 242.188 1206
460.938 273.438 1458
-54.6875 -257.812 1255
-242.188 343.75 1365
-101.562 -148.438 1288
328.125 15.625 1161
476.562 359.375 1433
-328.125 39.0625 1149
-203.125 343.75 1268
351.562 335.938 1365
328.125 335.938 1259
429.688 406.25 1359
-171.875 343.75 1288
-31.25 -304.688 1255
343.75 15.625 1197
-343.75 328.125 1398
-468.75 164.062 1206
476.562 164.062 1177
-257.812 85.9375 1185
-359.375 335.938 1343
-226.562 257.812 1223
-312.5 351.562 1338
367.188 414.062 1338
62.5 351.562 1601
-273.438 335.938 1381
-218.75 273.438 1250
7.8125 7.8125 1169
-70.3125 -273.438 1250
453.125 -23.4375 1365
78.125 390.625 1464
-257.812 296.875 1477
-257.812 335.938 1370
367.188 242.188 1206
187.5 -148.438 1177
148.438 187.5 1813
-390.625 343.75 1333
132.812 101.562 1177
-281.25 15.625 1210
-453.125 164.062 1202
359.375 85.9375 1165
0 31.25 1169
-273.438 257.812 1227
-437.5 85.9375 1189
250 15.625 1157
-242.188 -46.875 1197
335.938 15.625 1197
-453.125 242.188 1241
-7.8125 -218.75 1273
-250 218.75 1223
-414.062 320.312 1381
-179.688 265.625 1268
351.562 -7.8125 1153
-289.062 85.9375 1185
-203.125 359.375 1292
-101.562 406.25 1349
-210.938 85.9375 1185
-54.6875 31.25 1165
70.3125 304.688 1883
-210.938 281.25 1273
-320.312 281.25 1477
-195.312 148.438 1214
-359.375 296.875 1477
46.875 23.4375 1169
390.625 398.438 1359
7.8125 304.688 1894
406.25 -62.5 1516
-281.25 312.5 1433
-54.6875 -195.312 1278
164.062 -148.438 1189
492.188 289.062 1433
468.75 390.625 1365
-460.938 -46.875 1477
-250 273.438 1543
476.562 351.562 1452
-296.875 -117.188 1189
171.875 31.25 1169
-273.438 -132.812 1232
195.312 390.625 1464
85.9375 445.312 1452
-23.4375 31.25 1173
421.875 304.688 1410
-359.375 7.8125 1177
437.5 39.0625 1138
-117.188 31.25 1165
-257.812 15.625 1219
-23.4375 328.125 1823
0 7.8125 1169
421.875 39.0625 1130
-242.188 351.562 1343
-140.625 320.312 1496
-226.562 0 1181
273.438 15.625 1153
312.5 -117.188 1126
429.688 304.688 1410
-359.375 328.125 1381
492.188 140.625 1173
-39.0625 -304.688 1259
476.562 -328.125 1410
460.938 390.625 1376
-39.0625 -257.812 1259
195.312 0 1161
-265.625 351.562 1343
429.688 359.375 1365
257.812 15.625 1153
296.875 15.625 1157
-234.375 343.75 1365
-234.375 312.5 1439
359.375 148.438 1181
398.438 328.125 1359
-78.125 -125 1153
265.625 312.5 1489
-78.125 -195.312 1273
-164.062 429.688 1322
-390.625 312.5 1415
359.375 382.812 1343
-304.688 335.938 1370
101.562 304.688 1873
-218.75 7.8125 1177
359.375 398.438 1365
382.812 -62.5 1529
-414.062 148.438 1206
-382.812 343.75 1333
-85.9375 -257.812 1259
-15.625 359.375 1748
-70.3125 -125 1145
-335.938 -140.625 1189
492.188 -39.0625 1273
187.5 -187.5 1250
-421.875 -195.312 3269
-445.312 406.25 1529
-320.312 -85.9375 1169
-179.688 -101.562 1145
-296.875 242.188 1227
46.875 -296.875 3300
31.25 7.8125 1165
484.375 -328.125 1415
78.125 320.312 1863
-218.75 281.25 1273
-117.188 -210.938 1268
421.875 296.875 1421
31.25 -242.188 1349
-70.3125 -328.125 1470
328.125 375 1278
-375 234.375 1232
468.75 -54.6875 1509
-156.25 15.625 1181
476.562 343.75 1452
335.938 296.875 1245
125 421.875 1445
-46.875 -226.562 1268
-304.688 296.875 1470
109.375 15.625 1161
-226.562 320.312 1398
-7.8125 -187.5 1288
-195.312 265.625 1259
-7.8125 414.062 1601
-304.688 -125 1210
-195.312 250 1232
-85.9375 -187.5 1278
359.375 -54.6875 1145
359.375 -62.5 1145
-250 296.875 1477
-296.875 -140.625 1210
468.75 359.375 1439
296.875 -125 1123
-210.938 125 1193
351.562 210.938 1202
-351.562 343.75 1338
406.25 281.25 1433
-406.25 265.625 1529
250 -195.312 3365
-304.688 -101.562 1185
367.188 414.062 1338
-234.375 257.812 1223
-351.562 257.812 1232
23.4375 414.062 1594
351.562 398.438 1376
-7.8125 -242.188 1268
328.125 398.438 1278
-218.75 85.9375 1181
320.312 390.625 1278
-304.688 85.9375 1185
-210.938 132.812 1197
156.25 312.5 1883
-39.0625 -289.062 1259
359.375 125 1177
-218.75 359.375 1333
460.938 -234.375 1439
-484.375 359.375 1421
-218.75 0 1181
-265.625 328.125 1404
234.375 15.625 1193
351.562 15.625 1197
468.75 343.75 1458
195.312 367.188 1509
-195.312 296.875 1268
-164.062 382.812 1302
406.25 398.438 1365
-296.875 -31.25 1169
359.375 156.25 1185
-382.812 -15.625 1210
-398.438 -39.0625 1312
312.5 15.625 1193
156.25 -132.812 1138
335.938 390.625 1381
429.688 -62.5 1503
351.562 0 1153
-250 351.562 1343
164.062 -132.812 1138
-101.562 -156.25 1288
-304.688 -117.188 1189
289.062 15.625 1153
-351.562 351.562 1333
343.75 398.438 1376
-257.812 351.562 1343
320.312 375 1278
265.625 15.625 1153
-218.75 257.812 1223
367.188 85.9375 1165
156.25 328.125 1586
-234.375 -46.875 1157
-367.188 296.875 1477
-343.75 15.625 1193
-500 -101.562 2560
-195.312 140.625 1214
23.4375 7.8125 1165
351.562 257.812 1214
-359.375 0 1173
445.312 234.375 1197
304.688 15.625 1153
320.312 -117.188 1123
367.188 117.188 1173
-390.625 148.438 1206
-492.188 296.875 1255
0 -187.5 1288
179.688 0 1161
-382.812 -93.75 1297
31.25 304.688 1883
-468.75 195.312 1227
-226.562 195.312 1210
-289.062 296.875 1477
-273.438 15.625 1210
406.25 382.812 1328
-78.125 -257.812 1259
-320.312 328.125 1398
-296.875 359.375 1338
-195.312 257.812 1241
-296.875 -125 1210
-468.75 328.125 1370
-210.938 195.312 1214
335.938 -125 1130
-476.562 328.125 1370
281.25 15.625 1153
421.875 359.375 1359
-476.562 203.125 1227
0 414.062 1594
382.812 -195.312 1483
-210.938 -93.75 1149
476.562 78.125 1153
171.875 343.75 1579
-210.938 359.375 1333
-273.438 39.0625 1145
-210.938 164.062 1210
-46.875 -125 1138
-390.625 -109.375 1312
-273.438 328.125 1404
445.312 39.0625 1141
343.75 414.062 1338
-234.375 320.312 1415
-304.688 351.562 1343
-203.125 85.9375 1189
398.438 382.812 1322
351.562 242.188 1206
148.438 148.438 1804
-351.562 15.625 1189
-210.938 156.25 1206
-179.688 398.438 1307
460.938 359.375 1445
-195.312 343.75 1283
-31.25 62.5 1134
-312.5 -101.562 1185
148.438 140.625 1794
226.562 -164.062 1223
-281.25 242.188 1227
-304.688 -132.812 1219
-257.812 320.312 1410
171.875 445.312 1427
-242.188 85.9375 1185
359.375 351.562 1349
-250 39.0625 1145
7.8125 -187.5 1288
148.438 -171.875 1255
460.938 328.125 1458
-390.625 -70.3125 1317
414.062 39.0625 1134
-203.125 218.75 1227
-367.188 234.375 1236
-23.4375 359.375 1748
-460.938 328.125 1370
-23.4375 414.062 1601
-7.8125 7.8125 1169
-281.25 296.875 1470
140.625 -132.812 1130
-476.562 390.625 1433
195.312 15.625 1161
265.625 31.25 1169
-492.188 390.625 1292
-15.625 -257.812 1268
-476.562 31.25 1153
171.875 15.625 1161
359.375 265.625 1202
210.938 -187.5 1255
-70.3125 -257.812 1255
242.188 15.625 1161
-445.312 203.125 1223
281.25 62.5 1126
-335.938 -31.25 1173
375 -125 1130
-343.75 -54.6875 1189
-351.562 312.5 1421
-203.125 210.938 1223
414.062 304.688 1404
-210.938 15.625 1181
351.562 304.688 1410
-54.6875 -304.688 1245
39.0625 -273.438 1427
-320.312 -15.625 1169
250 -117.188 1126
382.812 320.312 1370
-250 -101.562 1232
-70.3125 -203.125 1273
-265.625 343.75 1365
328.125 390.625 1278
-296.875 335.938 1376
-382.812 234.375 1232
375 320.312 1370
-242.188 296.875 1477
-250 265.625 1564
0 -171.875 1288
453.125 375 1404
359.375 7.8125 1145
-15.625 7.8125 1169
437.5 78.125 1134
476.562 398.438 1354
-289.062 289.062 1496
-289.062 -117.188 1193
453.125 390.625 1381
-140.625 -250 1489
148.438 203.125 1823
-328.125 343.75 1343
375 296.875 1392
453.125 78.125 1134
-328.125 328.125 1392
-265.625 -78.125 1193
-242.188 39.0625 1145
101.562 328.125 1639
-273.438 351.562 1338
-343.75 -78.125 1197
203.125 0 1157
-281.25 343.75 1354
367.188 101.562 1173
414.062 398.438 1370
-281.25 320.312 1404
-460.938 226.562 1236
54.6875 -109.375 1134
-398.438 85.9375 1189
156.25 140.625 1804
335.938 398.438 1376
-296.875 39.0625 1145
-343.75 343.75 1343
250 0 1157
-195.312 359.375 1292
-328.125 -125 1210
-304.688 242.188 1227
-437.5 296.875 1445
-265.625 398.438 1601
398.438 398.438 1322
-187.5 320.312 1278
15.625 7.8125 1169
-289.062 359.375 1328
-359.375 351.562 1338
-62.5 -125 1141
-78.125 -148.438 1288
-109.375 -289.062 1250
164.062 70.3125 1130
-390.625 54.6875 1141
-351.562 328.125 1381
195.312 -125 1134
93.75 70.3125 1126
-257.812 242.188 1227
-31.25 -257.812 1259
-398.438 148.438 1202
445.312 78.125 1149
-125 367.188 1338
-335.938 -148.438 1189
218.75 23.4375 1185
-335.938 328.125 1392
218.75 15.625 1165
351.562 414.062 1322
-296.875 296.875 1477
-210.938 -85.9375 1149
117.188 351.562 1572
468.75 375 1404
132.812 382.812 1439
164.062 101.562 1177
-296.875 -101.562 1185
-62.5 375 1688
468.75 398.438 1365
-250 335.938 1376
382.812 -335.938 1477
-140.625 437.5 1343
164.062 421.875 1445
156.25 62.5 1126
-312.5 242.188 1227
335.938 117.188 1189
351.562 218.75 1206
-281.25 304.688 1439
-140.625 23.4375 1189
-257.812 335.938 1370
15.625 -195.312 1283
414.062 406.25 1365
-15.625 304.688 1894
-195.312 289.062 1264
78.125 -125 1134
-187.5 -101.562 1149
281.25 -125 1126
-31.25 375 1739
-375 54.6875 1145
398.438 406.25 1365
-85.9375 23.4375 1181
-382.812 250 1232
-210.938 273.438 1250
-70.3125 -273.438 1250
421.875 78.125 1149
156.25 421.875 1445
140.625 218.75 1833
273.438 15.625 1153
-367.188 320.312 1415
-390.625 -23.4375 1312
195.312 -179.688 1245
-265.625 281.25 1509
-273.438 281.25 1503
-375 -85.9375 1264
15.625 304.688 1883
-78.125 -203.125 1273
-171.875 54.6875 1145
-390.625 234.375 1232
-320.312 39.0625 1145
414.062 375 1359
-359.375 179.688 1210
-39.0625 320.312 1813
382.812 367.188 1343
476.562 257.812 1210
164.062 -117.188 1134
-226.562 -70.3125 1157
117.188 398.438 1439
-70.3125 62.5 1134
359.375 335.938 1365
-234.375 351.562 1338
226.562 62.5 1126
-62.5 -304.688 1245
179.688 343.75 1572
-429.688 164.062 1177
273.438 62.5 1126
-445.312 335.938 1376
-39.0625 -312.5 1464
-328.125 -109.375 1189
62.5 62.5 1130
-226.562 218.75 1219
367.188 375 1338
148.438 179.688 1813
195.312 0 1161
-296.875 -132.812 1214
-203.125 359.375 1292
-304.688 257.812 1227
187.5 15.625 1161
-210.938 117.188 1193
-54.6875 -125 1141
-375 257.812 1523
328.125 375 1278
359.375 414.062 1328
-343.75 312.5 1410
-62.5 -148.438 1288
351.562 0 1153
-31.25 -164.062 1288
171.875 62.5 1126
-304.688 265.625 1516
273.438 359.375 1376
-7.8125 62.5 1134
-453.125 132.812 1206
-54.6875 -109.375 1138
-343.75 78.125 1185
-375 343.75 1338
-343.75 -164.062 1433
-296.875 -23.4375 1173
-7.8125 -179.688 1288
-296.875 320.312 1410
257.812 15.625 1153
414.062 242.188 1206
-398.438 320.312 1387
-85.9375 -179.688 1283
-406.25 335.938 1343
-414.062 312.5 1404
-257.812 257.812 1227
-335.938 250 1236
-156.25 429.688 1359
359.375 164.062 1189
-265.625 343.75 1365
171.875 -132.812 1134
468.75 78.125 1149
-437.5 31.25 1149
-54.6875 62.5 1134
203.125 15.625 1161
-242.188 -148.438 1259
-289.062 -31.25 1173
-265.625 335.938 1381
-210.938 -78.125 1157
-476.562 312.5 1421
-343.75 328.125 1398
-335.938 312.5 1415
-257.812 343.75 1365
-328.125 -164.062 1433
-398.438 -54.6875 1302
-296.875 265.625 1550
-39.0625 351.562 1757
-414.062 343.75 1338
492.188 234.375 1197
-203.125 335.938 1283
453.125 -335.938 3178
257.812 -117.188 1126
7.8125 7.8125 1169
-375 328.125 1376
-257.812 328.125 1404
-343.75 164.062 1210
-273.438 304.688 1439
-351.562 -70.3125 1189
-304.688 289.062 1483
0 414.062 1594
-453.125 226.562 1236
-359.375 78.125 1189
187.5 0 1161
39.0625 23.4375 1169
-273.438 343.75 1365
-109.375 -93.75 1149
-234.375 -78.125 1157
140.625 203.125 1823
-460.938 304.688 1421
-156.25 23.4375 1185
-421.875 304.688 1410
70.3125 304.688 1883
-234.375 218.75 1219
-46.875 -273.438 1255
375 375 1333
-453.125 54.6875 1149
351.562 382.812 1359
343.75 -117.188 1126
-93.75 -85.9375 1149
132.812 359.375 1579
-281.25 359.375 1328
406.25 54.6875 1119
-273.438 242.188 1227
-265.625 218.75 1223
-210.938 -70.3125 1161
-195.312 250 1232
-70.3125 -148.438 1288
-414.062 78.125 1185
-265.625 257.812 1227
-226.562 39.0625 1149
273.438 -125 1126
156.25 437.5 1421
39.0625 382.812 1523
0 7.8125 1169
-203.125 203.125 1214
-421.875 281.25 1489
-359.375 -78.125 1259
23.4375 7.8125 1165
-179.688 398.438 1307
210.938 15.625 1165
-460.938 132.812 1206
-367.188 351.562 1338
250 250 1572
-421.875 320.312 1381
-265.625 -15.625 1189
460.938 398.438 1365
406.25 78.125 1141
-85.9375 -148.438 1288
492.188 78.125 1141
-242.188 335.938 1376
46.875 7.8125 1165
-265.625 -62.5 1189
179.688 0 1161
-15.625 -148.438 1288
460.938 39.0625 1138
-187.5 156.25 1241
-453.125 335.938 1376
-421.875 -93.75 1731
-351.562 -140.625 1197
429.688 78.125 1134
-46.875 351.562 1757
-320.312 -70.3125 1173
398.438 390.625 1322
-296.875 -117.188 1189
-460.938 31.25 1153
234.375 15.625 1193
468.75 -328.125 1410
-484.375 -117.188 2789
414.062 390.625 1365
265.625 15.625 1153
31.25 23.4375 1177
-257.812 -140.625 1227
367.188 -62.5 1145
328.125 -78.125 1138
-351.562 -78.125 1197
-296.875 281.25 1516
-31.25 -148.438 1278
-23.4375 109.375 1202
460.938 367.188 1398
-500 70.3125 1189
156.25 445.312 1421
-359.375 210.938 1223
-328.125 -39.0625 1169
0 23.4375 1181
125 15.625 1161
-500 335.938 1268
-242.188 218.75 1219
148.438 109.375 1189
-257.812 351.562 1343
328.125 406.25 1278
-203.125 351.562 1268
-195.312 328.125 1283
-226.562 -62.5 1157
-359.375 -54.6875 1189
-398.438 335.938 1349
-406.25 343.75 1333
-203.125 367.188 1333
-179.688 390.625 1302
320.312 -7.8125 1157
492.188 132.812 1169
23.4375 -265.625 1421
429.688 234.375 1202
390.625 85.9375 1161
195.312 132.812 1804
453.125 328.125 1387
492.188 -62.5 1503
320.312 132.812 1245
328.125 -7.8125 1157
453.125 367.188 1433
-367.188 -54.6875 1189
453.125 382.812 1398
-429.688 148.438 1206
250 289.062 1564
156.25 351.562 1579
335.938 -179.688 3300
0 -234.375 1273
-39.0625 -242.188 1264
-15.625 -187.5 1288
-226.562 85.9375 1181
375 382.812 1328
-328.125 -117.188 1193
414.062 -62.5 1509
132.812 382.812 1439
-484.375 304.688 1421
15.625 -156.25 1307
195.312 23.4375 1189
187.5 359.375 1543
359.375 -31.25 1157
-195.312 375 1297
-289.062 304.688 1470
171.875 0 1161
85.9375 -265.625 1333
-210.938 -31.25 1169
460.938 351.562 1464
148.438 187.5 1813
234.375 0 1157
-296.875 289.062 1483
39.0625 31.25 1165
398.438 265.625 1202
335.938 406.25 1365
-250 23.4375 1189
15.625 -289.062 1268
140.625 210.938 1833
-351.562 320.312 1410
-164.062 406.25 1312
-101.562 -273.438 1250
-273.438 320.312 1410
289.062 15.625 1153
70.3125 93.75 1169
171.875 -148.438 1189
-93.75 437.5 1359
242.188 15.625 1161
-265.625 312.5 1433
-429.688 343.75 1343
-406.25 320.312 1381
-335.938 -31.25 1173
-23.4375 -117.188 1138
-296.875 15.625 1214
195.312 15.625 1161
375 398.438 1365
312.5 15.625 1193
-101.562 -187.5 1278
-250 328.125 1398
-257.812 218.75 1223
-445.312 296.875 1445
437.5 304.688 1410
-39.0625 367.188 1739
375 39.0625 1141
-445.312 -78.125 1663
359.375 7.8125 1145
-414.062 304.688 1415
-304.688 -117.188 1189
109.375 328.125 1572
335.938 414.062 1322
0 359.375 1748
328.125 390.625 1278
210.938 414.062 1470
179.688 15.625 1157
15.625 382.812 1680
367.188 -85.9375 1141
-62.5 -328.125 1470
-210.938 148.438 1202
-39.0625 312.5 1883
-242.188 -46.875 1197
-7.8125 359.375 1748
0 -226.562 1273
187.5 31.25 1169
-203.125 -7.8125 1177
132.812 367.188 1557
148.438 31.25 1165
437.5 320.312 1398
312.5 62.5 1123
242.188 -46.875 1145
62.5 398.438 1536
-15.625 414.062 1594
-265.625 -93.75 1197
164.062 0 1161
-242.188 265.625 1223
203.125 367.188 1509
437.5 93.75 1161
-265.625 328.125 1404
476.562 367.188 1433
195.312 62.5 1126
210.938 -140.625 1138
406.25 375 1338
132.812 296.875 1863
-367.188 -62.5 1288
164.062 15.625 1161
-414.062 328.125 1376
-429.688 304.688 1410
476.562 335.938 1445
15.625 -281.25 1268
148.438 195.312 1823
-7.8125 31.25 1169
164.062 -140.625 1138
226.562 15.625 1197
23.4375 -257.812 1359
-203.125 406.25 1317
390.625 351.562 1343
-101.562 -195.312 1273
-218.75 -70.3125 1157
-78.125 -328.125 1477
390.625 39.0625 1153
-164.062 398.438 1317
273.438 15.625 1153
-265.625 351.562 1343
125 429.688 1427
156.25 15.625 1165
312.5 429.688 1297
-7.8125 414.062 1601
-414.062 273.438 1509
-484.375 70.3125 1189
140.625 429.688 1427
-187.5 320.312 1278
-179.688 23.4375 1185
-343.75 289.062 1477
-445.312 281.25 1483
-296.875 -78.125 1173
-250 -148.438 1255
-23.4375 7.8125 1169
-39.0625 -265.625 1255
460.938 375 1398
468.75 351.562 1458
335.938 -39.0625 1145
140.625 421.875 1445
281.25 15.625 1153
-367.188 304.688 1439
-429.688 289.062 1464
-70.3125 23.4375 1181
-70.3125 -281.25 1250
367.188 93.75 1173
359.375 -62.5 1145
-250 351.562 1343
421.875 -31.25 1365
187.5 0 1161
-39.0625 -289.062 1259
390.625 -62.5 1523
187.5 335.938 1794
-101.562 -203.125 1273
140.625 15.625 1165
171.875 398.438 1445
414.062 117.188 1169
289.062 -179.688 3333
-203.125 273.438 1264
218.75 0 1157
367.188 382.812 1338
-179.688 406.25 1307
-195.312 273.438 1259
-382.812 281.25 1489
335.938 296.875 1245
-226.562 273.438 1550
140.625 62.5 1126
-7.8125 390.625 1663
-296.875 351.562 1338
320.312 406.25 1278
-468.75 281.25 1483
-203.125 -15.625 1173
460.938 -226.562 1445
-148.438 406.25 1387
437.5 234.375 1202
-117.188 -195.312 1264
-234.375 -15.625 1206
-15.625 7.8125 1169
148.438 15.625 1165
195.312 367.188 1509
-351.562 7.8125 1177
70.3125 7.8125 1165
15.625 7.8125 1169
-257.812 23.4375 1189
-250 257.812 1223
-343.75 -54.6875 1189
335.938 -117.188 1126
78.125 -265.625 1333
414.062 78.125 1149
-281.25 296.875 1470
-164.062 390.625 1338
-226.562 -23.4375 1169
-359.375 -46.875 1189
62.5 304.688 1883
343.75 39.0625 1149
-398.438 -46.875 1302
343.75 15.625 1197
453.125 265.625 1464
-187.5 328.125 1278
351.562 39.0625 1153
484.375 359.375 1433
-343.75 351.562 1338
218.75 15.625 1165
156.25 31.25 1165
-390.625 -23.4375 1312
367.188 -101.562 1119
-359.375 257.812 1572
-39.0625 7.8125 1173
70.3125 23.4375 1173
367.188 117.188 1173
328.125 -140.625 1138
-375 -468.75 3092
117.188 375 1529
117.188 15.625 1161
382.812 -226.562 1477
210.938 23.4375 1189
398.438 117.188 1173
-468.75 312.5 1370
70.3125 15.625 1165
-31.25 -296.875 1255
156.25 109.375 1197
93.75 15.625 1165
-250 -109.375 1227
-250 335.938 1376
-335.938 343.75 1343
-273.438 312.5 1433
-414.062 320.312 1381
164.062 109.375 1193
62.5 7.8125 1165
-195.312 15.625 1181
460.938 -234.375 1439
484.375 78.125 1149
-140.625 304.688 1464
445.312 375 1415
-234.375 367.188 1322
-359.375 320.312 1410
-70.3125 -304.688 1245
328.125 375 1278
-304.688 242.188 1227
-70.3125 -125 1145
203.125 15.625 1161
187.5 62.5 1126
398.438 78.125 1141
-273.438 328.125 1404
-195.312 359.375 1292
-210.938 257.812 1232
429.688 312.5 1404
382.812 -70.3125 1529
-117.188 351.562 1343
-210.938 101.562 1193
93.75 328.125 1639
-421.875 343.75 1338
-351.562 312.5 1421
187.5 15.625 1161
-289.062 351.562 1333
453.125 375 1404
304.688 15.625 1153
335.938 148.438 1185
320.312 15.625 1193
-203.125 281.25 1264
23.4375 -273.438 1421
242.188 23.4375 1189
-375 234.375 1232
-23.4375 62.5 1134
109.375 23.4375 1193
421.875 234.375 1206
406.25 406.25 1365
437.5 312.5 1421
-320.312 -46.875 1169
-390.625 -117.188 1302
398.438 398.438 1322
-78.125 -125 1153
351.562 414.062 1322
101.562 15.625 1165
31.25 62.5 1130
328.125 -125 1126
132.812 15.625 1161
-375 148.438 1202
-62.5 62.5 1134
-203.125 195.312 1214
-164.062 78.125 1177
250 15.625 1157
-78.125 -242.188 1264
-15.625 -164.062 1288
453.125 359.375 1445
-335.938 289.062 1477
-398.438 -39.0625 1312
-242.188 101.562 1189
437.5 -62.5 1503
-437.5 312.5 1410
-218.75 312.5 1439
-187.5 367.188 1292
-296.875 -70.3125 1177
-273.438 -117.188 1210
398.438 382.812 1322
-453.125 31.25 1149
257.812 -195.312 3333
-78.125 -304.688 1245
273.438 -187.5 3365
-429.688 31.25 1145
-390.625 273.438 1516
-304.688 -164.062 1452
117.188 328.125 1572
156.25 0 1161
-281.25 312.5 1433
-335.938 -46.875 1177
-31.25 7.8125 1169
-359.375 273.438 688
-218.75 273.438 1250
437.5 359.375 1365
468.75 328.125 1452
-164.062 414.062 1312
453.125 -62.5 1503
-328.125 78.125 1185
-273.438 -15.625 1181
343.75 304.688 1250
375 296.875 1392
-289.062 265.625 1550
-187.5 226.562 1245
359.375 -15.625 1153
70.3125 328.125 1624
476.562 -62.5 1496
-54.6875 -289.062 1250
-304.688 -132.812 1219
445.312 359.375 1445
-210.938 39.0625 1149
-226.562 7.8125 1177
109.375 15.625 1161
453.125 273.438 1458
-265.625 -132.812 1241
359.375 78.125 1157
257.812 -125 1126
140.625 437.5 1421
-46.875 -234.375 1268
-218.75 218.75 1219
-226.562 335.938 1387
-265.625 242.188 1227
-46.875 7.8125 1173
-335.938 78.125 1185
460.938 390.625 1376
31.25 -273.438 1421
-78.125 -148.438 1288
-218.75 39.0625 1145
-179.688 382.812 1297
-265.625 304.688 1452
289.062 -125 1126
367.188 -117.188 1126
-195.312 39.0625 1145
-320.312 -125 1210
-148.438 23.4375 1189
328.125 -117.188 1126
312.5 -7.8125 1157
-343.75 -39.0625 1181
390.625 398.438 1359
-398.438 -54.6875 1302
328.125 398.438 1278
-257.812 335.938 1370
367.188 101.562 1173
171.875 -156.25 1189
-234.375 335.938 1381
484.375 -15.625 1278
-398.438 -140.625 1387
-390.625 101.562 1189
171.875 15.625 1161
-242.188 242.188 1227
312.5 -117.188 1126
171.875 367.188 1550
-179.688 390.625 1302
-171.875 203.125 1297
-343.75 148.438 1206
460.938 382.812 1398
476.562 78.125 1153
476.562 -234.375 1433
23.4375 -289.062 1433
-242.188 335.938 1376
-210.938 -70.3125 1161
492.188 265.625 1181
406.25 273.438 1731
-320.312 78.125 1189
335.938 398.438 1376
-242.188 320.312 1415
203.125 23.4375 1189
148.438 203.125 1823
-289.062 335.938 1370
-195.312 203.125 1223
375 304.688 1387
-335.938 -164.062 1433
179.688 -164.062 1202
328.125 367.188 1273
-429.688 -257.812 3300
-218.75 85.9375 1181
273.438 23.4375 1185
-500 -85.9375 1647
-203.125 187.5 1214
-445.312 31.25 1149
-203.125 218.75 1227
148.438 0 1157
195.312 -148.438 1173
421.875 406.25 1365
-351.562 85.9375 1189
257.812 15.625 1153
-250 343.75 1365
-31.25 23.4375 1185
257.812 187.5 1550
320.312 414.062 1278
-273.438 296.875 1470
453.125 343.75 1464
-187.5 23.4375 1189
312.5 320.312 1259
-187.5 312.5 1273
-187.5 359.375 1292
140.625 0 1157
-195.312 250 1232
359.375 39.0625 1141
-250 320.312 1410
-203.125 328.125 1278
-445.312 226.562 1236
-265.625 312.5 1433
-257.812 343.75 1365
445.312 312.5 1421
-289.062 320.312 1410
335.938 39.0625 1145
-85.9375 -304.688 1245
-281.25 39.0625 1145
-273.438 265.625 1557
-15.625 328.125 1823
0 62.5 1134
-289.062 -117.188 1193
-328.125 343.75 1343
-320.312 265.625 1529
-156.25 421.875 1317
-367.188 343.75 1343
-46.875 -304.688 1250
-421.875 148.438 1206
-171.875 328.125 1273
-351.562 351.562 1333
367.188 39.0625 1138
78.125 15.625 1165
-250 218.75 1223
328.125 39.0625 1145
164.062 0 1161
-46.875 -164.062 1283
-70.3125 -203.125 1273
7.8125 359.375 1739
-343.75 -78.125 1197
-335.938 -39.0625 1177
-414.062 257.812 1557
484.375 148.438 1177
273.438 265.625 1415
125 15.625 1161
-375 343.75 1338
15.625 62.5 1134
445.312 390.625 1381
46.875 15.625 1165
-296.875 242.188 1227
-226.562 -70.3125 1157
437.5 -46.875 1439
-242.188 343.75 1365
351.562 375 1354
-62.5 -304.688 1245
-476.562 85.9375 1197
492.188 382.812 1322
-335.938 210.938 1223
328.125 406.25 1278
171.875 367.188 1550
367.188 398.438 1365
398.438 296.875 1398
-328.125 328.125 1392
156.25 15.625 1165
351.562 0 1153
-109.375 23.4375 1181
-234.375 0 1268
-390.625 210.938 1223
78.125 85.9375 1165
-250 351.562 1343
-226.562 296.875 1477
-203.125 257.812 1236
-320.312 -15.625 1169
23.4375 445.312 1516
-171.875 437.5 1317
15.625 15.625 1169
-257.812 312.5 1433
62.5 15.625 1169
476.562 328.125 1445
-234.375 -15.625 1206
7.8125 296.875 1883
210.938 15.625 1165
93.75 15.625 1165
117.188 375 1529
343.75 250 1210
476.562 -15.625 1328
164.062 15.625 1161
312.5 -125 1126
195.312 15.625 1161
335.938 289.062 1245
382.812 78.125 1153
429.688 343.75 1359
328.125 414.062 1322
-312.5 -70.3125 1173
-7.8125 7.8125 1169
-335.938 85.9375 1189
85.9375 437.5 1439
-343.75 312.5 1410
359.375 195.312 1193
359.375 -46.875 1145
210.938 359.375 1722
320.312 406.25 1278
195.312 328.125 1813
328.125 343.75 1255
242.188 15.625 1161
-242.188 117.188 1189
-328.125 304.688 1439
179.688 15.625 1157
-406.25 335.938 1343
210.938 367.188 1509
429.688 335.938 1365
78.125 437.5 1439
367.188 125 1177
484.375 -46.875 1477
-218.75 304.688 1464
-320.312 250 1232
-460.938 367.188 1496
140.625 382.812 1529
289.062 39.0625 1145
148.438 148.438 1804
382.812 296.875 1387
320.312 -125 1126
-93.75 23.4375 1181
-203.125 -15.625 1173
-93.75 -148.438 1288
140.625 218.75 1833
-460.938 328.125 1370
-320.312 54.6875 1141
304.688 -171.875 3365
320.312 382.812 1278
93.75 62.5 1123
304.688 -7.8125 1153
-453.125 382.812 1516
-390.625 -46.875 1302
-242.188 -62.5 1206
484.375 54.6875 1119
-281.25 -117.188 1206
54.6875 15.625 1165
-187.5 304.688 1268
171.875 0 1161
187.5 15.625 1161
-39.0625 -304.688 1259
382.812 406.25 1365
-414.062 54.6875 1145
460.938 -62.5 1503
437.5 375 1421
-406.25 328.125 1376
414.062 234.375 1202
187.5 382.812 1483
-257.812 351.562 1343
-296.875 -132.812 1214
296.875 -7.8125 1157
-320.312 312.5 1433
171.875 -171.875 1214
-39.0625 -203.125 1273
140.625 257.812 1843
-359.375 -54.6875 1189
437.5 390.625 1381
343.75 367.188 1370
-31.25 -304.688 1255
445.312 398.438 1370
-367.188 210.938 1223
460.938 296.875 1452
