ply
format ascii 1.0
comment Created by Open3D
element vertex 2318
property double x
property double y
property double z
end_header
-343.75 93.75 1189
-289.062 343.75 1328
445.312 -234.375 1236
62.5 -132.812 1189
265.625 156.25 1624
78.125 15.625 1255
-148.438 -273.438 1250
429.688 -367.188 1177
234.375 -93.75 1904
-117.188 -250 1264
390.625 -398.438 1255
164.062 -210.938 1161
85.9375 85.9375 1338
421.875 -250 1227
343.75 101.562 1696
179.688 70.3125 2005
62.5 -304.688 1173
390.625 -234.375 1241
-62.5 156.25 1376
62.5 171.875 1516
468.75 -242.188 1268
281.25 210.938 1616
-218.75 -304.688 3269
226.562 23.4375 1993
62.5 218.75 1550
460.938 148.438 1586
-7.8125 -226.562 1149
-359.375 320.312 1776
195.312 -351.562 1141
125 187.5 1376
-328.125 148.438 1214
234.375 -132.812 1883
484.375 15.625 1415
101.562 156.25 1370
234.375 -15.625 1947
78.125 23.4375 1250
-265.625 218.75 1268
390.625 -226.562 1214
-203.125 -234.375 1338
31.25 46.875 1255
-320.312 195.312 1241
78.125 7.8125 1255
242.188 -125 1894
429.688 -164.062 1278
-367.188 -15.625 1138
-406.25 351.562 1696
328.125 -226.562 1206
-39.0625 187.5 1722
367.188 140.625 1616
257.812 179.688 1671
453.125 140.625 1594
-93.75 -226.562 1227
453.125 187.5 1594
62.5 164.062 1398
54.6875 -242.188 1169
-437.5 -242.188 3120
-304.688 109.375 1202
335.938 -226.562 1202
-281.25 281.25 1292
62.5 -203.125 1145
46.875 -210.938 1165
101.562 164.062 1370
-460.938 -210.938 3120
429.688 -398.438 1223
-93.75 -242.188 1241
398.438 -398.438 1236
460.938 195.312 1586
484.375 -250 1241
78.125 304.688 1464
62.5 281.25 1509
445.312 23.4375 1601
445.312 -242.188 1264
187.5 62.5 2016
-70.3125 -195.312 1138
312.5 101.562 1594
-125 -210.938 1206
140.625 156.25 1421
-109.375 -226.562 1268
-492.188 -148.438 2381
242.188 132.812 1705
85.9375 -398.438 1496
15.625 179.688 1739
-132.812 -273.438 1255
234.375 -62.5 1926
-218.75 -242.188 1381
453.125 148.438 1601
226.562 -62.5 1926
-234.375 -335.938 3178
460.938 101.562 1579
62.5 273.438 1516
-203.125 -289.062 1647
-23.4375 -312.5 1134
148.438 234.375 1464
398.438 85.9375 1757
-210.938 -218.75 1227
-500 -171.875 2317
39.0625 132.812 1427
375 -296.875 1197
-367.188 0 1145
257.812 148.438 1639
-85.9375 -171.875 1108
-132.812 -351.562 1193
-320.312 210.938 1245
273.438 -359.375 1153
226.562 164.062 1696
-500 -218.75 2286
179.688 78.125 2016
453.125 -367.188 1185
70.3125 -203.125 1145
54.6875 -218.75 1153
-39.0625 -351.562 1149
93.75 -210.938 1165
460.938 -148.438 1509
359.375 -156.25 1264
140.625 171.875 1415
-78.125 -296.875 1206
62.5 203.125 1523
492.188 -46.875 1365
218.75 -226.562 1197
218.75 23.4375 1993
460.938 78.125 1572
-367.188 -31.25 1134
-320.312 -203.125 1255
78.125 -398.438 1503
15.625 -359.375 1181
31.25 242.188 1586
281.25 39.0625 2040
195.312 62.5 2016
46.875 93.75 1477
234.375 -70.3125 1915
-445.312 0 2908
15.625 -218.75 1210
-210.938 -15.625 1181
-492.188 -203.125 2286
-328.125 132.812 1210
85.9375 -140.625 1189
453.125 132.812 1594
-187.5 -210.938 1232
-7.8125 101.562 1503
101.562 242.188 1421
-234.375 101.562 1523
257.812 171.875 1671
250 -218.75 1181
234.375 -78.125 1915
78.125 -7.8125 1245
476.562 -250 1241
54.6875 289.062 1496
-46.875 -218.75 1149
23.4375 -265.625 1138
-70.3125 -289.062 1177
23.4375 195.312 1696
62.5 -335.938 1202
445.312 -15.625 1594
281.25 -234.375 1210
296.875 -109.375 1915
437.5 0 1616
289.062 -62.5 1947
-289.062 257.812 1278
171.875 -210.938 1161
23.4375 125 1445
-39.0625 -281.25 1149
468.75 46.875 1543
304.688 171.875 1594
234.375 -39.0625 1947
-304.688 289.062 1288
62.5 195.312 1509
375 -414.062 1292
460.938 156.25 1586
62.5 304.688 1464
468.75 -296.875 1227
-101.562 -250 1250
85.9375 125 1354
-46.875 132.812 1433
62.5 -109.375 1197
-390.625 156.25 2256
468.75 -234.375 1241
78.125 234.375 1439
148.438 101.562 1427
335.938 117.188 1594
296.875 70.3125 1722
31.25 210.938 1663
484.375 7.8125 1415
-218.75 -257.812 1415
93.75 210.938 1404
-93.75 -148.438 1119
31.25 179.688 1731
171.875 210.938 1452
375 148.438 1624
-289.062 218.75 1259
226.562 -23.4375 1947
-62.5 140.625 1415
453.125 -234.375 1236
406.25 -390.625 1232
-93.75 -351.562 1161
226.562 -54.6875 1936
437.5 78.125 1639
-312.5 257.812 1273
156.25 -210.938 1161
-296.875 210.938 1250
109.375 132.812 1349
226.562 -39.0625 1947
-70.3125 -242.188 1157
62.5 234.375 1594
468.75 54.6875 1550
343.75 109.375 1609
476.562 -7.8125 1516
125 210.938 1439
351.562 125 1601
-367.188 250 1959
140.625 -210.938 1157
234.375 -117.188 1894
-359.375 39.0625 1161
-132.812 -117.188 1157
-164.062 -250 1268
101.562 -343.75 1138
78.125 0 1250
234.375 -85.9375 1915
265.625 117.188 1647
460.938 93.75 1572
195.312 -375 1123
-62.5 -125 1165
62.5 242.188 1579
-70.3125 -265.625 1145
-85.9375 54.6875 1227
62.5 -39.0625 1227
-304.688 210.938 1250
62.5 -78.125 1214
93.75 250 1433
101.562 226.562 1415
375 -390.625 1189
312.5 -226.562 1202
390.625 -398.438 1255
62.5 289.062 1489
148.438 210.938 1445
62.5 -23.4375 1232
117.188 281.25 1445
7.8125 164.062 1387
-78.125 -351.562 1138
117.188 156.25 1365
-218.75 -234.375 1312
-171.875 -265.625 1283
218.75 39.0625 2016
203.125 46.875 2016
164.062 265.625 1523
179.688 -406.25 1268
148.438 226.562 1458
429.688 -390.625 1223
-46.875 -328.125 1189
492.188 187.5 1536
132.812 140.625 1354
62.5 -15.625 1236
437.5 -250 1227
-78.125 -250 1145
289.062 23.4375 2028
15.625 70.3125 1572
-125 -234.375 1264
46.875 31.25 1255
-164.062 -164.062 1101
453.125 210.938 1557
375 -398.438 1292
-109.375 -218.75 1197
-31.25 164.062 1376
304.688 164.062 1594
156.25 367.188 1647
234.375 -140.625 1241
-304.688 234.375 1264
437.5 -250 1227
242.188 -140.625 1245
23.4375 218.75 1639
62.5 296.875 1470
171.875 -437.5 1245
-367.188 -15.625 1138
125 156.25 1354
226.562 -46.875 1936
257.812 -218.75 1185
468.75 101.562 1557
-320.312 226.562 1255
460.938 -367.188 1189
281.25 -265.625 1189
-359.375 31.25 1157
-226.562 -320.312 3208
-500 -148.438 2415
62.5 -93.75 1202
367.188 -359.375 1169
46.875 273.438 1523
289.062 -234.375 1206
460.938 148.438 1586
15.625 -257.812 1138
-281.25 351.562 1338
-93.75 -187.5 1126
226.562 -382.812 1193
335.938 101.562 1713
62.5 -101.562 1202
281.25 54.6875 2040
226.562 -437.5 1268
226.562 0 1981
234.375 -93.75 1904
-492.188 62.5 2598
492.188 -242.188 1250
62.5 250 1572
31.25 -437.5 1489
148.438 203.125 1445
-320.312 210.938 1245
437.5 -382.812 1223
-335.938 101.562 1193
-46.875 78.125 1572
109.375 125 1349
-54.6875 -320.312 1193
203.125 125 1863
453.125 179.688 1601
453.125 -31.25 1557
406.25 0 1713
125 203.125 1387
-156.25 -289.062 1302
-109.375 -359.375 1165
382.812 -398.438 1288
62.5 -210.938 1177
343.75 117.188 1609
117.188 -187.5 1145
31.25 304.688 1464
62.5 -7.8125 1236
132.812 203.125 1439
-164.062 -234.375 1268
46.875 -203.125 1145
335.938 -242.188 1214
304.688 -359.375 1153
-156.25 -359.375 1227
-367.188 -7.8125 1141
-492.188 -359.375 2241
46.875 -343.75 1189
335.938 109.375 1594
-23.4375 -273.438 1141
-179.688 -320.312 1278
414.062 78.125 1713
218.75 -226.562 1197
0 -367.188 1169
-328.125 171.875 1227
492.188 -62.5 1354
273.438 -218.75 1185
468.75 -250 1245
476.562 -234.375 1241
-367.188 0 1145
-320.312 171.875 1227
226.562 -70.3125 1926
210.938 -351.562 1141
39.0625 85.9375 1523
39.0625 78.125 1550
-164.062 -23.4375 1161
-132.812 -335.938 1210
296.875 140.625 1624
-257.812 382.812 1359
-359.375 39.0625 1161
62.5 -382.812 1359
234.375 -85.9375 1915
62.5 304.688 1464
93.75 140.625 1359
-281.25 328.125 1317
31.25 7.8125 1245
-289.062 140.625 1223
-179.688 -273.438 1302
46.875 164.062 1392
-7.8125 39.0625 1250
54.6875 148.438 1392
62.5 -70.3125 1214
-156.25 -250 1264
31.25 -257.812 1141
460.938 140.625 1586
203.125 -179.688 1173
320.312 -359.375 1161
-289.062 273.438 1288
54.6875 78.125 1529
-320.312 85.9375 1193
171.875 132.812 1445
-15.625 -343.75 1149
-85.9375 23.4375 1223
195.312 54.6875 2005
476.562 93.75 1529
0 -312.5 1134
0 54.6875 1250
-171.875 -164.062 1097
343.75 -226.562 1202
-164.062 -257.812 1264
62.5 -31.25 1232
226.562 -62.5 1926
-46.875 148.438 1404
195.312 -195.312 1157
289.062 125 1632
-78.125 -328.125 1185
78.125 -203.125 1138
46.875 132.812 1427
-62.5 132.812 1433
382.812 -382.812 1181
492.188 54.6875 1445
265.625 70.3125 1794
132.812 210.938 1439
-375 -39.0625 1123
46.875 -210.938 1165
203.125 54.6875 2016
78.125 296.875 1470
-101.562 -359.375 1157
54.6875 -218.75 1153
242.188 140.625 1696
78.125 117.188 1427
85.9375 -210.938 1169
476.562 -15.625 1516
-445.312 -39.0625 3178
-109.375 -218.75 1197
453.125 125 1594
39.0625 117.188 1458
15.625 -359.375 1181
460.938 85.9375 1579
-304.688 164.062 1227
15.625 -195.312 1134
312.5 -218.75 1189
-398.438 93.75 2450
-39.0625 148.438 1404
-54.6875 -351.562 1138
-375 -46.875 1123
429.688 -351.562 1177
-132.812 -171.875 1105
-125 -218.75 1236
367.188 -226.562 1202
23.4375 -242.188 1153
-476.562 -85.9375 2503
359.375 132.812 1601
148.438 195.312 1433
-70.3125 -234.375 1165
-234.375 -335.938 3178
492.188 -70.3125 1354
78.125 226.562 1433
54.6875 -234.375 1169
140.625 226.562 1458
23.4375 85.9375 1523
-93.75 -39.0625 1165
296.875 -234.375 1206
351.562 -226.562 1219
-375 226.562 2028
148.438 218.75 1452
343.75 125 1601
226.562 -78.125 1915
476.562 -375 1193
-500 39.0625 2723
-210.938 -218.75 1227
117.188 218.75 1415
-148.438 -265.625 1250
-437.5 -54.6875 3269
46.875 203.125 1671
-242.188 390.625 1365
148.438 187.5 1433
265.625 203.125 1639
117.188 109.375 1338
-210.938 -265.625 1458
164.062 -218.75 1185
-257.812 414.062 1381
-109.375 -226.562 1268
226.562 156.25 1705
-328.125 195.312 1241
-70.3125 -359.375 1134
-101.562 -226.562 1227
234.375 -101.562 1904
187.5 70.3125 2016
484.375 0 1410
398.438 -359.375 1173
-375 -54.6875 1115
289.062 164.062 1594
-132.812 -195.312 1161
-46.875 -195.312 1130
-382.812 -85.9375 1105
382.812 -359.375 1173
335.938 -359.375 1161
125 -343.75 1126
281.25 125 1647
85.9375 -203.125 1138
218.75 -351.562 1145
31.25 -242.188 1145
367.188 -242.188 1219
351.562 -359.375 1169
-218.75 -343.75 1273
273.438 203.125 1639
484.375 -93.75 1343
23.4375 54.6875 1579
-31.25 -296.875 1149
-320.312 234.375 1259
62.5 265.625 1536
398.438 -390.625 1236
-62.5 -210.938 1165
109.375 -187.5 1141
242.188 -218.75 1181
476.562 -250 1241
468.75 -375 1193
398.438 -210.938 1197
-445.312 109.375 2381
226.562 -39.0625 1947
226.562 -7.8125 1970
406.25 -390.625 1232
101.562 -187.5 1141
85.9375 242.188 1421
-54.6875 -343.75 1177
453.125 -39.0625 1564
93.75 132.812 1359
-203.125 -265.625 1458
-359.375 39.0625 1161
78.125 234.375 1439
-320.312 187.5 1236
-62.5 -31.25 1202
70.3125 -39.0625 1227
39.0625 -421.875 1496
-312.5 265.625 1278
-242.188 218.75 1655
78.125 -398.438 1503
-62.5 148.438 1404
-304.688 132.812 1214
-203.125 -210.938 1227
54.6875 39.0625 1255
101.562 156.25 1370
-7.8125 125 1452
39.0625 -132.812 1185
468.75 31.25 1543
-93.75 -31.25 1169
-367.188 -7.8125 1141
-109.375 -257.812 1255
125 171.875 1370
-31.25 62.5 1609
226.562 -351.562 1145
-218.75 -226.562 1312
-304.688 296.875 1292
179.688 312.5 1477
468.75 39.0625 1536
-328.125 164.062 1223
226.562 15.625 1993
46.875 -226.562 1219
70.3125 -203.125 1145
445.312 -382.812 1197
93.75 281.25 1452
484.375 -234.375 1241
-445.312 367.188 1663
304.688 93.75 1731
140.625 -367.188 1138
-210.938 -289.062 1609
382.812 -398.438 1288
-78.125 -320.312 1189
39.0625 257.812 1550
7.8125 195.312 1705
31.25 -132.812 1181
-39.0625 164.062 1370
-437.5 -46.875 3178
437.5 -382.812 1223
210.938 -210.938 1169
-7.8125 140.625 1415
-375 -31.25 1126
46.875 148.438 1387
-78.125 -289.062 1214
-132.812 -210.938 1214
-335.938 148.438 1214
226.562 -54.6875 1936
7.8125 203.125 1680
218.75 23.4375 1993
492.188 -429.688 1529
-39.0625 15.625 1232
242.188 -101.562 1894
406.25 15.625 1722
-117.188 -203.125 1177
-85.9375 -359.375 1145
453.125 187.5 1594
-320.312 242.188 1264
85.9375 226.562 1433
117.188 132.812 1343
445.312 210.938 1564
109.375 226.562 1415
367.188 148.438 1624
312.5 101.562 1594
-320.312 156.25 1223
226.562 -23.4375 1947
492.188 -15.625 1404
54.6875 281.25 1503
164.062 -210.938 1161
367.188 -414.062 1292
-62.5 -320.312 1193
54.6875 148.438 1392
132.812 156.25 1354
-70.3125 -234.375 1165
375 -421.875 1302
257.812 210.938 1616
93.75 -210.938 1165
23.4375 210.938 1663
242.188 -179.688 1197
148.438 -445.312 1245
171.875 -218.75 1185
187.5 93.75 1936
125 179.688 1370
-304.688 179.688 1241
101.562 93.75 1328
281.25 203.125 1624
39.0625 -234.375 1149
484.375 -429.688 1529
156.25 -445.312 1241
148.438 -367.188 1130
492.188 -242.188 1250
476.562 101.562 1536
453.125 179.688 1601
257.812 156.25 1639
93.75 164.062 1370
203.125 -351.562 1141
101.562 -210.938 1161
-140.625 -210.938 1219
281.25 171.875 1609
15.625 78.125 1550
39.0625 -312.5 1161
125 101.562 1328
-343.75 335.938 1739
460.938 -234.375 1236
265.625 171.875 1616
460.938 132.812 1586
101.562 117.188 1343
289.062 210.938 1609
-171.875 -218.75 1250
-296.875 328.125 1317
234.375 -320.312 1157
187.5 -421.875 1264
226.562 -46.875 1936
-7.8125 132.812 1433
226.562 -70.3125 1926
-335.938 156.25 1219
-382.812 -78.125 1101
203.125 -210.938 1169
78.125 -70.3125 1214
140.625 250 1464
-289.062 359.375 1338
195.312 62.5 2016
0 39.0625 1250
-210.938 -218.75 1227
257.812 117.188 1748
-429.688 359.375 1680
453.125 171.875 1601
-359.375 54.6875 1169
257.812 -421.875 1273
484.375 7.8125 1415
-210.938 -31.25 1173
484.375 23.4375 1427
195.312 -210.938 1165
289.062 -234.375 1206
132.812 -437.5 1268
-289.062 304.688 1302
226.562 -101.562 1904
0 156.25 1387
359.375 -242.188 1219
-7.8125 -265.625 1138
-320.312 125 1210
281.25 164.062 1609
-484.375 -54.6875 2522
-406.25 85.9375 2503
164.062 78.125 2005
-296.875 171.875 1236
-31.25 -312.5 1153
109.375 234.375 1421
-210.938 -250 1370
132.812 -343.75 1130
226.562 -93.75 1904
7.8125 -195.312 1134
-453.125 382.812 1632
-351.562 312.5 1794
-484.375 382.812 1616
-39.0625 -289.062 1153
54.6875 -203.125 1145
171.875 132.812 1445
-101.562 -226.562 1227
23.4375 -382.812 1206
-39.0625 -328.125 1145
117.188 148.438 1359
304.688 289.062 1496
-85.9375 -265.625 1219
-109.375 -117.188 1165
234.375 -109.375 1894
7.8125 46.875 1250
93.75 -343.75 1149
39.0625 -414.062 1496
54.6875 46.875 1523
39.0625 -195.312 1134
414.062 -226.562 1210
367.188 -156.25 1264
-101.562 -218.75 1181
70.3125 289.062 1489
-296.875 429.688 1381
195.312 54.6875 2005
46.875 -343.75 1189
492.188 78.125 1458
335.938 101.562 1713
304.688 140.625 1616
-101.562 -351.562 1169
-289.062 351.562 1333
281.25 125 1647
62.5 31.25 1255
234.375 179.688 1705
218.75 15.625 1981
312.5 125 1609
-414.062 54.6875 2639
476.562 -375 1193
-367.188 257.812 1936
54.6875 93.75 1516
484.375 -375 1197
-351.562 93.75 1189
257.812 109.375 1757
-85.9375 109.375 1509
62.5 -46.875 1223
-390.625 85.9375 2467
-195.312 -210.938 1232
312.5 -359.375 1161
148.438 187.5 1433
210.938 -226.562 1197
218.75 -382.812 1278
-335.938 140.625 1210
132.812 93.75 1322
-296.875 304.688 1302
132.812 -414.062 1283
101.562 226.562 1415
226.562 7.8125 1981
-62.5 -257.812 1145
148.438 195.312 1433
296.875 93.75 1639
-101.562 164.062 1359
46.875 109.375 1477
70.3125 101.562 1470
-500 -203.125 2286
-367.188 0 1145
375 -359.375 1169
234.375 203.125 1639
335.938 -226.562 1202
-7.8125 -453.125 3208
7.8125 -414.062 3300
468.75 -375 1193
-85.9375 -257.812 1227
-78.125 -250 1145
406.25 -226.562 1214
-62.5 109.375 1496
171.875 -406.25 1268
226.562 -85.9375 1915
226.562 -31.25 1947
164.062 -367.188 1123
62.5 281.25 1509
375 -242.188 1223
-312.5 -31.25 1149
226.562 15.625 1993
78.125 281.25 1509
101.562 164.062 1370
-171.875 -289.062 1297
46.875 250 1572
406.25 -359.375 1173
-93.75 -54.6875 1185
460.938 -375 1193
-335.938 93.75 1189
-62.5 -359.375 1134
437.5 -382.812 1223
203.125 46.875 2016
-296.875 273.438 1283
-171.875 -281.25 1302
-359.375 46.875 1169
-359.375 289.062 1853
164.062 -218.75 1185
-195.312 -234.375 1338
70.3125 54.6875 1439
429.688 210.938 1564
-39.0625 -125 1173
-367.188 15.625 1149
46.875 -265.625 1149
375 -429.688 1307
39.0625 -304.688 1153
-93.75 -187.5 1126
-296.875 250 1273
-320.312 109.375 1202
367.188 -367.188 1169
0 164.062 1387
-250 132.812 1433
187.5 -437.5 1255
-218.75 -226.562 1312
117.188 132.812 1343
-46.875 -343.75 1165
156.25 -367.188 1123
39.0625 265.625 1536
78.125 234.375 1439
328.125 93.75 1722
-125 -273.438 1264
54.6875 62.5 1483
375 -406.25 1292
-289.062 281.25 1292
-187.5 -281.25 1302
273.438 187.5 1639
-117.188 -304.688 1214
23.4375 -273.438 1138
375 -398.438 1292
-164.062 -250 1268
484.375 -15.625 1404
-500 -54.6875 2503
312.5 -445.312 1354
281.25 -414.062 1376
23.4375 -242.188 1153
-500 -140.625 2415
437.5 -250 1227
210.938 46.875 2016
-328.125 140.625 1210
156.25 -250 1181
476.562 -23.4375 1516
265.625 210.938 1609
-312.5 414.062 1579
398.438 -390.625 1236
-101.562 -187.5 1126
375 -414.062 1292
421.875 203.125 1586
-328.125 156.25 1219
-296.875 312.5 1307
421.875 -250 1227
-500 46.875 2639
117.188 -78.125 1219
-453.125 46.875 2680
-296.875 375 1343
-93.75 -171.875 1108
257.812 203.125 1639
7.8125 -398.438 1169
31.25 -250 1149
54.6875 -132.812 1189
39.0625 -429.688 1489
-328.125 203.125 1245
-62.5 125 1439
-218.75 -304.688 3269
101.562 171.875 1376
445.312 -250 1232
15.625 156.25 1387
375 -445.312 3365
132.812 234.375 1458
-484.375 398.438 1594
460.938 140.625 1586
140.625 -414.062 1268
54.6875 156.25 1392
-210.938 -281.25 1550
179.688 93.75 1926
-296.875 265.625 1278
250 -218.75 1181
289.062 -70.3125 1947
429.688 -382.812 1177
476.562 -234.375 1241
-476.562 -187.5 3064
226.562 -117.188 1894
-335.938 85.9375 1189
-312.5 226.562 1255
187.5 -210.938 1161
445.312 -234.375 1236
78.125 156.25 1392
117.188 171.875 1370
-109.375 -242.188 1255
93.75 242.188 1421
367.188 -359.375 1169
-23.4375 -343.75 1149
234.375 -351.562 1145
398.438 179.688 1647
-125 -289.062 1232
375 -156.25 1268
70.3125 109.375 1458
375 -226.562 1206
54.6875 -218.75 1153
195.312 -179.688 1157
-156.25 156.25 1392
-210.938 -242.188 1370
226.562 -101.562 1904
-78.125 -242.188 1161
492.188 -242.188 1250
-195.312 -265.625 1307
351.562 273.438 1503
70.3125 281.25 1509
7.8125 39.0625 1245
109.375 171.875 1370
-382.812 -70.3125 1108
453.125 -343.75 1193
468.75 -234.375 1241
-39.0625 -257.812 1141
351.562 -367.188 1173
0 85.9375 1550
-492.188 382.812 1624
-46.875 171.875 1370
-492.188 390.625 1609
-7.8125 -195.312 1126
382.812 164.062 1655
39.0625 -242.188 1149
421.875 -390.625 1227
460.938 132.812 1586
-62.5 -218.75 1161
375 -328.125 1181
-46.875 -328.125 1189
-15.625 132.812 1433
218.75 -195.312 1165
46.875 -242.188 1165
132.812 164.062 1381
70.3125 46.875 1439
476.562 109.375 1536
-31.25 -250 1141
359.375 -226.562 1206
31.25 -234.375 1145
-78.125 -320.312 1189
46.875 -335.938 1197
-289.062 312.5 1307
-31.25 -125 1173
-93.75 -218.75 1227
93.75 -203.125 1145
15.625 -210.938 1173
-398.438 132.812 2333
-289.062 367.188 1343
85.9375 -460.938 1398
-218.75 -257.812 1415
492.188 -78.125 1349
-218.75 -296.875 1655
-375 195.312 2116
-390.625 335.938 1739
210.938 -195.312 1161
-62.5 -250 1145
367.188 -242.188 1219
54.6875 101.562 1489
304.688 -234.375 1223
-54.6875 -203.125 1165
289.062 171.875 1601
117.188 140.625 1349
23.4375 93.75 1516
7.8125 78.125 1550
-296.875 335.938 1322
-500 -148.438 2415
382.812 -242.188 1227
54.6875 54.6875 1483
296.875 -234.375 1206
54.6875 -125 1189
375 -453.125 3399
-39.0625 171.875 1370
46.875 140.625 1404
453.125 -250 1227
226.562 7.8125 1981
-93.75 -359.375 1153
-460.938 304.688 1813
156.25 -382.812 1278
-23.4375 125 1445
-46.875 -335.938 1165
132.812 195.312 1387
62.5 -203.125 1145
421.875 78.125 1680
-226.562 -312.5 3208
85.9375 -203.125 1138
351.562 132.812 1601
-296.875 218.75 1259
351.562 -226.562 1219
156.25 -218.75 1189
-289.062 132.812 1210
46.875 -132.812 1185
-335.938 351.562 1705
0 -437.5 3269
101.562 156.25 1370
273.438 -218.75 1185
414.062 -171.875 1264
93.75 -445.312 1415
242.188 -351.562 1149
234.375 -117.188 1894
-101.562 23.4375 1223
351.562 -359.375 1169
-187.5 -234.375 1338
31.25 -382.812 1206
54.6875 109.375 1477
226.562 -109.375 1894
226.562 -93.75 1904
492.188 -234.375 1236
343.75 -226.562 1202
390.625 171.875 1632
7.8125 -312.5 1134
-7.8125 109.375 1496
-492.188 -85.9375 2485
468.75 -250 1245
39.0625 -437.5 1477
-320.312 171.875 1227
70.3125 132.812 1415
484.375 -7.8125 1404
-375 -23.4375 1126
250 109.375 1748
-375 234.375 1993
54.6875 -109.375 1197
-226.562 -23.4375 1173
-203.125 -210.938 1227
23.4375 234.375 1609
125 218.75 1439
-226.562 -250 1410
109.375 -343.75 1134
132.812 -390.625 1292
375 156.25 1624
-85.9375 -351.562 1145
234.375 132.812 1696
70.3125 164.062 1516
23.4375 109.375 1477
70.3125 156.25 1387
210.938 -351.562 1141
-453.125 -226.562 3149
-320.312 289.062 1283
-445.312 -78.125 3238
70.3125 304.688 1464
484.375 -242.188 1264
492.188 93.75 1452
132.812 132.812 1421
351.562 -421.875 1312
-46.875 117.188 1483
-46.875 -390.625 3238
46.875 148.438 1387
-406.25 109.375 2432
171.875 140.625 1445
-117.188 -359.375 1173
390.625 -226.562 1214
210.938 39.0625 2016
140.625 -343.75 1130
-46.875 -250 1138
-250 -343.75 3178
-203.125 -234.375 1338
-296.875 320.312 1312
39.0625 -210.938 1169
445.312 -359.375 1185
171.875 31.25 1981
140.625 -445.312 1250
273.438 101.562 1647
289.062 -218.75 1185
-343.75 132.812 1206
468.75 -375 1193
218.75 -351.562 1145
-312.5 218.75 1250
-46.875 -187.5 1119
484.375 0 1410
-328.125 210.938 1245
375 -421.875 1302
70.3125 140.625 1392
132.812 218.75 1445
125 164.062 1370
125 -203.125 1149
-304.688 250 1273
125 140.625 1354
-179.688 -281.25 1302
359.375 -359.375 1169
476.562 -343.75 1206
125 -406.25 1292
210.938 31.25 2005
-54.6875 -218.75 1161
-296.875 164.062 1232
179.688 85.9375 2016
164.062 78.125 2005
445.312 210.938 1564
-187.5 -250 1283
242.188 109.375 1731
54.6875 179.688 1616
-171.875 -265.625 1283
460.938 78.125 1572
-289.062 164.062 1236
492.188 -23.4375 1404
-78.125 -39.0625 1165
445.312 203.125 1579
-500 -156.25 2365
226.562 -226.562 1202
-210.938 -242.188 1370
85.9375 132.812 1387
218.75 15.625 1981
296.875 210.938 1609
-234.375 351.562 1387
-460.938 -93.75 1054
-7.8125 -367.188 1165
-148.438 -273.438 1250
390.625 -359.375 1173
-164.062 -351.562 1227
-70.3125 140.625 1415
70.3125 78.125 1452
156.25 -414.062 1259
218.75 -210.938 1169
31.25 101.562 1489
101.562 226.562 1415
-171.875 -257.812 1273
117.188 273.438 1439
-453.125 -93.75 1054
101.562 -210.938 1161
-93.75 -242.188 1241
54.6875 46.875 1523
70.3125 148.438 1387
-289.062 296.875 1297
54.6875 -62.5 1214
31.25 -250 1149
46.875 242.188 1586
445.312 -406.25 1223
-437.5 -39.0625 3178
-39.0625 70.3125 1579
257.812 -351.562 1149
23.4375 156.25 1387
46.875 101.562 1477
85.9375 15.625 1259
343.75 -367.188 1169
-320.312 218.75 1245
85.9375 281.25 1483
-39.0625 -289.062 1153
-406.25 78.125 2503
-484.375 -195.312 3064
-460.938 -406.25 2908
-78.125 -242.188 1161
-289.062 335.938 1322
-328.125 171.875 1227
234.375 -226.562 1202
70.3125 -429.688 1445
-242.188 -421.875 3092
101.562 -203.125 1141
-421.875 -242.188 1496
54.6875 -335.938 1197
70.3125 62.5 1404
-54.6875 -250 1145
-39.0625 -23.4375 1214
-328.125 101.562 1193
234.375 -140.625 1241
289.062 78.125 1731
-62.5 54.6875 1232
-195.312 -335.938 1264
296.875 203.125 1616
-328.125 132.812 1210
54.6875 -54.6875 1219
54.6875 265.625 1536
429.688 -218.75 1206
156.25 78.125 2005
-484.375 -171.875 3120
179.688 -398.438 1273
359.375 140.625 1609
54.6875 117.188 1452
-54.6875 156.25 1392
-343.75 273.438 1273
-148.438 -218.75 1236
-15.625 -226.562 1153
-62.5 -335.938 1185
-375 -31.25 1126
54.6875 -101.562 1197
54.6875 85.9375 1523
-54.6875 -171.875 1115
226.562 0 1981
-328.125 148.438 1214
54.6875 -117.188 1193
23.4375 -226.562 1153
-70.3125 -234.375 1165
171.875 -218.75 1185
-46.875 85.9375 1543
-328.125 164.062 1223
62.5 -429.688 1452
-46.875 -281.25 1153
-62.5 132.812 1433
296.875 78.125 1722
-210.938 -289.062 1609
-203.125 -242.188 1376
-7.8125 148.438 1404
359.375 -367.188 1173
-312.5 164.062 1227
0 -367.188 1169
265.625 187.5 1647
-179.688 -289.062 1302
-234.375 -328.125 3208
390.625 -382.812 1177
54.6875 -203.125 1145
54.6875 210.938 1639
101.562 31.25 1292
-70.3125 -171.875 1112
-289.062 320.312 1317
-375 -39.0625 1123
-335.938 109.375 1197
54.6875 125 1445
-453.125 -46.875 3208
-187.5 -39.0625 1173
-304.688 242.188 1264
-421.875 203.125 2090
328.125 101.562 1713
-429.688 7.8125 2859
-140.625 -351.562 1210
-23.4375 -296.875 1141
-101.562 85.9375 1550
226.562 -62.5 1926
492.188 -343.75 1210
-367.188 23.4375 1157
460.938 -250 1236
226.562 203.125 1663
23.4375 -203.125 1169
460.938 -375 1206
-132.812 -273.438 1250
320.312 -203.125 1202
132.812 -343.75 1138
-195.312 -281.25 1292
218.75 7.8125 1993
-39.0625 -382.812 1165
250 -351.562 1165
390.625 62.5 1722
39.0625 -343.75 1297
125 -187.5 1157
148.438 -367.188 1157
46.875 218.75 1439
-328.125 125 1206
-109.375 109.375 1496
117.188 101.562 1338
-476.562 406.25 1564
171.875 -210.938 1189
-476.562 375 1632
-343.75 23.4375 1161
23.4375 -351.562 1181
54.6875 -31.25 1236
62.5 -203.125 1169
-328.125 -265.625 1557
289.062 -85.9375 1947
390.625 -242.188 1245
54.6875 -39.0625 1236
-164.062 -320.312 1236
382.812 -359.375 1189
78.125 140.625 1359
484.375 -23.4375 1452
54.6875 -78.125 1219
54.6875 -7.8125 1250
265.625 -218.75 1206
156.25 -445.312 1259
226.562 -7.8125 1981
-468.75 -289.062 3037
-46.875 70.3125 1594
-7.8125 125 1458
-382.812 -218.75 1370
54.6875 -23.4375 1241
70.3125 85.9375 1338
15.625 109.375 1503
234.375 -132.812 1894
-31.25 -203.125 1185
7.8125 -359.375 1202
-195.312 -210.938 1250
54.6875 -70.3125 1219
195.312 -351.562 1153
-328.125 85.9375 1193
-109.375 -187.5 1145
-23.4375 -359.375 1177
-85.9375 -289.062 1185
-31.25 -390.625 1624
234.375 -351.562 1161
484.375 -242.188 1297
-203.125 -31.25 1177
460.938 -234.375 1273
-265.625 78.125 1189
-70.3125 -289.062 1165
-125 -226.562 1255
-328.125 109.375 1202
429.688 70.3125 1601
-281.25 343.75 1333
-109.375 -312.5 1193
31.25 171.875 1550
-328.125 93.75 1193
468.75 -359.375 1210
54.6875 164.062 1398
62.5 -335.938 1189
250 203.125 1655
54.6875 195.312 1410
0 -218.75 1165
132.812 179.688 1516
484.375 15.625 1458
-445.312 -70.3125 3300
0 109.375 1496
54.6875 -46.875 1232
117.188 109.375 1343
-15.625 -218.75 1165
-101.562 125 1464
54.6875 132.812 1370
-500 -226.562 2301
453.125 -7.8125 1529
242.188 -226.562 1219
-289.062 343.75 1328
242.188 179.688 1639
54.6875 140.625 1421
148.438 -343.75 1149
476.562 140.625 1516
-39.0625 -312.5 1141
-78.125 -242.188 1149
242.188 164.062 1639
62.5 -54.6875 1232
85.9375 210.938 1404
210.938 -242.188 1206
-296.875 125 1470
226.562 -117.188 1915
476.562 125 1509
398.438 -359.375 1189
218.75 0 1993
164.062 -210.938 1189
-296.875 343.75 1322
382.812 -242.188 1245
367.188 -218.75 1210
78.125 281.25 1445
54.6875 218.75 1439
-164.062 31.25 1219
117.188 148.438 1421
375 -250 1241
-304.688 218.75 1255
0 156.25 1387
-210.938 -218.75 1250
375 -398.438 1259
93.75 156.25 1365
78.125 -390.625 1370
187.5 -445.312 1273
-429.688 -398.438 2958
70.3125 234.375 1421
375 -406.25 1278
54.6875 70.3125 1349
-140.625 -273.438 1264
54.6875 -15.625 1245
-289.062 328.125 1317
-109.375 -218.75 1177
-54.6875 93.75 1557
367.188 -226.562 1236
-132.812 -320.312 1197
-218.75 -296.875 3269
-15.625 164.062 1392
23.4375 78.125 1564
289.062 70.3125 1739
117.188 265.625 1464
226.562 -125 1904
-320.312 242.188 1264
-414.062 78.125 1173
265.625 -351.562 1169
-296.875 179.688 1245
54.6875 203.125 1410
62.5 -421.875 1452
-125 -242.188 1268
-312.5 281.25 1283
187.5 -210.938 1185
54.6875 0 1250
93.75 164.062 1370
-39.0625 -195.312 1153
398.438 242.188 1536
-101.562 -117.188 1173
-39.0625 -328.125 1145
187.5 125 1894
203.125 -195.312 1173
-125 -312.5 1197
-85.9375 -328.125 1193
203.125 156.25 1739
-242.188 406.25 1594
-93.75 -257.812 1153
93.75 210.938 1404
437.5 -359.375 1202
-382.812 -62.5 1112
109.375 -203.125 1161
-125 -164.062 1112
398.438 -242.188 1259
-468.75 -101.562 1050
54.6875 187.5 1404
484.375 -15.625 1415
312.5 -234.375 1236
460.938 117.188 1536
117.188 -203.125 1161
54.6875 242.188 1445
453.125 117.188 1550
-62.5 46.875 1245
-328.125 140.625 1214
-117.188 -328.125 1185
-328.125 195.312 1241
289.062 -226.562 1232
179.688 -218.75 1214
-500 -195.312 2286
-15.625 117.188 1489
445.312 148.438 1579
210.938 31.25 2028
203.125 148.438 1757
453.125 -375 1206
-125 54.6875 1232
429.688 -359.375 1197
406.25 -234.375 1264
-78.125 -312.5 1197
-312.5 375 1343
429.688 -414.062 1227
296.875 179.688 1601
226.562 -101.562 1915
468.75 109.375 1516
195.312 -210.938 1177
265.625 -78.125 1959
-15.625 39.0625 1255
78.125 -203.125 1153
-296.875 289.062 1292
382.812 -156.25 1292
31.25 125 1470
421.875 -226.562 1227
-7.8125 -226.562 1165
-15.625 85.9375 1564
7.8125 187.5 1739
414.062 -382.812 1130
-367.188 15.625 1149
15.625 93.75 1529
195.312 226.562 1601
234.375 140.625 1663
-15.625 -125 1185
250 109.375 1663
-304.688 265.625 1278
-328.125 179.688 1232
289.062 -218.75 1214
-421.875 351.562 1705
-296.875 257.812 1278
46.875 7.8125 1255
179.688 -429.688 1273
-39.0625 -320.312 1141
-429.688 -15.625 1134
-39.0625 -343.75 1157
484.375 78.125 1477
-109.375 132.812 1452
-132.812 -351.562 1165
70.3125 -382.812 1317
-226.562 -250 1439
-343.75 117.188 1202
312.5 109.375 1713
140.625 -414.062 1268
460.938 -359.375 1206
54.6875 148.438 1398
179.688 -210.938 1197
-375 -15.625 1134
125 203.125 1445
406.25 -359.375 1189
0 39.0625 1255
460.938 -375 1206
-367.188 31.25 1157
-132.812 -328.125 1197
156.25 -210.938 1197
23.4375 -257.812 1161
-460.938 -210.938 3120
-54.6875 -296.875 1149
304.688 -234.375 1236
250 -210.938 1189
218.75 203.125 1671
468.75 -250 1264
414.062 15.625 1647
-445.312 -85.9375 1054
265.625 164.062 1609
-7.8125 39.0625 1255
257.812 187.5 1655
226.562 -15.625 1981
484.375 93.75 1483
320.312 -234.375 1245
70.3125 140.625 1370
109.375 -328.125 1138
54.6875 179.688 1392
101.562 140.625 1354
-375 -70.3125 1112
156.25 93.75 1936
460.938 62.5 1523
234.375 117.188 1776
226.562 -7.8125 1981
476.562 -93.75 1452
7.8125 39.0625 1255
85.9375 171.875 1376
242.188 -351.562 1165
-304.688 296.875 1297
-125 -203.125 1202
226.562 -109.375 1915
226.562 179.688 1705
484.375 179.688 1536
375 -453.125 3433
-375 164.062 1210
125 296.875 1483
54.6875 156.25 1398
484.375 23.4375 1458
414.062 -421.875 1292
15.625 -132.812 1189
156.25 -367.188 1153
23.4375 -179.688 1138
7.8125 -179.688 1134
54.6875 171.875 1381
-445.312 203.125 2090
171.875 -367.188 1181
31.25 -132.812 1193
54.6875 -226.562 1236
101.562 226.562 1445
460.938 -421.875 1601
468.75 -359.375 1210
281.25 62.5 2040
468.75 -210.938 1227
492.188 -367.188 1214
-328.125 210.938 1250
46.875 85.9375 1464
-468.75 -203.125 3064
-328.125 164.062 1223
296.875 -218.75 1210
-23.4375 -343.75 1161
-359.375 39.0625 1165
54.6875 273.438 1458
-46.875 -218.75 1149
187.5 132.812 1873
-476.562 304.688 1813
117.188 148.438 1421
140.625 226.562 1470
492.188 23.4375 1433
54.6875 -203.125 1169
164.062 -367.188 1181
296.875 -351.562 1173
257.812 -406.25 1392
39.0625 -453.125 1427
453.125 -250 1255
109.375 -210.938 1189
62.5 -203.125 1169
-429.688 46.875 2680
70.3125 15.625 1268
-117.188 -164.062 1115
375 -226.562 1241
281.25 -156.25 1259
101.562 132.812 1349
54.6875 -242.188 1197
0 140.625 1415
93.75 164.062 1370
-93.75 -187.5 1141
54.6875 -210.938 1181
132.812 156.25 1439
-85.9375 -257.812 1153
7.8125 -359.375 1202
304.688 -218.75 1206
304.688 203.125 1624
54.6875 304.688 1470
54.6875 210.938 1439
-421.875 39.0625 2680
-296.875 351.562 1328
375 -414.062 1297
218.75 7.8125 1993
398.438 101.562 1705
-109.375 -343.75 1149
414.062 -226.562 1232
453.125 101.562 1543
54.6875 257.812 1445
23.4375 -351.562 1181
-171.875 -39.0625 1165
234.375 -93.75 1926
484.375 -429.688 1586
-304.688 281.25 1283
54.6875 195.312 1410
15.625 164.062 1392
31.25 140.625 1427
242.188 187.5 1680
-164.062 -351.562 1210
-39.0625 171.875 1776
226.562 -132.812 1259
-93.75 -54.6875 1193
-54.6875 -281.25 1149
54.6875 62.5 1328
304.688 -226.562 1236
-328.125 218.75 1250
453.125 -375 1206
46.875 187.5 1523
148.438 -210.938 1197
273.438 -406.25 1392
23.4375 -460.938 1439
476.562 23.4375 1470
93.75 -382.812 1328
414.062 -382.812 1130
265.625 140.625 1647
296.875 171.875 1594
195.312 -437.5 1273
31.25 257.812 1572
273.438 -218.75 1206
367.188 -375 1177
-7.8125 117.188 1483
281.25 -406.25 1392
398.438 -226.562 1236
-109.375 -179.688 1119
54.6875 289.062 1503
-320.312 421.875 1376
-226.562 -257.812 1439
226.562 -46.875 1959
390.625 -390.625 1245
-375 -31.25 1126
-62.5 -250 1145
343.75 -390.625 1312
93.75 -203.125 1161
-210.938 -234.375 1359
226.562 -31.25 1970
46.875 -203.125 1173
257.812 -351.562 1165
492.188 78.125 1464
-382.812 -54.6875 1119
234.375 -226.562 1219
226.562 -54.6875 1947
226.562 -23.4375 1970
367.188 70.3125 1813
-31.25 117.188 1489
218.75 171.875 1705
242.188 -210.938 1189
265.625 -406.25 1392
7.8125 -273.438 1153
-406.25 117.188 1189
-62.5 -218.75 1149
62.5 -125 1197
453.125 148.438 1550
23.4375 187.5 1632
226.562 -39.0625 1959
156.25 -390.625 1283
-23.4375 -367.188 1153
54.6875 234.375 1427
195.312 140.625 1776
296.875 187.5 1639
390.625 -226.562 1236
-15.625 15.625 1250
93.75 -460.938 1268
-242.188 -335.938 1278
171.875 39.0625 1993
54.6875 250 1445
218.75 0 1993
226.562 -125 1904
-351.562 101.562 1193
-500 -148.438 2365
54.6875 296.875 1489
460.938 70.3125 1523
421.875 -421.875 1227
117.188 -210.938 1193
7.8125 -320.312 1206
234.375 164.062 1647
-328.125 203.125 1245
23.4375 -250 1161
187.5 -398.438 1292
359.375 125 1632
-421.875 31.25 1157
265.625 125 1647
-15.625 -367.188 1177
421.875 -382.812 1130
-78.125 -242.188 1149
-7.8125 -367.188 1181
-23.4375 101.562 1529
171.875 -398.438 1288
101.562 140.625 1354
453.125 -226.562 1236
-109.375 -320.312 1193
210.938 -210.938 1189
54.6875 281.25 1458
140.625 -343.75 1141
-367.188 23.4375 1157
429.688 -226.562 1227
-218.75 -218.75 1255
187.5 78.125 2028
70.3125 31.25 1273
414.062 203.125 1609
476.562 117.188 1509
-359.375 31.25 1161
70.3125 234.375 1421
320.312 164.062 1601
70.3125 -203.125 1169
421.875 210.938 1586
85.9375 -203.125 1153
359.375 -367.188 1185
132.812 -187.5 1157
-85.9375 -359.375 1145
-226.562 -250 1439
-375 -23.4375 1126
203.125 -210.938 1189
-320.312 257.812 1268
445.312 -359.375 1206
390.625 -242.188 1245
-39.0625 -281.25 1145
421.875 101.562 1624
-226.562 -234.375 1376
-382.812 -78.125 1105
156.25 -343.75 1153
-117.188 -187.5 1138
234.375 -195.312 1181
-15.625 -453.125 1489
234.375 179.688 1688
-117.188 117.188 1477
-234.375 -328.125 1278
-304.688 226.562 1259
226.562 -62.5 1947
-117.188 54.6875 1232
179.688 -218.75 1214
-492.188 -93.75 1050
46.875 156.25 1392
367.188 148.438 1655
93.75 148.438 1359
-304.688 304.688 1302
54.6875 -179.688 1141
218.75 195.312 1680
-70.3125 -226.562 1149
-101.562 -343.75 1149
476.562 93.75 1489
-320.312 140.625 1219
-375 -7.8125 1138
218.75 23.4375 2016
250 -78.125 1936
242.188 109.375 1785
460.938 54.6875 1523
250 156.25 1632
265.625 -351.562 1169
187.5 -218.75 1219
101.562 226.562 1445
-132.812 -359.375 1165
250 -351.562 1165
101.562 -203.125 1161
171.875 140.625 1823
414.062 -390.625 1236
234.375 -101.562 1915
203.125 54.6875 2028
140.625 132.812 1410
78.125 140.625 1359
23.4375 62.5 1557
109.375 148.438 1354
-492.188 -70.3125 2450
250 210.938 1639
15.625 -382.812 1210
289.062 -179.688 1214
460.938 46.875 1509
273.438 78.125 1748
-445.312 -78.125 3269
-7.8125 -125 1189
-46.875 -226.562 1149
343.75 -367.188 1185
-312.5 242.188 1264
335.938 171.875 1616
-85.9375 -242.188 1157
156.25 78.125 2028
445.312 132.812 1564
250 -226.562 1227
164.062 132.812 1843
242.188 203.125 1663
296.875 93.75 1739
0 187.5 1739
0 132.812 1452
-78.125 -312.5 1197
382.812 -210.938 1214
109.375 -140.625 1214
398.438 -242.188 1259
-148.438 -343.75 1189
-382.812 -70.3125 1112
476.562 -242.188 1297
226.562 -117.188 1915
-93.75 -257.812 1153
406.25 93.75 1680
54.6875 109.375 1370
31.25 93.75 1529
-70.3125 -335.938 1169
-109.375 -210.938 1219
-148.438 -164.062 1108
250 -406.25 1392
-445.312 -62.5 3300
484.375 -242.188 1297
-156.25 187.5 1739
93.75 -359.375 1145
414.062 -359.375 1193
-7.8125 132.812 1415
-210.938 -234.375 1359
93.75 164.062 1370
78.125 132.812 1354
132.812 132.812 1410
148.438 132.812 1452
406.25 -382.812 1193
210.938 39.0625 2028
445.312 -375 1206
-85.9375 -31.25 1177
46.875 -234.375 1193
406.25 -242.188 1264
-320.312 156.25 1223
-195.312 -109.375 1149
15.625 -250 1157
-7.8125 171.875 1392
0 125 1458
70.3125 23.4375 1268
-117.188 -281.25 1214
-156.25 -273.438 1268
117.188 187.5 1445
304.688 85.9375 1748
54.6875 -101.562 1206
328.125 109.375 1705
-218.75 -39.0625 1173
-335.938 117.188 1202
-328.125 406.25 1359
54.6875 0 1250
70.3125 226.562 1421
218.75 -31.25 1970
242.188 210.938 1639
140.625 234.375 1470
-210.938 -210.938 1250
148.438 101.562 1936
-328.125 226.562 1255
390.625 -359.375 1189
-125 -203.125 1202
-171.875 -109.375 1161
140.625 203.125 1452
468.75 0 1489
117.188 218.75 1445
312.5 109.375 1713
-78.125 -351.562 1145
-171.875 -226.562 1268
312.5 -234.375 1236
46.875 148.438 1398
437.5 -39.0625 1564
-484.375 -164.062 3064
421.875 -359.375 1193
31.25 -195.312 1153
78.125 -335.938 1153
-117.188 93.75 1543
78.125 164.062 1370
210.938 171.875 1705
70.3125 7.8125 1264
-23.4375 164.062 1392
-226.562 -39.0625 1169
179.688 -367.188 1185
-31.25 -234.375 1153
171.875 -343.75 1153
132.812 -203.125 1165
-23.4375 -250 1145
218.75 -54.6875 1947
-484.375 398.438 1579
226.562 -54.6875 1947
-85.9375 -351.562 1145
328.125 101.562 1722
257.812 -226.562 1236
31.25 -382.812 1387
335.938 -382.812 1210
-367.188 39.0625 1161
109.375 -203.125 1161
-23.4375 -250 1145
164.062 -367.188 1181
132.812 226.562 1464
320.312 -234.375 1245
164.062 85.9375 2028
-437.5 -78.125 1101
476.562 -359.375 1214
-62.5 -296.875 1161
398.438 46.875 1705
7.8125 156.25 1392
476.562 15.625 1470
-7.8125 101.562 1516
414.062 -242.188 1264
46.875 -218.75 1185
484.375 -54.6875 1381
195.312 -210.938 1177
7.8125 62.5 1609
101.562 210.938 1392
453.125 -171.875 1297
-117.188 132.812 1458
46.875 164.062 1392
-23.4375 132.812 1458
15.625 -273.438 1157
-31.25 -351.562 1161
453.125 -382.812 1206
226.562 -46.875 1959
187.5 -210.938 1185
-7.8125 125 1458
117.188 140.625 1421
273.438 46.875 2065
-140.625 -234.375 1264
453.125 210.938 1564
54.6875 304.688 1470
218.75 -15.625 1970
-406.25 343.75 1713
70.3125 -54.6875 1232
226.562 -78.125 1936
398.438 187.5 1655
-7.8125 140.625 1415
125 234.375 1464
218.75 -7.8125 1981
-23.4375 117.188 1496
-468.75 -85.9375 1050
-109.375 -226.562 1181
-429.688 15.625 2859
312.5 -218.75 1206
484.375 -367.188 1214
218.75 -39.0625 1959
250 62.5 2053
-179.688 -203.125 1214
218.75 -46.875 1959
93.75 156.25 1365
-171.875 -203.125 1214
-125 -359.375 1149
218.75 -210.938 1189
62.5 -210.938 1181
101.562 281.25 1439
-164.062 -210.938 1241
484.375 203.125 1586
148.438 -343.75 1149
-218.75 -226.562 1333
46.875 281.25 1516
406.25 195.312 1639
-179.688 -335.938 1232
-367.188 320.312 1776
93.75 281.25 1445
109.375 101.562 1338
-39.0625 -367.188 1157
0 140.625 1415
-164.062 -273.438 1264
273.438 -351.562 1169
93.75 242.188 1439
484.375 -31.25 1445
-85.9375 -304.688 1197
148.438 93.75 1936
-31.25 -367.188 1153
117.188 203.125 1439
85.9375 234.375 1421
-460.938 -218.75 3120
7.8125 39.0625 1255
-101.562 -242.188 1161
-375 250 1255
54.6875 -335.938 1189
0 117.188 1470
-375 -15.625 1134
460.938 101.562 1536
-218.75 -265.625 1302
-375 0 1141
421.875 -398.438 1232
421.875 -226.562 1227
109.375 234.375 1464
-7.8125 -226.562 1165
140.625 195.312 1464
-312.5 250 1264
7.8125 101.562 1516
0 -250 1149
265.625 125 1647
70.3125 -7.8125 1250
226.562 -132.812 1259
70.3125 -15.625 1250
164.062 78.125 2028
210.938 39.0625 2028
-429.688 101.562 2450
46.875 -210.938 1185
453.125 -375 1206
171.875 101.562 1947
445.312 195.312 1579
203.125 -375 1161
125 148.438 1421
453.125 93.75 1543
-93.75 -117.188 1173
351.562 -390.625 1312
468.75 -242.188 1288
-226.562 -31.25 1177
-117.188 -265.625 1236
453.125 156.25 1557
328.125 -218.75 1210
78.125 226.562 1415
-367.188 15.625 1149
-31.25 -250 1145
-117.188 -359.375 1149
-70.3125 -257.812 1149
-312.5 226.562 1255
-54.6875 -359.375 1149
445.312 -375 1206
460.938 -359.375 1206
453.125 148.438 1550
-382.812 -46.875 1123
-367.188 281.25 1863
-109.375 -296.875 1206
-187.5 -273.438 1297
328.125 -148.438 1283
398.438 -226.562 1236
476.562 -367.188 1210
226.562 -351.562 1157
265.625 101.562 1647
-93.75 -343.75 1145
187.5 -390.625 1297
429.688 -343.75 1202
-109.375 101.562 1509
-132.812 -351.562 1165
476.562 -351.562 1219
-7.8125 -210.938 1210
85.9375 226.562 1421
-312.5 289.062 1288
109.375 226.562 1452
125 -203.125 1165
54.6875 -70.3125 1219
476.562 -429.688 1594
-351.562 117.188 1197
54.6875 -23.4375 1241
164.062 -343.75 1153
-351.562 335.938 1322
218.75 -23.4375 1970
-23.4375 -195.312 1157
-125 -351.562 1161
62.5 -375 1236
-78.125 -234.375 1157
54.6875 -210.938 1181
0 -429.688 1489
367.188 156.25 1688
-15.625 -203.125 1138
-468.75 -70.3125 3208
140.625 187.5 1477
31.25 7.8125 1250
54.6875 -125 1197
296.875 164.062 1601
445.312 -226.562 1227
-437.5 -62.5 1108
257.812 -210.938 1189
-203.125 -265.625 1297
101.562 -359.375 1145
70.3125 171.875 1376
125 109.375 1421
-304.688 273.438 1283
85.9375 242.188 1421
-140.625 78.125 1594
7.8125 -304.688 1165
156.25 93.75 1936
54.6875 273.438 1458
31.25 -343.75 1185
-117.188 -226.562 1181
-351.562 109.375 1193
-15.625 -195.312 1138
-15.625 -351.562 1181
-304.688 328.125 1317
-398.438 148.438 2286
406.25 -226.562 1236
382.812 171.875 1696
-320.312 265.625 1278
-140.625 -203.125 1206
78.125 -382.812 1317
437.5 -343.75 1206
179.688 234.375 1594
-226.562 -242.188 1410
-382.812 -54.6875 1119
-179.688 -265.625 1259
54.6875 -93.75 1214
-226.562 -257.812 1439
54.6875 -31.25 1236
-101.562 -187.5 1141
-140.625 85.9375 1572
492.188 -93.75 1359
54.6875 7.8125 1255
320.312 -218.75 1210
-281.25 296.875 1297
-78.125 -265.625 1169
335.938 -148.438 1278
117.188 179.688 1415
46.875 -257.812 1181
-171.875 -250 1255
-7.8125 179.688 1766
171.875 -367.188 1181
296.875 -218.75 1210
257.812 156.25 1624
492.188 -234.375 1268
-359.375 304.688 1292
453.125 140.625 1550
-93.75 85.9375 1557
484.375 101.562 1483
-242.188 -335.938 1278
-335.938 203.125 1241
7.8125 -250 1153
-304.688 289.062 1292
-226.562 -234.375 1376
445.312 179.688 1586
-101.562 -39.0625 1169
179.688 -218.75 1214
132.812 101.562 1936
54.6875 -109.375 1202
273.438 289.062 1503
-203.125 -250 1292
-218.75 -218.75 1255
281.25 -62.5 1981
117.188 -210.938 1193
375 54.6875 1785
468.75 -171.875 1297
257.812 -226.562 1236
492.188 -101.562 1354
218.75 -62.5 1947
-296.875 328.125 1322
117.188 195.312 1445
-23.4375 -265.625 1141
7.8125 -257.812 1149
468.75 -359.375 1210
226.562 -15.625 1981
54.6875 203.125 1410
304.688 -218.75 1206
-367.188 23.4375 1157
195.312 -218.75 1177
-375 -15.625 1134
46.875 -203.125 1173
-117.188 85.9375 1572
-226.562 -304.688 3238
-78.125 109.375 1509
-109.375 -187.5 1145
226.562 -210.938 1189
-203.125 -281.25 1297
-15.625 -367.188 1177
203.125 -210.938 1189
23.4375 -304.688 1169
-234.375 -101.562 1141
429.688 -359.375 1197
70.3125 281.25 1452
375 -421.875 1302
-218.75 -289.062 1624
484.375 -359.375 1219
-367.188 46.875 1169
-335.938 382.812 1343
304.688 164.062 1601
-117.188 -218.75 1255
-109.375 -210.938 1219
-359.375 85.9375 1185
257.812 -351.562 1165
460.938 210.938 1572
93.75 -453.125 1273
-156.25 -210.938 1241
218.75 23.4375 2016
54.6875 -218.75 1181
-187.5 -210.938 1250
-164.062 -359.375 1210
218.75 23.4375 2016
54.6875 -39.0625 1236
54.6875 -54.6875 1232
328.125 -351.562 1181
335.938 -234.375 1245
375 164.062 1688
382.812 -359.375 1189
78.125 226.562 1415
-312.5 -93.75 1126
140.625 203.125 1452
218.75 -15.625 1970
210.938 156.25 1731
-46.875 -312.5 1145
-31.25 171.875 1776
-148.438 -335.938 1202
226.562 -78.125 1936
-367.188 31.25 1157
-46.875 -265.625 1145
-398.438 156.25 2256
210.938 -210.938 1189
54.6875 -304.688 1181
296.875 -351.562 1173
-15.625 -125 1185
453.125 164.062 1557
328.125 109.375 1705
-312.5 429.688 1381
125 210.938 1439
-70.3125 23.4375 1232
187.5 -375 1185
171.875 85.9375 2028
257.812 164.062 1609
39.0625 148.438 1398
15.625 234.375 1624
-93.75 23.4375 1232
468.75 -7.8125 1483
-328.125 171.875 1227
226.562 109.375 1766
-335.938 359.375 1328
-93.75 -304.688 1206
31.25 -460.938 1433
-70.3125 -351.562 1145
-140.625 62.5 1223
70.3125 242.188 1427
-46.875 -296.875 1145
-140.625 -320.312 1206
-109.375 -226.562 1181
-7.8125 164.062 1392
484.375 23.4375 1458
335.938 101.562 1713
46.875 -335.938 1273
54.6875 -7.8125 1250
-148.438 187.5 1739
7.8125 -320.312 1206
265.625 -351.562 1169
-78.125 -117.188 1173
281.25 -351.562 1169
328.125 -234.375 1250
265.625 179.688 1632
179.688 -343.75 1153
156.25 23.4375 1981
7.8125 -210.938 1197
15.625 39.0625 1255
445.312 -375 1206
-125 -117.188 1165
-117.188 -187.5 1138
421.875 -242.188 1259
62.5 -179.688 1141
171.875 -343.75 1153
-382.812 -70.3125 1112
453.125 -359.375 1206
429.688 -226.562 1227
179.688 -421.875 1278
-382.812 -62.5 1112
-78.125 -234.375 1157
109.375 132.812 1349
-39.0625 -125 1181
156.25 109.375 1926
203.125 39.0625 2016
-132.812 -164.062 1112
23.4375 101.562 1516
-15.625 -304.688 1138
-367.188 273.438 1894
476.562 7.8125 1477
-85.9375 -335.938 1145
218.75 -54.6875 1947
-320.312 234.375 1259
445.312 -359.375 1206
70.3125 140.625 1370
132.812 234.375 1464
210.938 -171.875 1210
195.312 -210.938 1177
46.875 -468.75 1415
54.6875 -62.5 1223
-171.875 437.5 1536
-93.75 -250 1161
23.4375 70.3125 1523
23.4375 164.062 1392
-281.25 195.312 1322
-320.312 250 1264
398.438 -242.188 1259
406.25 -359.375 1189
-492.188 -164.062 2349
7.8125 156.25 1392
-210.938 -281.25 1297
-101.562 109.375 1503
15.625 -218.75 1236
-312.5 257.812 1273
-500 390.625 1594
-367.188 328.125 1748
117.188 -203.125 1161
-31.25 15.625 1245
-101.562 -226.562 1177
265.625 -210.938 1189
218.75 -31.25 1970
187.5 -406.25 1288
-343.75 367.188 1338
-210.938 -234.375 1359
78.125 250 1433
171.875 93.75 1947
476.562 -367.188 1210
484.375 31.25 1464
304.688 -351.562 1173
93.75 171.875 1376
468.75 117.188 1516
-210.938 -289.062 1288
218.75 -70.3125 1936
179.688 93.75 1947
218.75 203.125 1671
-85.9375 -117.188 1173
335.938 148.438 1624
62.5 101.562 1370
117.188 85.9375 1981
117.188 70.3125 2005
-164.062 -109.375 1161
-312.5 296.875 1292
109.375 101.562 1338
125 -210.938 1193
85.9375 31.25 1283
-242.188 70.3125 1210
367.188 -289.062 1219
234.375 -132.812 1894
-226.562 148.438 1410
390.625 -265.625 1241
-46.875 -125 1177
54.6875 -453.125 1421
296.875 132.812 1609
-250 390.625 1370
218.75 -39.0625 1959
382.812 -390.625 1250
-125 -304.688 1206
85.9375 -359.375 1149
203.125 164.062 1722
-93.75 -257.812 1153
0 140.625 1415
-414.062 93.75 2503
-132.812 78.125 1594
-23.4375 -156.25 1138
7.8125 -125 1189
-15.625 -210.938 1214
125 -453.125 1250
117.188 -359.375 1134
328.125 156.25 1632
156.25 -375 1292
179.688 -367.188 1185
-132.812 70.3125 1227
7.8125 -429.688 1496
-7.8125 15.625 1250
343.75 -218.75 1210
70.3125 257.812 1439
-328.125 234.375 1259
226.562 -93.75 1926
460.938 -375 1206
-148.438 -210.938 1241
226.562 179.688 1705
265.625 -226.562 1241
171.875 -210.938 1189
203.125 171.875 1705
453.125 -226.562 1236
70.3125 0 1255
62.5 109.375 1370
-101.562 101.562 1516
-289.062 351.562 1333
85.9375 171.875 1376
7.8125 179.688 1748
117.188 15.625 1947
421.875 -226.562 1227
-296.875 281.25 1288
-296.875 179.688 1245
328.125 117.188 1616
-375 0 1141
148.438 -421.875 1268
-398.438 109.375 1189
-320.312 406.25 1359
7.8125 39.0625 1255
-109.375 54.6875 1232
23.4375 7.8125 1250
31.25 -343.75 1185
109.375 -359.375 1138
-226.562 -328.125 1278
343.75 -148.438 1288
-296.875 296.875 1297
-289.062 390.625 1359
93.75 -7.8125 1255
78.125 117.188 1349
195.312 -343.75 1153
242.188 109.375 1785
-218.75 -218.75 1255
-234.375 -320.312 3208
-140.625 -351.562 1173
93.75 -335.938 1138
335.938 -390.625 1322
39.0625 187.5 1557
242.188 117.188 1776
218.75 -85.9375 1936
476.562 -85.9375 1458
-476.562 414.062 1557
-375 257.812 1936
257.812 171.875 1616
-296.875 343.75 1322
-312.5 156.25 1227
242.188 -398.438 1398
-109.375 117.188 1496
312.5 -218.75 1206
-15.625 101.562 1516
-148.438 -273.438 1268
-171.875 -234.375 1264
-7.8125 -421.875 3269
-250 -335.938 3178
296.875 7.8125 2028
-31.25 -218.75 1157
-304.688 -93.75 1130
23.4375 109.375 1503
140.625 -187.5 1161
187.5 -343.75 1153
-242.188 -101.562 1138
