ply
format ascii 1.0
comment Created by Open3D
element vertex 2351
property double x
property double y
property double z
end_header
-226.562 7.8125 1094
-101.562 390.625 1359
78.125 -250 1041
15.625 -85.9375 1197
-367.188 -46.875 948
-492.188 -7.8125 882
-437.5 171.875 981
101.562 414.062 1149
125 390.625 1119
-382.812 164.062 930
117.188 -46.875 1223
125 164.062 1044
-101.562 351.562 1094
-343.75 93.75 854
-289.062 328.125 1489
31.25 382.812 1038
289.062 -70.3125 1288
78.125 -78.125 1185
-289.062 367.188 1509
-70.3125 398.438 1410
-304.688 101.562 858
93.75 421.875 1404
-62.5 398.438 1404
421.875 -304.688 2984
101.562 39.0625 1145
-289.062 250 943
-132.812 359.375 1115
257.812 -289.062 3149
-406.25 171.875 943
15.625 406.25 1415
-226.562 359.375 1141
132.812 390.625 1123
101.562 390.625 1123
109.375 414.062 1138
-437.5 -125 920
93.75 414.062 1149
93.75 179.688 1031
-296.875 250 940
-484.375 15.625 889
-351.562 289.062 1523
-296.875 179.688 928
-367.188 398.438 1496
85.9375 -242.188 1041
343.75 -164.062 2883
398.438 179.688 1057
156.25 -62.5 1197
62.5 -78.125 1189
-15.625 -398.438 995
382.812 54.6875 1157
335.938 -164.062 2859
31.25 -78.125 1193
-203.125 -343.75 3120
-39.0625 -304.688 1028
-437.5 -93.75 913
109.375 -250 1034
375 15.625 1202
-31.25 -93.75 1214
-390.625 164.062 930
320.312 -78.125 1297
-335.938 242.188 943
-109.375 234.375 975
-445.312 -54.6875 906
-460.938 -398.438 2984
-421.875 -390.625 2984
148.438 -78.125 1185
7.8125 406.25 1410
-46.875 375 1038
78.125 -468.75 2812
375 7.8125 1206
-242.188 125 1041
390.625 117.188 1112
-93.75 398.438 1398
93.75 -257.812 1028
-218.75 367.188 1138
-132.812 375 1134
-359.375 62.5 858
-101.562 375 1359
-226.562 414.062 1338
-156.25 367.188 1134
406.25 -304.688 3037
-390.625 -39.0625 920
117.188 375 1115
156.25 -39.0625 1219
-500 46.875 862
-343.75 62.5 858
39.0625 382.812 1138
-460.938 265.625 1609
62.5 414.062 1387
226.562 -78.125 1273
132.812 -460.938 2835
210.938 -453.125 2812
54.6875 367.188 1044
-492.188 273.438 1322
85.9375 -468.75 2835
-375 312.5 1509
-414.062 -78.125 923
-46.875 273.438 946
-179.688 359.375 1141
-484.375 -93.75 928
-335.938 359.375 1509
-265.625 265.625 948
70.3125 -39.0625 1202
-273.438 296.875 1047
-195.312 382.812 1349
-117.188 390.625 1343
171.875 296.875 951
-312.5 304.688 1496
-242.188 265.625 946
-171.875 390.625 1381
148.438 375 1108
117.188 445.312 1381
-382.812 62.5 860
-500 -281.25 984
-70.3125 375 1134
132.812 -375 973
-492.188 210.938 946
132.812 398.438 1141
-117.188 398.438 1343
70.3125 -265.625 1034
218.75 -453.125 2812
-304.688 304.688 1496
-304.688 -343.75 1259
101.562 -250 1041
-289.062 39.0625 882
-23.4375 359.375 1038
-445.312 54.6875 858
54.6875 414.062 1392
-39.0625 273.438 948
179.688 -109.375 1157
-484.375 210.938 946
-234.375 85.9375 1070
46.875 343.75 1057
-148.438 -375 3092
109.375 421.875 1387
-93.75 351.562 1115
0 382.812 1134
-7.8125 343.75 1034
320.312 304.688 951
-39.0625 39.0625 1126
382.812 46.875 1157
-210.938 0 1145
125 93.75 1004
335.938 -179.688 2883
351.562 -125 1338
-429.688 46.875 867
85.9375 -70.3125 1202
-117.188 -343.75 3120
-234.375 304.688 1077
-70.3125 343.75 1038
296.875 -179.688 2908
-460.938 46.875 864
-328.125 70.3125 858
-210.938 -382.812 3092
304.688 304.688 951
70.3125 -257.812 1044
-46.875 -117.188 1197
-476.562 164.062 973
70.3125 -70.3125 1206
-46.875 -195.312 1134
-195.312 335.938 1115
70.3125 -23.4375 1189
-70.3125 273.438 946
-328.125 93.75 854
-476.562 273.438 1594
93.75 -78.125 1189
-500 -257.812 948
85.9375 -78.125 1189
125 398.438 1141
-304.688 203.125 967
-54.6875 398.438 1536
-500 171.875 946
281.25 -148.438 1365
0 -93.75 1206
265.625 -187.5 2908
156.25 -85.9375 1177
39.0625 -85.9375 1197
-421.875 -117.188 913
-23.4375 406.25 1392
-359.375 85.9375 856
46.875 -93.75 1193
-218.75 -187.5 1087
484.375 -234.375 3120
-351.562 -335.938 1268
-398.438 54.6875 862
125 -70.3125 1193
-171.875 382.812 1410
39.0625 390.625 1138
-406.25 156.25 938
312.5 -179.688 2908
101.562 -382.812 973
-382.812 187.5 967
-210.938 390.625 1307
0 406.25 1392
-179.688 -109.375 1193
148.438 -62.5 1206
-281.25 132.812 901
-367.188 203.125 962
234.375 -78.125 1273
-375 250 951
78.125 289.062 946
492.188 179.688 2129
-437.5 54.6875 862
-289.062 101.562 873
109.375 414.062 1415
-164.062 390.625 1381
-179.688 -117.188 1210
-445.312 218.75 943
-273.438 312.5 1087
-171.875 -156.25 1245
164.062 375 1108
-203.125 -382.812 3092
-140.625 390.625 1349
-492.188 46.875 862
-70.3125 304.688 946
312.5 304.688 951
-39.0625 382.812 1141
-46.875 -179.688 1149
-39.0625 375 1141
-156.25 359.375 1134
-117.188 265.625 948
210.938 359.375 1067
-320.312 62.5 862
-421.875 -54.6875 920
-273.438 289.062 1047
31.25 382.812 1138
-351.562 62.5 858
132.812 -78.125 1185
-468.75 -15.625 871
156.25 375 1105
109.375 -78.125 1185
-46.875 382.812 1138
46.875 -85.9375 1197
140.625 390.625 1134
-125 265.625 946
62.5 -250 1050
0 281.25 948
7.8125 414.062 1387
-210.938 375 1288
210.938 296.875 951
-226.562 62.5 1087
-39.0625 359.375 1041
-390.625 -109.375 933
-179.688 257.812 948
101.562 414.062 1404
328.125 304.688 948
-164.062 359.375 1134
-203.125 382.812 1288
-242.188 250 946
-500 226.562 948
-117.188 164.062 1019
23.4375 406.25 1410
-445.312 -312.5 1022
-429.688 414.062 1452
-273.438 164.062 935
85.9375 390.625 1141
132.812 390.625 1138
-445.312 -390.625 3010
-31.25 359.375 1041
-335.938 242.188 943
93.75 -468.75 2835
-265.625 257.812 943
-101.562 -375 3064
-164.062 -343.75 3120
-148.438 343.75 1115
-375 54.6875 864
234.375 -195.312 2859
-15.625 406.25 1392
62.5 367.188 1044
109.375 -195.312 1084
187.5 -156.25 1123
-15.625 -406.25 1001
-242.188 320.312 1101
-359.375 203.125 962
-500 -304.688 984
-85.9375 398.438 1387
93.75 390.625 1141
-343.75 -351.562 3120
-359.375 281.25 1503
-398.438 46.875 867
-125 375 1349
-484.375 39.0625 864
-492.188 382.812 1470
-234.375 250 946
-218.75 375 1259
-46.875 335.938 1077
-343.75 54.6875 867
367.188 304.688 951
-406.25 -390.625 3037
335.938 -320.312 3064
187.5 -468.75 2789
39.0625 382.812 1138
226.562 -195.312 2859
-414.062 -70.3125 925
-187.5 -85.9375 1181
85.9375 289.062 946
0 343.75 1038
-187.5 335.938 1112
-351.562 289.062 1496
-289.062 250 943
-109.375 -375 3064
-203.125 -140.625 1050
-164.062 382.812 1415
109.375 289.062 948
-203.125 437.5 1421
-70.3125 359.375 1038
-484.375 156.25 978
-359.375 54.6875 864
-328.125 242.188 943
-406.25 -132.812 1016
-15.625 359.375 1038
125 421.875 1415
-437.5 -390.625 2958
351.562 304.688 951
351.562 304.688 951
289.062 -93.75 1297
476.562 -296.875 3010
-179.688 437.5 1483
-421.875 -78.125 923
93.75 -242.188 1050
140.625 -460.938 2812
-468.75 -390.625 3010
-375 -390.625 3037
-23.4375 -93.75 1227
-148.438 367.188 1134
-62.5 375 1134
-46.875 398.438 1404
-7.8125 -109.375 1193
132.812 -390.625 987
265.625 -289.062 3178
289.062 -187.5 2933
-437.5 -351.562 3064
-468.75 382.812 1470
-414.062 -390.625 3010
-39.0625 -289.062 1050
-421.875 62.5 856
-453.125 39.0625 869
140.625 -375 975
-335.938 296.875 1509
-289.062 296.875 1503
-289.062 -343.75 1259
101.562 390.625 1141
125 414.062 1415
-125 390.625 1349
125 289.062 951
187.5 296.875 948
164.062 -78.125 1193
156.25 -78.125 1197
445.312 -304.688 3010
187.5 -109.375 1157
46.875 382.812 1138
-328.125 -351.562 3120
15.625 406.25 1410
-460.938 -62.5 901
-289.062 132.812 894
101.562 -468.75 2812
-304.688 -351.562 3092
390.625 -312.5 2984
-351.562 242.188 946
-210.938 -343.75 3120
-335.938 54.6875 867
-476.562 39.0625 869
101.562 -78.125 1189
23.4375 406.25 1410
-445.312 -257.812 978
-62.5 406.25 1376
7.8125 281.25 948
-429.688 54.6875 862
-140.625 -375 3092
-453.125 -351.562 3064
7.8125 382.812 1138
343.75 -320.312 3037
-281.25 -343.75 1259
-390.625 296.875 1509
46.875 367.188 1041
125 70.3125 1007
-414.062 226.562 943
7.8125 -93.75 1202
468.75 -296.875 3010
-296.875 -351.562 3092
46.875 -390.625 975
-468.75 39.0625 869
-39.0625 -281.25 1057
70.3125 367.188 1108
429.688 -304.688 3037
-195.312 -343.75 3149
15.625 -93.75 1197
-46.875 -62.5 1214
-93.75 375 1134
-148.438 257.812 951
-460.938 296.875 1579
109.375 414.062 1415
-195.312 -54.6875 1134
-335.938 70.3125 856
179.688 375 1101
-132.812 343.75 1112
-218.75 250 946
-421.875 46.875 867
-148.438 382.812 1354
-453.125 -70.3125 906
-7.8125 406.25 1392
-453.125 46.875 864
-218.75 31.25 1115
148.438 -375 978
-257.812 429.688 1477
281.25 343.75 951
-54.6875 -101.562 1250
-125 375 1349
70.3125 -242.188 1054
-390.625 -62.5 910
312.5 -23.4375 1223
7.8125 -85.9375 1210
179.688 -117.188 1153
289.062 -328.125 3064
-109.375 390.625 1343
164.062 -132.812 1138
-468.75 -281.25 1044
-234.375 -125 1022
281.25 -187.5 2908
265.625 -281.25 3178
-242.188 93.75 998
23.4375 203.125 1001
234.375 414.062 1157
101.562 289.062 948
-195.312 335.938 1115
-429.688 -390.625 2984
15.625 -398.438 981
-187.5 -343.75 3149
-328.125 78.125 851
54.6875 382.812 1138
101.562 -257.812 1034
195.312 -171.875 1108
-437.5 -125 918
-164.062 -101.562 1250
-46.875 -187.5 1141
15.625 382.812 1138
109.375 -382.812 975
-171.875 382.812 1410
54.6875 390.625 1138
-23.4375 375 1138
-250 -382.812 3064
-476.562 46.875 862
-195.312 -382.812 3064
-453.125 250 1616
125 390.625 1138
-226.562 -382.812 3010
-109.375 398.438 1343
-78.125 390.625 1415
375 304.688 954
-367.188 54.6875 864
-398.438 398.438 1477
54.6875 367.188 1044
-414.062 398.438 1477
218.75 -367.188 984
-289.062 250 943
210.938 31.25 1161
-218.75 -23.4375 1105
-328.125 250 946
-70.3125 398.438 1387
-203.125 -132.812 1050
117.188 -375 967
-164.062 -375 3092
156.25 -453.125 2744
7.8125 343.75 1038
-492.188 226.562 943
414.062 -304.688 3037
78.125 -78.125 1193
-406.25 226.562 946
31.25 -85.9375 1197
398.438 195.312 1034
-132.812 390.625 1349
-78.125 367.188 1134
-15.625 -101.562 1202
-281.25 250 943
-23.4375 -101.562 1206
-93.75 367.188 1134
78.125 367.188 1108
23.4375 -85.9375 1202
250 304.688 948
-453.125 -320.312 1236
-414.062 46.875 867
15.625 281.25 948
-375 70.3125 856
-437.5 218.75 946
117.188 421.875 1387
-484.375 -101.562 928
-31.25 375 1138
-203.125 -148.438 1070
-367.188 -390.625 3010
109.375 -70.3125 1202
-39.0625 -109.375 1210
109.375 -250 1041
78.125 414.062 1392
-218.75 23.4375 1119
-78.125 398.438 1387
-93.75 -375 3092
93.75 156.25 1041
-46.875 398.438 1404
0 359.375 1041
132.812 414.062 1415
-218.75 -382.812 3010
140.625 375 1108
-179.688 335.938 1108
-476.562 210.938 948
-62.5 335.938 1080
-492.188 234.375 943
-359.375 234.375 946
390.625 312.5 951
-234.375 -382.812 3064
117.188 132.812 1025
-484.375 -328.125 1250
140.625 390.625 1134
-54.6875 375 1134
-234.375 93.75 1063
421.875 -289.062 3064
-250 156.25 1010
304.688 70.3125 1134
-453.125 -101.562 920
-351.562 312.5 1470
-31.25 382.812 1138
-273.438 257.812 943
46.875 -406.25 995
-179.688 390.625 1387
85.9375 367.188 1105
-445.312 -101.562 920
-328.125 54.6875 867
-242.188 125 1034
-492.188 -23.4375 880
-273.438 -343.75 1259
-460.938 -359.375 3037
132.812 -70.3125 1197
-93.75 -93.75 1245
-492.188 -93.75 928
242.188 -195.312 2933
-62.5 273.438 946
-257.812 289.062 1047
-359.375 320.312 1509
78.125 125 1063
140.625 414.062 1392
-15.625 273.438 951
-296.875 -382.812 3064
171.875 375 1105
23.4375 -398.438 984
-242.188 289.062 1047
484.375 -296.875 2723
187.5 15.625 1169
-85.9375 -375 3092
-500 -382.812 995
46.875 382.812 1138
-171.875 -101.562 1250
-125 351.562 1123
-39.0625 398.438 1410
-445.312 218.75 943
148.438 -460.938 2812
-367.188 234.375 946
-320.312 -351.562 3120
0 406.25 1392
-101.562 265.625 948
-140.625 367.188 1134
-7.8125 359.375 1038
-320.312 242.188 943
398.438 -312.5 3037
-234.375 304.688 1077
257.812 375 1084
-382.812 304.688 1509
-359.375 -101.562 984
109.375 390.625 1141
-328.125 242.188 943
-468.75 273.438 1616
-437.5 390.625 1477
-85.9375 390.625 1410
93.75 -70.3125 1202
62.5 390.625 1134
62.5 367.188 1044
125 414.062 1415
-101.562 398.438 1349
-164.062 382.812 1415
-257.812 156.25 948
-187.5 -382.812 3010
-109.375 265.625 948
-156.25 390.625 1387
-414.062 234.375 946
101.562 -382.812 973
-218.75 359.375 1138
-148.438 367.188 1134
-312.5 54.6875 871
-265.625 273.438 948
-429.688 210.938 948
140.625 -375 975
93.75 -382.812 973
-265.625 242.188 943
31.25 390.625 1138
-210.938 250 948
-500 281.25 1328
-398.438 -390.625 3010
-312.5 -351.562 3120
-367.188 273.438 1503
39.0625 406.25 1410
-320.312 54.6875 867
0 -78.125 1227
265.625 367.188 1070
0 15.625 1149
351.562 -132.812 1338
-312.5 62.5 862
78.125 -70.3125 1202
-390.625 265.625 1550
-117.188 351.562 1119
-304.688 -351.562 3092
-421.875 -390.625 3010
54.6875 351.562 1044
328.125 -179.688 2908
-382.812 -140.625 1025
93.75 -398.438 992
-101.562 390.625 1349
-46.875 -164.062 1165
148.438 7.8125 1169
-460.938 -109.375 920
-218.75 15.625 1130
179.688 296.875 951
15.625 343.75 1038
-23.4375 375 1138
85.9375 -398.438 989
-445.312 39.0625 873
93.75 289.062 948
54.6875 382.812 1138
62.5 382.812 1134
-156.25 257.812 948
-46.875 406.25 1536
-429.688 -85.9375 920
101.562 -257.812 1034
117.188 -70.3125 1197
-437.5 39.0625 873
-289.062 -351.562 3120
-46.875 375 1138
-359.375 281.25 1503
351.562 351.562 1853
-23.4375 359.375 1038
-164.062 390.625 1381
46.875 351.562 1041
101.562 -250 1041
-156.25 382.812 1387
-429.688 -125 918
-375 -70.3125 951
-187.5 -343.75 3149
-15.625 375 1041
-289.062 93.75 869
148.438 -78.125 1193
-390.625 -132.812 1019
85.9375 414.062 1398
23.4375 343.75 1077
250 -195.312 2933
-273.438 156.25 933
382.812 304.688 954
304.688 -93.75 1297
31.25 414.062 1392
296.875 -328.125 3037
-46.875 -195.312 1134
-226.562 250 946
0 -93.75 1206
-125 390.625 1349
351.562 -320.312 3010
-164.062 359.375 1134
296.875 328.125 948
-39.0625 -273.438 1063
78.125 -15.625 1181
-289.062 296.875 1503
-273.438 242.188 946
23.4375 382.812 1138
-281.25 -351.562 3120
85.9375 15.625 1153
-406.25 -62.5 915
-250 85.9375 998
-187.5 335.938 1112
320.312 -179.688 2908
78.125 -382.812 970
-429.688 226.562 946
-15.625 -93.75 1214
-179.688 -132.812 1223
-257.812 164.062 948
39.0625 414.062 1392
195.312 375 1101
70.3125 -250 1050
39.0625 -85.9375 1197
46.875 343.75 1057
-476.562 0 878
93.75 -78.125 1189
46.875 406.25 1415
-156.25 343.75 1115
-281.25 250 943
-500 -289.062 992
-359.375 226.562 946
101.562 -70.3125 1202
-54.6875 437.5 1489
359.375 304.688 951
140.625 78.125 1004
343.75 -156.25 1381
-367.188 70.3125 856
-148.438 343.75 1115
-31.25 398.438 1415
85.9375 -78.125 1189
-390.625 -78.125 948
359.375 23.4375 1185
-484.375 -265.625 1057
-109.375 -7.8125 1157
-273.438 -351.562 3092
-437.5 328.125 1543
289.062 -265.625 3178
257.812 -257.812 3149
109.375 -54.6875 1219
156.25 -70.3125 1202
7.8125 359.375 1041
23.4375 281.25 948
-85.9375 367.188 1134
-367.188 265.625 1509
-328.125 359.375 1509
85.9375 -54.6875 1219
109.375 -468.75 2812
-109.375 375 1354
140.625 -78.125 1185
-156.25 -195.312 1302
-187.5 156.25 1019
171.875 7.8125 1173
70.3125 382.812 1134
-125 359.375 1130
320.312 312.5 946
289.062 -85.9375 1292
296.875 -187.5 2933
-242.188 281.25 948
-117.188 375 1349
-93.75 390.625 1349
-351.562 -390.625 3037
-109.375 390.625 1343
-445.312 312.5 1543
31.25 382.812 1138
-390.625 54.6875 864
-132.812 382.812 1349
-187.5 359.375 1141
70.3125 367.188 1108
-500 31.25 862
-437.5 -39.0625 910
70.3125 -390.625 981
312.5 -140.625 1359
-390.625 -140.625 1025
-265.625 148.438 951
156.25 -375 978
-320.312 242.188 943
85.9375 -15.625 1181
132.812 -78.125 1185
-250 242.188 948
78.125 -242.188 1050
85.9375 367.188 1105
-351.562 -343.75 1268
7.8125 406.25 1415
54.6875 -78.125 1202
46.875 -85.9375 1197
-125 -242.188 2908
-148.438 390.625 1349
62.5 -390.625 978
187.5 117.188 1084
-382.812 195.312 964
-78.125 -375 3037
-140.625 -343.75 3149
-62.5 328.125 1063
-468.75 -359.375 3037
-46.875 -125 1197
-210.938 -382.812 3092
-406.25 -132.812 1016
-343.75 296.875 1496
78.125 367.188 1108
-101.562 390.625 1349
125 445.312 1381
-78.125 375 1134
-62.5 -46.875 1197
-46.875 -171.875 1153
-468.75 39.0625 869
164.062 -375 978
234.375 -257.812 3149
-304.688 195.312 970
-429.688 257.812 1624
-484.375 39.0625 864
-320.312 78.125 851
-281.25 15.625 901
46.875 414.062 1387
23.4375 15.625 1153
-296.875 -351.562 3092
-460.938 -93.75 928
195.312 -367.188 978
-351.562 54.6875 867
-117.188 -375 3092
-132.812 62.5 1097
-484.375 62.5 858
-320.312 62.5 862
-265.625 140.625 962
-343.75 257.812 954
257.812 -156.25 1376
-179.688 382.812 1387
39.0625 406.25 1410
140.625 414.062 1392
-78.125 367.188 1134
-31.25 -85.9375 1241
54.6875 -390.625 978
-351.562 265.625 956
257.812 -335.938 3064
-460.938 -390.625 3010
320.312 -281.25 3178
31.25 406.25 1410
78.125 257.812 967
-226.562 54.6875 1090
109.375 -78.125 1185
421.875 -304.688 3037
132.812 421.875 1398
62.5 382.812 1134
-234.375 398.438 1312
-453.125 -390.625 2958
-242.188 257.812 943
-101.562 0 1153
-437.5 242.188 951
234.375 -93.75 1292
164.062 -70.3125 1197
-468.75 -328.125 1255
70.3125 390.625 1134
-46.875 -132.812 1189
-242.188 257.812 943
70.3125 -54.6875 1219
-226.562 335.938 1126
-429.688 335.938 1543
132.812 414.062 1415
-296.875 109.375 873
-203.125 390.625 1307
453.125 -304.688 3010
289.062 -187.5 2933
-406.25 -257.812 1153
-39.0625 -281.25 1057
-242.188 101.562 1050
-140.625 367.188 1134
-78.125 171.875 1016
195.312 -468.75 2789
101.562 -468.75 2812
31.25 343.75 1073
85.9375 -265.625 1028
-328.125 62.5 862
-398.438 281.25 1523
-179.688 -382.812 3010
-265.625 265.625 948
-39.0625 -265.625 1073
453.125 343.75 1873
-312.5 281.25 1529
-468.75 -70.3125 908
148.438 375 1108
226.562 -156.25 1365
-335.938 296.875 1509
-148.438 296.875 951
-468.75 210.938 946
-406.25 46.875 867
-171.875 335.938 1105
-148.438 359.375 1134
-7.8125 -101.562 1202
-39.0625 -78.125 1227
328.125 -46.875 1250
93.75 31.25 1141
171.875 -375 978
-492.188 7.8125 891
375 78.125 1134
226.562 -85.9375 1283
-468.75 171.875 970
-460.938 39.0625 869
-148.438 382.812 1354
343.75 -171.875 2859
-210.938 398.438 1322
-54.6875 -171.875 1165
-304.688 54.6875 867
117.188 -468.75 2812
125 7.8125 1165
-187.5 351.562 1134
70.3125 -62.5 1223
-62.5 367.188 1130
-156.25 382.812 1387
375 -312.5 3037
335.938 -31.25 1236
-265.625 156.25 948
-289.062 320.312 1483
-39.0625 375 1141
-62.5 398.438 1410
101.562 -257.812 1034
351.562 -117.188 1333
-195.312 414.062 1370
93.75 -250 1047
-7.8125 -406.25 998
-328.125 296.875 1509
54.6875 406.25 1415
203.125 296.875 951
70.3125 382.812 1134
218.75 70.3125 1126
-265.625 -351.562 3120
70.3125 117.188 1070
296.875 -85.9375 1292
78.125 -265.625 1034
156.25 -460.938 2744
234.375 -195.312 2859
39.0625 281.25 948
-312.5 242.188 943
-500 203.125 946
-117.188 390.625 1343
-398.438 62.5 858
187.5 -140.625 1134
-421.875 -93.75 915
85.9375 367.188 1105
-203.125 367.188 1328
15.625 -85.9375 1210
-125 367.188 1130
-257.812 -54.6875 956
-382.812 218.75 948
492.188 -296.875 2723
-445.312 -93.75 925
437.5 -304.688 3010
-31.25 273.438 948
250 -195.312 2933
-460.938 -54.6875 901
78.125 382.812 1134
93.75 15.625 1157
-46.875 -148.438 1173
-406.25 257.812 1543
-414.062 -46.875 923
101.562 132.812 1031
-171.875 382.812 1410
-93.75 -101.562 1250
-78.125 359.375 1126
101.562 367.188 1097
-429.688 218.75 946
-54.6875 195.312 1001
195.312 132.812 1073
-429.688 -46.875 915
0 -85.9375 1214
-195.312 421.875 1381
54.6875 -85.9375 1197
156.25 117.188 1041
101.562 -78.125 1189
-398.438 421.875 1458
-31.25 398.438 1415
257.812 -195.312 2933
15.625 359.375 1041
109.375 414.062 1415
-39.0625 -117.188 1197
-226.562 62.5 1087
-304.688 367.188 1509
343.75 -234.375 3064
-351.562 320.312 1470
-203.125 -7.8125 1149
23.4375 359.375 1038
-210.938 -70.3125 1119
-382.812 -351.562 3149
312.5 -187.5 2933
-203.125 429.688 1410
-289.062 85.9375 869
218.75 -453.125 2812
-234.375 -140.625 1034
-273.438 164.062 935
-437.5 -85.9375 923
93.75 125 1041
-414.062 46.875 867
-7.8125 375 1041
23.4375 -101.562 1185
-23.4375 335.938 1067
-7.8125 -93.75 1210
273.438 78.125 1123
-93.75 390.625 1349
-179.688 -117.188 1210
93.75 367.188 1105
343.75 -31.25 1236
-31.25 -109.375 1206
-23.4375 398.438 1415
-460.938 46.875 864
-359.375 -390.625 3010
351.562 -125 1338
148.438 -390.625 995
-117.188 375 1349
-125 343.75 1108
312.5 296.875 956
-54.6875 -132.812 1189
-273.438 -351.562 3092
164.062 109.375 1054
-257.812 -351.562 3120
-476.562 -281.25 1044
-93.75 265.625 946
-367.188 54.6875 864
-54.6875 257.812 956
-85.9375 -375 3092
15.625 406.25 1410
39.0625 382.812 1138
23.4375 414.062 1387
-500 -281.25 984
218.75 296.875 951
-468.75 312.5 1543
335.938 312.5 948
-117.188 -54.6875 1206
-328.125 -390.625 2984
390.625 -312.5 2984
156.25 -54.6875 1227
70.3125 -265.625 1034
-46.875 -164.062 1165
109.375 -382.812 975
85.9375 -62.5 1210
0 375 1041
39.0625 406.25 1410
-257.812 351.562 1130
140.625 390.625 1134
-226.562 70.3125 1084
140.625 -70.3125 1202
-414.062 -39.0625 930
-492.188 -273.438 973
-101.562 -375 3064
-171.875 335.938 1105
-39.0625 -273.438 1063
-351.562 62.5 858
93.75 -265.625 1028
62.5 406.25 1415
-148.438 390.625 1349
-39.0625 -226.562 1101
-234.375 296.875 1063
-242.188 132.812 1028
-343.75 54.6875 867
-289.062 296.875 1503
242.188 296.875 951
117.188 289.062 948
93.75 -468.75 2835
62.5 414.062 1387
125 -468.75 2812
-406.25 54.6875 862
-195.312 375 1349
-257.812 242.188 946
-476.562 -359.375 3064
-15.625 -171.875 1138
-171.875 -343.75 3120
62.5 -23.4375 1189
109.375 367.188 1097
132.812 390.625 1138
-203.125 421.875 1381
-398.438 -85.9375 938
-226.562 -343.75 3120
-148.438 343.75 1115
-460.938 -15.625 873
-359.375 -351.562 3092
-351.562 281.25 1523
-390.625 62.5 858
281.25 -328.125 3064
414.062 -312.5 3010
359.375 -320.312 3010
-453.125 -359.375 3064
117.188 -187.5 1090
117.188 -382.812 975
-31.25 375 1138
-7.8125 375 1041
-289.062 359.375 1509
-492.188 -328.125 975
-367.188 70.3125 856
-500 -273.438 973
-312.5 -390.625 3010
-109.375 375 1354
-304.688 -390.625 3010
-54.6875 398.438 1536
-148.438 382.812 1354
125 -78.125 1189
117.188 367.188 1097
-234.375 289.062 1047
-367.188 -390.625 3010
-39.0625 -234.375 1094
109.375 -250 1041
-179.688 -109.375 1193
-54.6875 328.125 1063
-296.875 62.5 862
-484.375 -312.5 1031
406.25 -312.5 3037
171.875 164.062 1044
-335.938 -390.625 3037
31.25 281.25 948
109.375 -257.812 1034
-210.938 390.625 1307
-429.688 -359.375 3037
-54.6875 351.562 1041
-375 117.188 885
-421.875 -359.375 3092
7.8125 359.375 1041
-93.75 398.438 1387
382.812 46.875 1157
-70.3125 -375 2984
-492.188 -54.6875 938
-78.125 375 1134
93.75 390.625 1141
-179.688 359.375 1141
62.5 320.312 951
343.75 -85.9375 1297
-46.875 -156.25 1165
-226.562 46.875 1044
265.625 -195.312 2933
171.875 289.062 954
-343.75 62.5 858
46.875 382.812 1138
23.4375 -93.75 1197
-117.188 148.438 1031
148.438 414.062 1288
-171.875 -382.812 3010
-445.312 -85.9375 923
-164.062 -343.75 3120
-164.062 437.5 1483
164.062 375 1108
0 -406.25 995
-273.438 250 943
-70.3125 304.688 946
-343.75 289.062 1516
-398.438 226.562 946
-445.312 320.312 1543
-500 -296.875 989
-164.062 335.938 1105
-117.188 -242.188 2958
-437.5 234.375 948
-468.75 -359.375 3037
78.125 -460.938 2835
-453.125 -109.375 920
93.75 109.375 1044
-210.938 7.8125 1141
-492.188 31.25 871
-85.9375 390.625 1410
-78.125 390.625 1415
-484.375 31.25 871
-445.312 203.125 948
-453.125 46.875 864
-460.938 234.375 951
78.125 -250 1047
109.375 -296.875 1001
-398.438 46.875 867
-195.312 -54.6875 1134
-476.562 -328.125 1250
-7.8125 -125 1181
54.6875 406.25 1415
-117.188 382.812 1349
-156.25 -382.812 3064
-500 203.125 946
-218.75 31.25 1115
-460.938 382.812 1477
-54.6875 273.438 946
62.5 -85.9375 1189
164.062 -85.9375 1185
-343.75 -390.625 3037
-390.625 46.875 869
-195.312 85.9375 1073
-445.312 250 1632
-437.5 218.75 946
78.125 -265.625 1034
-421.875 39.0625 871
85.9375 -257.812 1041
-109.375 390.625 1343
-195.312 -257.812 1165
-250 85.9375 998
85.9375 -242.188 1050
54.6875 281.25 948
85.9375 382.812 1126
-429.688 218.75 946
-406.25 46.875 867
226.562 296.875 951
171.875 -460.938 2812
304.688 -85.9375 1292
-164.062 -164.062 1283
-382.812 -351.562 3149
101.562 375 1119
-132.812 359.375 1134
-289.062 234.375 946
-460.938 210.938 946
-15.625 -101.562 1202
-312.5 242.188 943
-117.188 257.812 954
343.75 218.75 1016
70.3125 -78.125 1197
-70.3125 367.188 1130
-421.875 -125 918
-23.4375 273.438 951
117.188 414.062 1415
-187.5 -382.812 3010
-335.938 78.125 856
148.438 -78.125 1193
-78.125 367.188 1134
70.3125 406.25 1415
-421.875 -101.562 910
-171.875 359.375 1138
85.9375 -265.625 1028
-265.625 257.812 943
-203.125 -62.5 1153
-187.5 351.562 1134
15.625 -93.75 1197
117.188 -468.75 2812
-179.688 351.562 1134
-375 218.75 948
-328.125 296.875 1509
-164.062 382.812 1415
-257.812 117.188 978
-218.75 328.125 1112
-23.4375 398.438 1415
-406.25 218.75 946
-414.062 210.938 946
-39.0625 -257.812 1073
140.625 -78.125 1185
-54.6875 351.562 1041
46.875 -203.125 1087
46.875 281.25 951
-437.5 -132.812 918
23.4375 406.25 1410
93.75 382.812 1126
7.8125 -398.438 984
85.9375 390.625 1141
-93.75 367.188 1134
54.6875 414.062 1392
-437.5 -210.938 1028
125 85.9375 1004
0 398.438 1415
-265.625 164.062 948
265.625 -335.938 3064
7.8125 375 1041
-359.375 234.375 946
351.562 312.5 946
-62.5 367.188 1130
273.438 375 1067
-414.062 -54.6875 923
132.812 -78.125 1185
367.188 296.875 959
-242.188 257.812 943
-62.5 351.562 1044
-109.375 -242.188 2958
398.438 -312.5 3037
414.062 281.25 970
-406.25 -359.375 3092
250 296.875 956
-265.625 250 943
39.0625 -78.125 1202
-7.8125 335.938 1063
289.062 -39.0625 1241
156.25 -460.938 2744
203.125 -367.188 978
343.75 -320.312 3037
-171.875 335.938 1105
101.562 390.625 1141
125 62.5 1007
265.625 -54.6875 1250
484.375 -296.875 2723
460.938 -304.688 3010
-218.75 -109.375 1016
148.438 289.062 951
-164.062 -171.875 1283
-468.75 -101.562 928
-250 78.125 1010
-375 54.6875 864
-62.5 375 1134
-210.938 328.125 1108
-250 -78.125 975
62.5 -257.812 1047
187.5 375 1101
-390.625 -93.75 946
187.5 -132.812 1145
70.3125 -85.9375 1185
-335.938 54.6875 867
218.75 -460.938 2789
-140.625 382.812 1349
-109.375 -367.188 3092
70.3125 -265.625 1034
-171.875 -140.625 1232
-195.312 375 1349
-296.875 -390.625 3064
-421.875 -70.3125 923
-23.4375 375 1138
39.0625 -62.5 1223
31.25 -398.438 984
140.625 -179.688 1094
-289.062 421.875 1477
-445.312 296.875 1557
140.625 289.062 951
-78.125 359.375 1126
179.688 -460.938 2789
-289.062 -390.625 3037
-468.75 210.938 946
-343.75 234.375 943
-375 78.125 856
-453.125 39.0625 869
250 382.812 1105
-250 -351.562 3092
-375 -351.562 3092
203.125 -460.938 2789
-187.5 382.812 1392
15.625 375 1041
109.375 367.188 1097
257.812 -54.6875 1250
54.6875 328.125 1044
-242.188 62.5 1010
-179.688 -382.812 3010
31.25 406.25 1410
-484.375 375 1477
125 367.188 1094
-117.188 343.75 1112
429.688 -304.688 3037
-156.25 437.5 1483
-320.312 -390.625 3010
0 335.938 1067
-70.3125 265.625 948
414.062 273.438 975
-351.562 234.375 946
-414.062 -85.9375 920
-203.125 -343.75 3149
-132.812 367.188 1134
-281.25 117.188 891
-218.75 39.0625 1105
0 -398.438 987
-468.75 -250 964
31.25 359.375 1038
-414.062 -359.375 3092
132.812 414.062 1415
265.625 -195.312 2933
179.688 -375 981
-242.188 273.438 948
-7.8125 -398.438 987
101.562 382.812 1126
468.75 -304.688 2984
-140.625 125 1047
328.125 296.875 956
-421.875 218.75 943
-187.5 437.5 1483
-46.875 273.438 946
-242.188 242.188 951
-289.062 117.188 885
-203.125 250 948
-351.562 78.125 856
125 -382.812 978
-234.375 312.5 1087
359.375 296.875 956
132.812 -468.75 2812
-445.312 -359.375 3064
-46.875 -171.875 1153
-171.875 351.562 1130
-320.312 296.875 1509
78.125 406.25 1415
-367.188 -351.562 3092
359.375 312.5 946
-476.562 265.625 1601
132.812 -382.812 978
-85.9375 398.438 1387
101.562 -359.375 959
-437.5 54.6875 862
-7.8125 398.438 1415
-492.188 54.6875 860
-500 31.25 862
-15.625 359.375 1038
54.6875 382.812 1138
-125 359.375 1130
320.312 -328.125 3037
156.25 289.062 954
367.188 312.5 946
-500 78.125 871
-78.125 -375 3037
-234.375 242.188 951
78.125 -390.625 978
-164.062 335.938 1105
-382.812 -390.625 3064
-140.625 390.625 1349
-257.812 -351.562 3120
117.188 367.188 1097
320.312 -187.5 2933
39.0625 -398.438 984
-390.625 54.6875 864
-429.688 -125 918
109.375 -257.812 1034
132.812 367.188 1094
-304.688 242.188 943
-70.3125 390.625 1410
195.312 93.75 1105
-101.562 351.562 1119
-187.5 375 1415
-210.938 382.812 1288
164.062 -460.938 2789
93.75 390.625 1141
-218.75 351.562 1138
70.3125 414.062 1415
-132.812 351.562 1123
-406.25 -140.625 1022
-382.812 -140.625 1025
-195.312 398.438 1387
351.562 -140.625 1359
351.562 -132.812 1338
0 -101.562 1197
-156.25 351.562 1130
-85.9375 390.625 1410
-265.625 156.25 948
-281.25 234.375 948
-273.438 171.875 940
-31.25 -101.562 1219
125 -468.75 2812
-156.25 335.938 1105
-23.4375 -109.375 1197
359.375 -101.562 1307
-234.375 -351.562 3092
-492.188 -39.0625 880
-132.812 382.812 1349
-500 218.75 948
-460.938 -359.375 3037
-453.125 -359.375 3064
85.9375 -250 1047
242.188 -195.312 2933
203.125 23.4375 1169
-343.75 234.375 943
85.9375 406.25 1398
-382.812 226.562 943
109.375 382.812 1126
-54.6875 195.312 1001
-273.438 148.438 930
-367.188 218.75 948
343.75 -179.688 2883
-398.438 -101.562 930
-429.688 179.688 967
62.5 414.062 1387
39.0625 343.75 1073
39.0625 359.375 1041
-476.562 -359.375 3064
-468.75 46.875 864
-437.5 -226.562 1010
148.438 382.812 1126
-484.375 -101.562 928
-125 -242.188 2908
-195.312 429.688 1410
-281.25 148.438 918
125 156.25 1044
-492.188 203.125 948
-218.75 -351.562 3120
-351.562 257.812 956
70.3125 -250 1050
-226.562 7.8125 1080
-85.9375 265.625 946
-453.125 210.938 943
62.5 382.812 1134
-375 257.812 951
382.812 39.0625 1165
148.438 -375 978
23.4375 -398.438 984
140.625 78.125 1004
-234.375 289.062 1047
-132.812 -375 3064
-296.875 242.188 943
93.75 382.812 1126
-437.5 -101.562 913
-359.375 78.125 854
-406.25 179.688 973
-164.062 210.938 978
-359.375 70.3125 856
-78.125 390.625 1415
-250 273.438 954
70.3125 406.25 1415
85.9375 -85.9375 1185
-234.375 304.688 1077
-109.375 390.625 1343
-445.312 -125 918
-15.625 398.438 1415
-171.875 437.5 1483
281.25 -195.312 2933
7.8125 -85.9375 1210
-429.688 -359.375 3037
195.312 -250 1038
-460.938 273.438 1601
-132.812 390.625 1349
-23.4375 335.938 1067
-101.562 -242.188 2958
-78.125 265.625 946
-62.5 367.188 1130
-70.3125 -367.188 3064
312.5 -187.5 2933
-390.625 312.5 1503
335.938 -93.75 1302
273.438 -39.0625 1236
-437.5 70.3125 858
-15.625 375 1041
109.375 -265.625 1025
-7.8125 -101.562 1202
78.125 414.062 1392
-39.0625 398.438 1410
-468.75 -359.375 3037
-351.562 46.875 873
-46.875 -164.062 1165
-203.125 -31.25 1115
-39.0625 -117.188 1197
-265.625 265.625 948
406.25 195.312 1034
273.438 -335.938 3064
7.8125 375 1041
-468.75 242.188 951
78.125 -78.125 1193
-195.312 382.812 1349
93.75 -250 1047
-445.312 39.0625 873
-39.0625 -265.625 1073
54.6875 312.5 951
-234.375 93.75 1063
-85.9375 320.312 1054
-406.25 164.062 948
-164.062 375 1415
156.25 -375 978
-62.5 312.5 1034
-226.562 -351.562 3092
289.062 296.875 954
-7.8125 398.438 1415
-359.375 242.188 946
-156.25 382.812 1387
-117.188 156.25 1025
-328.125 296.875 1509
-460.938 210.938 946
-101.562 390.625 1349
-39.0625 -250 1077
-179.688 375 1415
-273.438 421.875 1477
78.125 -23.4375 1189
-54.6875 367.188 1130
-273.438 -23.4375 930
-132.812 367.188 1134
179.688 125 1080
54.6875 -398.438 987
195.312 -375 987
93.75 367.188 1105
117.188 390.625 1141
7.8125 382.812 1138
-289.062 78.125 869
78.125 390.625 1141
-210.938 -343.75 3120
-54.6875 -93.75 1245
414.062 -312.5 3010
125 367.188 1094
-226.562 -343.75 3120
93.75 -265.625 1028
-140.625 257.812 951
-304.688 273.438 951
-445.312 -39.0625 906
62.5 -257.812 1047
148.438 -70.3125 1206
46.875 359.375 1041
148.438 78.125 1001
23.4375 375 1041
148.438 367.188 1090
-171.875 359.375 1138
62.5 -390.625 978
-39.0625 351.562 1041
-390.625 -359.375 3064
187.5 -367.188 975
39.0625 406.25 1410
140.625 414.062 1392
-242.188 -351.562 3092
31.25 -85.9375 1197
-460.938 -328.125 1255
-398.438 -62.5 910
-398.438 54.6875 862
-46.875 -109.375 1210
406.25 187.5 1038
492.188 -296.875 2723
210.938 437.5 1219
140.625 367.188 1090
15.625 382.812 1138
-171.875 351.562 1130
-312.5 -390.625 3010
109.375 390.625 1141
390.625 85.9375 1130
101.562 382.812 1126
257.812 62.5 1134
78.125 406.25 1415
-406.25 46.875 867
273.438 -195.312 2933
-492.188 265.625 1322
-500 -289.062 992
203.125 -210.938 1070
23.4375 203.125 1001
226.562 -289.062 1004
273.438 -328.125 3064
93.75 -242.188 1050
-429.688 39.0625 873
-218.75 -328.125 1259
218.75 -203.125 2883
-210.938 -31.25 1115
85.9375 406.25 1398
359.375 -62.5 1268
109.375 382.812 1126
-156.25 390.625 1387
-382.812 -359.375 3120
328.125 -187.5 2933
-140.625 382.812 1349
-414.062 46.875 867
15.625 335.938 1063
132.812 367.188 1094
-484.375 203.125 948
-156.25 -382.812 3064
-453.125 -54.6875 901
-46.875 171.875 1019
-187.5 351.562 1134
-421.875 -359.375 3092
-296.875 296.875 1503
62.5 -78.125 1202
-351.562 281.25 1523
-187.5 -257.812 1165
-289.062 351.562 1523
-406.25 -359.375 3092
-234.375 101.562 1057
54.6875 335.938 1054
-390.625 46.875 869
-265.625 304.688 1073
-109.375 -125 1278
46.875 375 1041
195.312 23.4375 1165
-15.625 273.438 951
-46.875 351.562 1041
-140.625 -125 1273
-164.062 140.625 1034
-320.312 296.875 1509
54.6875 375 1044
-156.25 335.938 1105
-195.312 -343.75 3149
-320.312 242.188 943
-375 46.875 867
0 273.438 951
-203.125 328.125 1108
421.875 -312.5 3010
-31.25 351.562 1038
31.25 375 1041
-187.5 375 1415
-7.8125 273.438 948
-54.6875 375 1134
15.625 375 1041
0 398.438 1415
-289.062 242.188 943
-414.062 218.75 943
-273.438 -390.625 3037
-492.188 31.25 871
-304.688 296.875 1509
-437.5 62.5 858
-492.188 226.562 943
-179.688 218.75 973
-132.812 382.812 1349
70.3125 -85.9375 1185
304.688 296.875 954
-179.688 375 1415
-257.812 -70.3125 964
101.562 -250 1041
140.625 125 1028
-210.938 7.8125 1141
-195.312 250 951
101.562 -382.812 973
-195.312 -382.812 3064
31.25 359.375 1038
93.75 406.25 1398
218.75 -375 995
78.125 281.25 951
-54.6875 -46.875 1197
226.562 -203.125 2933
85.9375 -70.3125 1202
218.75 289.062 959
78.125 -85.9375 1185
-437.5 -257.812 989
304.688 312.5 946
62.5 -15.625 1181
-210.938 -7.8125 1097
-125 390.625 1349
31.25 335.938 1060
-500 -265.625 948
-46.875 -132.812 1189
101.562 414.062 1404
-414.062 -78.125 923
-460.938 -359.375 3037
257.812 -195.312 2933
132.812 -468.75 2812
-164.062 351.562 1130
-414.062 -125 920
-234.375 -351.562 3092
-382.812 398.438 1483
195.312 -171.875 1108
-93.75 -242.188 2984
-406.25 -39.0625 918
-328.125 187.5 975
62.5 -85.9375 1189
-242.188 132.812 1028
125 -460.938 2812
46.875 -78.125 1202
-7.8125 -70.3125 1232
-15.625 335.938 1063
-78.125 -46.875 1202
46.875 -414.062 1007
-85.9375 -242.188 2958
226.562 335.938 948
-343.75 195.312 967
-250 -93.75 987
-398.438 -39.0625 915
-500 164.062 951
-351.562 -351.562 3120
-218.75 398.438 1312
-218.75 343.75 1134
-7.8125 375 1041
-234.375 39.0625 1044
335.938 -187.5 2908
242.188 -156.25 1376
-164.062 359.375 1134
-226.562 70.3125 1084
273.438 351.562 1044
70.3125 -390.625 981
7.8125 -406.25 992
187.5 7.8125 1177
375 296.875 959
-46.875 -140.625 1181
-429.688 -406.25 2958
-117.188 -125 1278
-367.188 -351.562 3092
187.5 23.4375 1165
-46.875 -156.25 1165
15.625 -398.438 981
117.188 382.812 1123
-210.938 -117.188 1060
406.25 265.625 984
-437.5 -359.375 3064
-335.938 195.312 970
-125 -117.188 1268
-359.375 187.5 973
218.75 -460.938 2789
-179.688 382.812 1387
-23.4375 -359.375 987
85.9375 414.062 1398
-429.688 171.875 975
-226.562 367.188 1241
343.75 -164.062 1381
-281.25 359.375 1516
-492.188 -273.438 973
-125 382.812 1349
-445.312 -351.562 3064
156.25 367.188 1090
-335.938 -398.438 3010
93.75 101.562 1050
93.75 -85.9375 1181
242.188 304.688 948
-148.438 335.938 1105
-304.688 328.125 1489
-257.812 -390.625 3037
62.5 -265.625 1038
-70.3125 390.625 1410
140.625 156.25 1050
-203.125 -343.75 3149
382.812 23.4375 1185
-312.5 296.875 1509
78.125 -351.562 967
15.625 -70.3125 1227
125 382.812 1123
328.125 -140.625 1365
390.625 -250 3092
-210.938 -132.812 1050
-257.812 164.062 948
421.875 -265.625 3092
109.375 -78.125 1185
-296.875 85.9375 858
-46.875 367.188 1041
-375 -359.375 3092
-203.125 -23.4375 1112
31.25 382.812 1138
85.9375 -78.125 1189
117.188 -257.812 1031
-328.125 -351.562 3120
218.75 -367.188 984
101.562 -23.4375 1193
-31.25 -93.75 1232
-62.5 351.562 1044
-351.562 -390.625 3037
-39.0625 -257.812 1073
187.5 -375 987
7.8125 -375 973
39.0625 375 1041
-101.562 382.812 1349
-250 148.438 1013
23.4375 382.812 1138
85.9375 406.25 1398
359.375 -320.312 3010
0 -70.3125 1232
-312.5 -351.562 3120
351.562 -320.312 3010
-195.312 -46.875 1134
46.875 359.375 1041
-437.5 39.0625 873
-328.125 54.6875 867
-7.8125 335.938 1063
-15.625 -109.375 1193
-226.562 -351.562 3092
-210.938 -351.562 3149
-125 54.6875 1105
23.4375 -93.75 1197
-320.312 54.6875 867
-109.375 -343.75 3149
39.0625 359.375 1041
85.9375 -390.625 978
132.812 367.188 1094
-187.5 -343.75 3149
-187.5 250 951
140.625 -468.75 2789
-62.5 390.625 1410
101.562 406.25 1410
-453.125 -359.375 3064
-31.25 398.438 1415
70.3125 382.812 1134
54.6875 406.25 1415
-281.25 320.312 1523
-281.25 320.312 1523
-234.375 281.25 951
-421.875 54.6875 862
0 398.438 1415
23.4375 375 1041
-500 -54.6875 930
46.875 -85.9375 1197
-140.625 -382.812 3064
-39.0625 -70.3125 1223
78.125 -265.625 1034
-390.625 320.312 1509
93.75 -265.625 1028
-453.125 210.938 943
273.438 62.5 1141
-437.5 265.625 1594
367.188 -70.3125 1283
-390.625 179.688 975
-320.312 62.5 862
-132.812 -382.812 3064
85.9375 281.25 954
-492.188 203.125 948
54.6875 359.375 1041
62.5 359.375 1041
-46.875 -148.438 1173
125 -85.9375 1181
-476.562 -7.8125 873
-164.062 -7.8125 1153
-7.8125 398.438 1415
31.25 -78.125 1206
-281.25 -390.625 3037
-281.25 140.625 910
-382.812 -78.125 951
132.812 382.812 1123
-429.688 -132.812 918
-492.188 281.25 1328
148.438 -382.812 984
39.0625 -70.3125 1223
70.3125 281.25 948
31.25 -93.75 1193
-460.938 -289.062 1031
-218.75 -351.562 3120
101.562 -265.625 1028
-125 257.812 954
351.562 -148.438 1354
7.8125 398.438 1415
-312.5 54.6875 871
93.75 -203.125 1080
-125 -289.062 3092
0 -93.75 1206
109.375 -70.3125 1202
-7.8125 109.375 1073
-250 93.75 998
312.5 -39.0625 1241
-359.375 273.438 1509
-414.062 -359.375 3092
46.875 406.25 1415
-351.562 -359.375 3120
-320.312 203.125 964
15.625 398.438 1415
-125 367.188 1130
46.875 335.938 1054
492.188 171.875 2129
-179.688 375 1415
109.375 406.25 1415
-203.125 375 1288
70.3125 312.5 948
31.25 375 1041
-109.375 382.812 1349
-164.062 -382.812 3064
-242.188 265.625 946
-320.312 -351.562 3120
-382.812 46.875 869
406.25 -250 3149
-375 54.6875 864
-406.25 39.0625 873
-335.938 54.6875 867
-109.375 343.75 1108
-343.75 46.875 873
148.438 367.188 1090
406.25 -242.188 3120
-31.25 -117.188 1202
0 375 1041
296.875 296.875 954
-453.125 39.0625 869
-429.688 -85.9375 920
-46.875 375 1138
-187.5 -78.125 1157
-234.375 296.875 1063
-156.25 359.375 1134
-296.875 242.188 943
-335.938 234.375 943
15.625 -140.625 1153
125 -375 970
164.062 367.188 1094
39.0625 -93.75 1193
-148.438 382.812 1354
93.75 406.25 1398
-367.188 46.875 867
-343.75 -351.562 3120
-335.938 46.875 871
-289.062 242.188 943
375 -23.4375 1223
93.75 281.25 954
382.812 -320.312 3010
-23.4375 398.438 1415
-54.6875 390.625 1404
-23.4375 -101.562 1206
117.188 382.812 1123
85.9375 382.812 1126
70.3125 359.375 1094
-500 -265.625 948
-242.188 250 946
-289.062 70.3125 867
-23.4375 351.562 1038
-445.312 234.375 951
148.438 70.3125 1007
-421.875 218.75 943
-39.0625 -242.188 1087
39.0625 382.812 1138
468.75 -304.688 2984
-117.188 390.625 1343
335.938 296.875 956
-218.75 242.188 951
62.5 328.125 1041
-70.3125 398.438 1387
195.312 289.062 956
296.875 70.3125 1134
-312.5 296.875 1509
-281.25 289.062 1047
226.562 -203.125 2933
-437.5 -117.188 913
-492.188 -265.625 948
-351.562 281.25 1523
125 148.438 1038
281.25 -195.312 2933
-476.562 375 1477
-15.625 -242.188 1080
39.0625 335.938 1057
85.9375 -85.9375 1185
-242.188 281.25 948
-289.062 -390.625 3037
-445.312 210.938 943
-335.938 62.5 860
7.8125 -421.875 1025
0 335.938 1067
-171.875 382.812 1410
-85.9375 359.375 1126
-304.688 281.25 1529
390.625 70.3125 1141
-406.25 -140.625 1022
-125 382.812 1349
-304.688 -390.625 3010
-23.4375 -109.375 1197
-93.75 382.812 1349
-375 -390.625 3037
-343.75 179.688 940
-343.75 -359.375 3092
289.062 31.25 1173
343.75 -85.9375 1297
234.375 -203.125 2933
-78.125 398.438 1387
-484.375 31.25 871
296.875 -273.438 3178
210.938 23.4375 1165
-296.875 78.125 858
109.375 -257.812 1034
-429.688 70.3125 858
-132.812 351.562 1123
-117.188 -312.5 3149
-359.375 -359.375 3092
-85.9375 390.625 1410
382.812 296.875 959
-429.688 39.0625 873
54.6875 -31.25 1197
101.562 -390.625 981
93.75 -78.125 1189
-70.3125 367.188 1130
-304.688 -351.562 3092
-62.5 390.625 1410
-476.562 281.25 1586
109.375 414.062 1415
93.75 414.062 1398
-484.375 39.0625 864
-445.312 -62.5 906
-195.312 375 1349
-445.312 -359.375 3064
-492.188 -281.25 984
140.625 -382.812 984
-375 46.875 867
-390.625 46.875 869
343.75 -54.6875 1264
-500 -328.125 975
93.75 -250 1047
-218.75 -164.062 1063
101.562 406.25 1410
-359.375 46.875 871
-359.375 -93.75 967
-164.062 351.562 1130
226.562 -445.312 2789
-195.312 328.125 1105
125 382.812 1123
7.8125 273.438 954
-117.188 359.375 1130
-335.938 78.125 856
-500 39.0625 860
-242.188 -117.188 1010
39.0625 375 1041
7.8125 375 1041
179.688 -468.75 2789
-335.938 70.3125 856
-171.875 -382.812 3010
117.188 406.25 1415
-15.625 351.562 1038
109.375 -250 1041
7.8125 398.438 1415
-62.5 367.188 1130
156.25 367.188 1090
-148.438 351.562 1130
-476.562 31.25 873
101.562 -265.625 1028
-203.125 -351.562 3120
-492.188 -398.438 1001
31.25 375 1041
-93.75 343.75 1044
15.625 406.25 1410
-78.125 -242.188 2958
-85.9375 343.75 1044
15.625 398.438 1415
-39.0625 375 1141
-31.25 367.188 1041
-148.438 335.938 1105
140.625 367.188 1090
210.938 -375 989
-289.062 -351.562 3120
15.625 273.438 956
-296.875 54.6875 867
46.875 382.812 1138
-156.25 250 954
-328.125 234.375 943
-335.938 -351.562 3120
-328.125 70.3125 858
-382.812 -132.812 1019
-468.75 375 1483
-445.312 382.812 1483
-85.9375 -242.188 2958
-125 367.188 1130
-179.688 -343.75 3149
-281.25 242.188 943
-39.0625 367.188 1041
-179.688 250 951
-367.188 -359.375 3092
7.8125 -101.562 1197
-453.125 -328.125 1255
476.562 -304.688 2984
-265.625 -390.625 3037
-140.625 382.812 1349
-273.438 140.625 938
93.75 148.438 1047
-257.812 125 973
-375 62.5 860
273.438 367.188 1067
132.812 382.812 1123
320.312 -328.125 3037
7.8125 335.938 1067
-218.75 39.0625 1105
-328.125 -359.375 3092
-125 -382.812 3010
-171.875 -343.75 3120
-351.562 -351.562 3120
-320.312 234.375 943
-296.875 296.875 1503
101.562 281.25 954
-265.625 250 943
-460.938 312.5 1550
312.5 296.875 956
-46.875 367.188 1041
-203.125 -210.938 1108
-54.6875 -125 1197
-117.188 -382.812 3010
-7.8125 351.562 1034
148.438 382.812 1126
140.625 382.812 1123
0 -101.562 1197
242.188 -203.125 2958
-398.438 -93.75 935
62.5 335.938 1054
-15.625 398.438 1415
304.688 -78.125 1283
312.5 -93.75 1302
-406.25 -46.875 913
-242.188 -390.625 3010
-398.438 46.875 867
-343.75 54.6875 867
-164.062 382.812 1415
125 406.25 1141
-359.375 -109.375 995
-140.625 343.75 1112
-445.312 54.6875 858
-289.062 109.375 878
93.75 78.125 1101
-109.375 257.812 954
-437.5 210.938 946
375 -320.312 3010
281.25 289.062 959
62.5 359.375 1041
187.5 -140.625 1134
140.625 -468.75 2789
101.562 -85.9375 1181
-414.062 54.6875 862
31.25 -85.9375 1197
-312.5 -351.562 3120
23.4375 398.438 1410
171.875 109.375 1087
-476.562 -312.5 1031
429.688 -312.5 3010
109.375 414.062 1415
367.188 -62.5 1268
-367.188 70.3125 856
117.188 414.062 1415
210.938 -367.188 978
-312.5 195.312 970
101.562 -78.125 1189
-414.062 218.75 943
-265.625 257.812 943
-156.25 359.375 1134
-62.5 265.625 948
148.438 -468.75 2789
484.375 -304.688 2701
-460.938 242.188 951
-328.125 46.875 871
93.75 382.812 1126
-265.625 -367.188 3092
-54.6875 390.625 1404
-125 359.375 1130
179.688 -414.062 1041
-109.375 125 1050
-234.375 -390.625 3037
-476.562 -109.375 989
-421.875 390.625 1483
-351.562 70.3125 856
109.375 281.25 954
62.5 312.5 951
351.562 -78.125 1288
85.9375 359.375 1087
-171.875 375 1410
-242.188 257.812 943
-195.312 359.375 1138
-296.875 -390.625 3064
-382.812 -109.375 933
93.75 -85.9375 1181
-453.125 273.438 1594
78.125 -468.75 2812
-328.125 54.6875 867
-39.0625 -125 1197
-242.188 -382.812 3064
-187.5 328.125 1101
398.438 304.688 954
265.625 -101.562 1307
-421.875 39.0625 871
70.3125 359.375 1094
281.25 -335.938 3064
-39.0625 -101.562 1214
-250 -367.188 3092
257.812 -109.375 1312
-429.688 -132.812 918
304.688 -101.562 1312
-210.938 -351.562 3149
-31.25 375 1138
23.4375 273.438 954
117.188 -85.9375 1181
15.625 335.938 1063
-117.188 382.812 1349
-171.875 -140.625 1232
-257.812 164.062 948
-375 -93.75 962
289.062 -93.75 1297
187.5 -421.875 1057
-140.625 -367.188 3092
-54.6875 265.625 951
-62.5 398.438 1410
335.938 -187.5 2908
437.5 -242.188 3149
-234.375 273.438 951
-93.75 367.188 1134
-39.0625 195.312 1007
-500 -39.0625 878
-320.312 46.875 873
-210.938 -39.0625 1119
-62.5 296.875 948
-31.25 367.188 1041
-250 164.062 1007
140.625 -85.9375 1181
-335.938 289.062 1523
-179.688 351.562 1134
46.875 382.812 1138
70.3125 406.25 1415
46.875 375 1041
312.5 -85.9375 1292
-500 -296.875 989
101.562 414.062 1404
39.0625 375 1041
-39.0625 265.625 954
-203.125 -39.0625 1119
382.812 31.25 1177
-140.625 335.938 1101
-296.875 -351.562 3092
-289.062 -351.562 3120
148.438 0 1177
117.188 -265.625 1025
31.25 -437.5 1050
78.125 312.5 948
171.875 -375 978
-125 351.562 1123
-156.25 437.5 1483
-125 367.188 1130
421.875 -312.5 3010
-484.375 -281.25 1047
-117.188 390.625 1343
257.812 -101.562 1302
109.375 -468.75 2812
171.875 -382.812 987
-7.8125 398.438 1415
156.25 -382.812 987
117.188 406.25 1415
-85.9375 -312.5 3178
343.75 -187.5 2883
-164.062 359.375 1134
335.938 -328.125 2984
-187.5 375 1415
414.062 265.625 984
304.688 -328.125 3037
15.625 -101.562 1193
-195.312 -54.6875 1134
101.562 382.812 1126
-484.375 -23.4375 885
-234.375 304.688 1077
328.125 -54.6875 1259
-289.062 242.188 943
-437.5 -62.5 910
-375 179.688 975
-203.125 406.25 1370
-242.188 -101.562 998
78.125 281.25 951
78.125 -250 1047
-164.062 -343.75 3120
46.875 359.375 1041
-281.25 421.875 1477
-437.5 -359.375 3064
156.25 -70.3125 1202
0 351.562 1038
62.5 -398.438 989
-351.562 250 951
-476.562 203.125 948
-335.938 234.375 943
117.188 281.25 954
-187.5 -351.562 3149
15.625 375 1041
-218.75 -15.625 1101
-156.25 351.562 1130
242.188 -203.125 2958
-289.062 265.625 951
78.125 -78.125 1193
156.25 -85.9375 1177
31.25 398.438 1410
296.875 -195.312 2933
-429.688 312.5 1564
148.438 382.812 1126
-445.312 210.938 943
-148.438 -382.812 3064
-437.5 296.875 1557
-242.188 140.625 1022
125 125 1022
140.625 390.625 1134
-367.188 46.875 867
78.125 -265.625 1034
-109.375 382.812 1349
15.625 7.8125 1157
117.188 367.188 1097
335.938 -39.0625 1245
125 62.5 1007
-125 390.625 1349
23.4375 398.438 1410
-476.562 195.312 951
78.125 406.25 1415
-46.875 -164.062 1165
132.812 406.25 1141
-78.125 -343.75 3149
54.6875 -398.438 987
62.5 375 1126
-460.938 -15.625 873
-195.312 351.562 1138
101.562 -250 1041
-351.562 -359.375 3120
140.625 406.25 1354
320.312 -132.812 1354
-273.438 148.438 930
-242.188 132.812 1028
289.062 -335.938 3064
-46.875 -132.812 1189
273.438 -187.5 2908
-296.875 203.125 964
398.438 296.875 959
-15.625 390.625 1415
23.4375 406.25 1410
39.0625 335.938 1057
179.688 -70.3125 1250
-304.688 351.562 1509
-39.0625 -109.375 1210
-7.8125 351.562 1034
-304.688 335.938 1496
-226.562 179.688 998
-281.25 203.125 970
-343.75 289.062 1516
367.188 296.875 959
23.4375 -406.25 992
125 406.25 1141
-445.312 39.0625 873
156.25 -78.125 1197
-171.875 351.562 1130
23.4375 -39.0625 1197
-203.125 -23.4375 1112
109.375 382.812 1126
156.25 445.312 1283
390.625 78.125 1138
-234.375 23.4375 1050
296.875 -93.75 1297
-140.625 359.375 1134
-250 -390.625 3010
-484.375 226.562 951
187.5 -148.438 1126
-148.438 351.562 1130
117.188 -382.812 975
-281.25 242.188 943
109.375 406.25 1415
-312.5 335.938 1496
70.3125 -257.812 1044
-476.562 148.438 943
-312.5 296.875 1509
46.875 -93.75 1193
-468.75 31.25 873
-164.062 250 951
109.375 -85.9375 1181
-492.188 -31.25 880
-85.9375 382.812 1138
-109.375 390.625 1343
-437.5 -85.9375 923
250 -203.125 2933
343.75 -328.125 3010
-46.875 -85.9375 1236
-70.3125 296.875 946
234.375 -203.125 2933
-39.0625 -226.562 1101
