ply
format ascii 1.0
comment Created by Open3D
element vertex 2323
property double x
property double y
property double z
end_header
343.75 335.938 1981
-132.812 234.375 1557
234.375 187.5 1302
-445.312 210.938 1776
15.625 289.062 1776
148.438 -31.25 1328
-320.312 -351.562 1564
-164.062 -289.062 1427
257.812 210.938 2256
-171.875 210.938 1594
-117.188 203.125 1359
-218.75 -164.062 1193
-359.375 -15.625 1214
-289.062 257.812 1688
140.625 218.75 1354
-445.312 -39.0625 1206
-54.6875 234.375 1594
-70.3125 265.625 1594
-250 242.188 1722
132.812 320.312 1477
-140.625 226.562 1564
39.0625 -312.5 1376
15.625 210.938 1354
140.625 -156.25 1550
-148.438 242.188 1572
132.812 312.5 1464
-234.375 -125 1138
-195.312 -210.938 1250
-390.625 85.9375 2016
-70.3125 312.5 1722
-421.875 -257.812 1317
46.875 289.062 1776
62.5 140.625 1273
93.75 429.688 1647
-179.688 -132.812 1370
-250 210.938 1731
-31.25 -382.812 1343
187.5 320.312 1470
-312.5 171.875 1766
-31.25 62.5 1189
257.812 210.938 2256
-187.5 335.938 1655
179.688 187.5 1312
-398.438 171.875 1853
39.0625 70.3125 1185
-226.562 -31.25 1197
132.812 296.875 1452
445.312 179.688 2333
-304.688 109.375 1981
-179.688 187.5 1365
-289.062 101.562 2349
132.812 257.812 1421
-164.062 -140.625 1452
-226.562 -125 1138
-46.875 210.938 1359
164.062 101.562 1185
62.5 257.812 1647
-445.312 -320.312 1259
-429.688 -406.25 1302
148.438 -250 3539
-382.812 187.5 1739
296.875 93.75 1193
-226.562 -148.438 1153
-70.3125 125 1278
-476.562 -257.812 1302
226.562 -210.938 1688
-187.5 281.25 1586
-242.188 125 1307
78.125 101.562 1189
-500 -226.562 1227
-203.125 132.812 1312
132.812 304.688 1458
-132.812 257.812 1550
-187.5 351.562 1632
132.812 328.125 1489
-23.4375 62.5 1189
-203.125 125 1302
-296.875 101.562 1981
-210.938 289.062 1529
-125 265.625 1550
-93.75 242.188 1564
-23.4375 289.062 1766
-218.75 257.812 1489
-343.75 -70.3125 1169
132.812 242.188 1503
-195.312 257.812 1483
117.188 351.562 1529
-31.25 304.688 1722
-484.375 -226.562 1241
-453.125 -312.5 1268
132.812 250 1509
-85.9375 335.938 1671
-31.25 289.062 1757
195.312 148.438 1278
140.625 -203.125 1647
101.562 414.062 1616
93.75 93.75 1185
-187.5 -234.375 1302
-210.938 93.75 1283
-296.875 335.938 1624
-226.562 117.188 1302
-476.562 156.25 1863
281.25 93.75 1189
-203.125 117.188 1297
93.75 437.5 1663
-296.875 109.375 1993
-7.8125 203.125 1354
-140.625 -210.938 1529
-226.562 -39.0625 1193
46.875 312.5 1739
-187.5 265.625 1503
-289.062 203.125 1731
-31.25 -171.875 1529
-125 351.562 1647
-437.5 -343.75 1264
203.125 273.438 1415
-343.75 54.6875 2053
-132.812 -226.562 1572
-390.625 171.875 1804
296.875 -7.8125 1322
54.6875 382.812 1632
-93.75 54.6875 1189
-445.312 70.3125 2028
54.6875 257.812 1655
-171.875 -148.438 1387
-265.625 -117.188 1130
-382.812 -31.25 1214
-171.875 -273.438 1387
171.875 328.125 1483
-203.125 140.625 1322
-492.188 179.688 1470
-335.938 195.312 1713
132.812 265.625 1489
-218.75 171.875 1354
-195.312 -46.875 1288
-242.188 171.875 1359
7.8125 226.562 1663
-468.75 -304.688 1433
46.875 296.875 1766
85.9375 328.125 1713
-39.0625 -281.25 1439
-39.0625 -289.062 1427
-195.312 -39.0625 1288
-46.875 -203.125 1496
335.938 46.875 1245
148.438 -273.438 1404
-468.75 328.125 1624
-195.312 179.688 1359
-453.125 54.6875 1947
171.875 226.562 1359
15.625 234.375 1663
93.75 -414.062 1292
-500 203.125 1503
-421.875 171.875 1853
132.812 234.375 1343
-281.25 171.875 1785
93.75 273.438 1632
-250 179.688 1757
-234.375 -132.812 1130
78.125 312.5 1731
-203.125 -195.312 1227
-195.312 -70.3125 1328
101.562 406.25 1616
-62.5 312.5 1722
-187.5 343.75 1632
101.562 273.438 1616
-242.188 -23.4375 1206
-351.562 -203.125 1173
187.5 164.062 1292
-218.75 187.5 1404
-179.688 218.75 1557
-257.812 250 1696
-195.312 -85.9375 1288
-156.25 -304.688 1464
-203.125 -70.3125 1232
-179.688 -93.75 1370
257.812 140.625 1259
-281.25 93.75 2078
-445.312 203.125 1785
-171.875 -117.188 1410
-445.312 -156.25 1138
-78.125 265.625 1594
117.188 -296.875 1381
-148.438 70.3125 1197
46.875 -156.25 1516
-312.5 218.75 1663
-15.625 -289.062 1415
-195.312 -218.75 1268
-468.75 117.188 1894
23.4375 273.438 1813
-492.188 226.562 1516
101.562 93.75 1185
-179.688 226.562 1536
62.5 -312.5 1370
132.812 335.938 1503
-281.25 -125 1123
195.312 85.9375 1189
-23.4375 -429.688 1297
-210.938 -46.875 1197
-156.25 -289.062 1439
-382.812 179.688 1739
335.938 39.0625 1259
-179.688 -250 1333
-210.938 85.9375 1273
-156.25 -164.062 1496
-335.938 -351.562 1302
234.375 421.875 1823
-78.125 242.188 1564
-54.6875 281.25 1564
179.688 195.312 1322
62.5 -320.312 1370
-250 62.5 1259
-78.125 328.125 1688
-187.5 210.938 1439
-304.688 109.375 1993
234.375 195.312 1312
210.938 93.75 1189
-54.6875 257.812 1572
-109.375 70.3125 1193
-70.3125 304.688 1722
-398.438 -351.562 1354
-218.75 -23.4375 1206
62.5 273.438 1794
-203.125 -15.625 1245
-156.25 195.312 1370
-398.438 -39.0625 1206
-7.8125 304.688 1757
-218.75 210.938 1433
156.25 -320.312 1359
164.062 78.125 1185
-234.375 234.375 1464
-500 132.812 1410
54.6875 140.625 1283
-109.375 195.312 1359
-453.125 -328.125 1259
23.4375 289.062 1776
-179.688 320.312 1688
-296.875 109.375 1993
-195.312 250 1489
132.812 -171.875 1483
-187.5 -109.375 1307
-39.0625 78.125 1197
-15.625 359.375 1655
-140.625 -335.938 1572
-46.875 -195.312 1503
93.75 -148.438 1509
140.625 78.125 1181
203.125 281.25 1421
-148.438 -312.5 1496
-445.312 -351.562 1288
85.9375 312.5 1731
85.9375 320.312 1572
-304.688 -125 1126
-132.812 257.812 1557
31.25 -156.25 1523
203.125 125 1255
-320.312 179.688 1748
218.75 250 1376
-500 171.875 1452
-296.875 117.188 1993
-500 250 1557
304.688 -85.9375 1452
101.562 -414.062 1292
-328.125 -257.812 1197
-93.75 257.812 1564
453.125 -171.875 3468
-312.5 78.125 2065
-421.875 -351.562 1312
-93.75 226.562 1557
-335.938 -125 1126
-70.3125 78.125 1193
-187.5 273.438 1543
-203.125 117.188 1302
148.438 -257.812 1415
-171.875 -343.75 1586
148.438 421.875 1616
-78.125 -93.75 1387
101.562 296.875 1609
-304.688 -195.312 1206
-23.4375 281.25 1804
-70.3125 296.875 1757
257.812 -179.688 1639
265.625 54.6875 1232
-203.125 109.375 1292
-257.812 85.9375 2078
156.25 218.75 1354
23.4375 234.375 1663
171.875 101.562 1189
-195.312 289.062 1536
0 218.75 1354
203.125 117.188 1245
-78.125 195.312 1359
-468.75 148.438 1873
-351.562 117.188 1981
-148.438 218.75 1579
289.062 -140.625 1557
-406.25 -335.938 1241
281.25 -171.875 1632
414.062 -203.125 3468
-7.8125 203.125 1354
109.375 296.875 1609
-289.062 226.562 1663
-218.75 -31.25 1202
-218.75 -31.25 1202
23.4375 156.25 1288
-203.125 -187.5 1227
-164.062 -218.75 1354
-242.188 242.188 1731
250 148.438 1273
-15.625 265.625 1804
234.375 -156.25 1579
-39.0625 -171.875 1529
-343.75 -187.5 1185
-390.625 70.3125 2053
-281.25 257.812 1696
93.75 312.5 1572
117.188 382.812 1579
-257.812 218.75 1688
70.3125 312.5 1739
-492.188 -289.062 1219
-164.062 -164.062 1458
46.875 250 1663
93.75 320.312 1572
-195.312 -203.125 1250
-210.938 -39.0625 1197
492.188 -289.062 2883
-203.125 85.9375 1273
-70.3125 179.688 1338
-195.312 242.188 1458
304.688 93.75 1189
-281.25 93.75 2078
-125 -171.875 1523
164.062 -351.562 1343
-125 265.625 1543
117.188 375 1564
-187.5 195.312 1349
-398.438 -335.938 1250
437.5 -351.562 3178
-39.0625 -289.062 1427
-335.938 195.312 1713
-500 -335.938 1157
-351.562 -179.688 1173
-265.625 85.9375 2053
-382.812 -195.312 1161
-250 171.875 1766
-203.125 125 1307
15.625 226.562 1647
-70.3125 195.312 1354
-460.938 -304.688 1433
-140.625 226.562 1564
-187.5 -70.3125 1333
-351.562 -125 1126
-148.438 -187.5 1489
-421.875 203.125 1794
-218.75 164.062 1349
-140.625 187.5 1359
-375 328.125 1624
-273.438 328.125 1647
140.625 242.188 1427
-54.6875 265.625 1586
171.875 -218.75 1696
-226.562 -46.875 1189
-54.6875 289.062 1757
-203.125 132.812 1317
460.938 -218.75 3238
-445.312 -31.25 1219
-46.875 -257.812 1445
-195.312 265.625 1503
-250 70.3125 1264
273.438 148.438 2398
-125 242.188 1564
-46.875 250 1609
0 304.688 1757
54.6875 289.062 1794
117.188 335.938 1557
-117.188 70.3125 1193
7.8125 265.625 1813
-203.125 -31.25 1273
-140.625 -203.125 1529
140.625 226.562 1333
-203.125 101.562 1288
-179.688 -125 1338
-304.688 -7.8125 1214
-492.188 265.625 1579
-359.375 117.188 1993
-23.4375 242.188 1833
-382.812 148.438 1915
0 312.5 1739
-203.125 93.75 1283
-406.25 179.688 1833
-117.188 351.562 1647
-359.375 70.3125 2053
-406.25 250 1731
-382.812 -187.5 1157
0 179.688 1288
195.312 304.688 1445
62.5 414.062 1624
-78.125 54.6875 1189
195.312 140.625 1273
-39.0625 -281.25 1439
-203.125 -15.625 1245
-31.25 -375 1354
54.6875 250 1663
-195.312 -39.0625 1288
296.875 -117.188 1503
54.6875 156.25 1288
70.3125 421.875 1813
117.188 304.688 1579
-250 250 1722
-31.25 -367.188 1354
-445.312 -304.688 1317
242.188 406.25 1853
164.062 257.812 1392
-492.188 320.312 1616
-421.875 210.938 1785
-171.875 62.5 1202
-484.375 -39.0625 1219
101.562 273.438 1616
-226.562 -85.9375 1165
-31.25 281.25 1564
23.4375 85.9375 1197
-78.125 351.562 1655
-210.938 218.75 1439
242.188 171.875 1292
-492.188 234.375 1543
-382.812 210.938 1722
132.812 -164.062 1483
-242.188 203.125 1722
-101.562 78.125 1193
-179.688 62.5 1197
-250 62.5 1259
-148.438 187.5 1359
-132.812 -226.562 1572
-203.125 -23.4375 1264
-500 -343.75 1153
46.875 -421.875 1297
-476.562 -390.625 1322
-148.438 242.188 1594
-445.312 -312.5 1264
203.125 85.9375 1189
-195.312 234.375 1470
-85.9375 328.125 1688
-398.438 70.3125 2065
-78.125 78.125 1193
-226.562 -54.6875 1185
-335.938 328.125 1632
-93.75 296.875 1722
-296.875 109.375 1993
-93.75 281.25 1601
-476.562 -46.875 1202
-101.562 296.875 1572
281.25 156.25 2381
70.3125 257.812 1647
-500 234.375 1543
140.625 -453.125 1392
-492.188 -351.562 1153
-70.3125 328.125 1688
-187.5 -62.5 1322
-257.812 78.125 2078
125 101.562 1185
-289.062 117.188 2005
85.9375 351.562 1680
-367.188 -148.438 1126
-164.062 -273.438 1410
-382.812 195.312 1739
54.6875 70.3125 1181
101.562 101.562 1185
-203.125 78.125 1264
-39.0625 -273.438 1439
-421.875 -367.188 1307
-156.25 -164.062 1496
101.562 -78.125 1273
156.25 -304.688 1370
140.625 -210.938 1464
-140.625 328.125 1680
-375 -148.438 1126
187.5 171.875 1297
-343.75 -210.938 1189
210.938 351.562 1959
-164.062 -140.625 1458
-328.125 -218.75 1202
46.875 289.062 1766
-492.188 273.438 1594
187.5 179.688 1312
484.375 -62.5 2659
117.188 289.062 1632
226.562 437.5 1804
-210.938 -179.688 1193
-39.0625 203.125 1359
-179.688 328.125 1663
-164.062 -226.562 1354
39.0625 -312.5 1376
257.812 203.125 2271
-312.5 -125 1126
-179.688 -85.9375 1365
-46.875 78.125 1193
-437.5 -148.438 1126
-39.0625 -179.688 1516
-7.8125 -156.25 1509
-437.5 210.938 1776
-31.25 -382.812 1349
-132.812 257.812 1557
148.438 -265.625 1415
78.125 -289.062 1387
0 203.125 1349
-46.875 -179.688 1536
171.875 367.188 1536
-85.9375 289.062 1757
109.375 281.25 1624
335.938 31.25 1259
-203.125 312.5 1564
-31.25 -390.625 1338
-460.938 234.375 1731
54.6875 320.312 1731
210.938 257.812 1392
-390.625 70.3125 2053
-257.812 85.9375 2078
-453.125 31.25 1936
-203.125 109.375 1292
23.4375 289.062 1776
-218.75 -164.062 1173
156.25 -312.5 1370
23.4375 187.5 1328
-492.188 -429.688 1312
-203.125 117.188 1302
-484.375 -414.062 1312
195.312 109.375 1193
46.875 -312.5 1376
-156.25 -156.25 1483
156.25 398.438 1586
62.5 320.312 1722
-195.312 273.438 1509
312.5 -296.875 3333
-328.125 -203.125 1202
39.0625 273.438 1804
171.875 203.125 1333
-195.312 -85.9375 1288
140.625 -203.125 1464
78.125 -312.5 1370
-210.938 203.125 1421
-218.75 148.438 1333
289.062 164.062 2365
132.812 257.812 1503
-382.812 -203.125 1161
125 320.312 1529
-39.0625 -265.625 1439
-351.562 320.312 1639
93.75 234.375 1609
140.625 437.5 1655
117.188 226.562 1354
179.688 -218.75 1696
-492.188 -226.562 1250
164.062 -359.375 1333
164.062 382.812 1564
-195.312 250 1489
250 437.5 1804
273.438 -203.125 1680
-203.125 -62.5 1232
218.75 70.3125 1202
-23.4375 304.688 1739
-398.438 -367.188 1349
-203.125 85.9375 1273
-390.625 78.125 2040
312.5 -62.5 1404
-195.312 -39.0625 1288
-460.938 -39.0625 1219
-257.812 218.75 1688
296.875 171.875 2349
-148.438 -179.688 1529
-281.25 171.875 1785
-390.625 218.75 1785
-203.125 320.312 1572
-304.688 78.125 2078
-195.312 226.562 1445
-39.0625 -210.938 1489
117.188 281.25 1624
-164.062 -132.812 1439
140.625 -406.25 1292
-406.25 281.25 1680
0 351.562 1671
23.4375 234.375 1663
-414.062 -351.562 1241
-187.5 281.25 1543
-500 -320.312 1165
-476.562 156.25 1873
-257.812 156.25 1804
-187.5 -226.562 1288
-312.5 70.3125 2065
-234.375 -70.3125 1173
-210.938 210.938 1433
70.3125 437.5 1794
0 -406.25 1317
179.688 101.562 1193
54.6875 312.5 1739
85.9375 312.5 1731
-476.562 164.062 1863
468.75 -195.312 3399
93.75 320.312 1572
437.5 187.5 2301
-367.188 70.3125 2053
93.75 -85.9375 1273
-46.875 -195.312 1503
0 156.25 1273
-46.875 -226.562 1477
-210.938 195.312 1410
-210.938 -39.0625 1197
-203.125 328.125 1586
-476.562 -281.25 1241
-195.312 203.125 1439
132.812 296.875 1489
-203.125 70.3125 1259
-140.625 -218.75 1529
-203.125 148.438 1333
-23.4375 242.188 1833
-187.5 203.125 1439
-421.875 -335.938 1250
359.375 -210.938 3468
132.812 328.125 1496
-125 304.688 1713
101.562 281.25 1624
85.9375 437.5 1680
-203.125 335.938 1601
-195.312 195.312 1354
195.312 304.688 1445
7.8125 226.562 1663
-148.438 234.375 1586
-468.75 148.438 1873
-242.188 273.438 1713
-359.375 -93.75 1153
-265.625 -15.625 1241
-156.25 -179.688 1496
-476.562 -265.625 1259
492.188 -273.438 3037
492.188 -46.875 2618
-265.625 85.9375 2053
-398.438 -179.688 1169
-375 -218.75 1193
70.3125 273.438 1794
320.312 -31.25 1365
-62.5 140.625 1292
-7.8125 -164.062 1523
-492.188 -328.125 1161
-210.938 78.125 1264
187.5 -218.75 1696
101.562 421.875 1632
-195.312 257.812 1503
218.75 242.188 1376
15.625 265.625 1813
-62.5 125 1278
-15.625 250 1833
-484.375 125 1863
453.125 -265.625 3208
-484.375 257.812 1688
-453.125 -273.438 1354
-468.75 125 1926
-171.875 -117.188 1410
-210.938 -171.875 1185
54.6875 93.75 1193
-203.125 62.5 1197
-226.562 226.562 1458
-351.562 62.5 2065
-179.688 -93.75 1370
101.562 289.062 1624
-398.438 210.938 1785
-164.062 -210.938 1452
195.312 148.438 1278
-367.188 -171.875 1161
132.812 101.562 1185
148.438 101.562 1189
-273.438 289.062 1696
-46.875 265.625 1572
476.562 -78.125 3037
-164.062 -218.75 1354
-132.812 289.062 1564
-7.8125 250 1843
62.5 257.812 1655
109.375 273.438 1616
-171.875 -109.375 1404
-453.125 250 1705
-335.938 -125 1126
-500 -156.25 1126
-460.938 226.562 1705
-398.438 218.75 1785
-203.125 140.625 1322
-343.75 -335.938 1302
-195.312 187.5 1354
-234.375 195.312 1739
23.4375 273.438 1813
-39.0625 -281.25 1439
-406.25 210.938 1785
-15.625 195.312 1349
-101.562 218.75 1564
-203.125 78.125 1264
-398.438 78.125 2040
125 218.75 1354
62.5 250 1663
-445.312 -343.75 1264
23.4375 226.562 1647
-195.312 210.938 1439
54.6875 250 1663
195.312 156.25 1283
-62.5 250 1594
-195.312 218.75 1445
93.75 312.5 1572
320.312 -23.4375 1349
-140.625 -203.125 1529
117.188 -70.3125 1278
15.625 273.438 1804
-335.938 -203.125 1193
335.938 54.6875 1236
250 -148.438 1564
-382.812 93.75 2005
156.25 265.625 1410
468.75 -109.375 3208
-62.5 304.688 1722
-15.625 62.5 1193
-406.25 -335.938 1241
-492.188 -281.25 1219
-476.562 -273.438 1250
-23.4375 281.25 1804
-218.75 -148.438 1153
7.8125 304.688 1757
-335.938 187.5 1713
-187.5 335.938 1601
-54.6875 281.25 1564
-218.75 -39.0625 1197
-492.188 195.312 1489
-164.062 -132.812 1439
117.188 296.875 1601
-195.312 -39.0625 1288
257.812 -148.438 1572
-265.625 93.75 2053
78.125 257.812 1663
-187.5 320.312 1557
-156.25 289.062 1722
-398.438 -359.375 1349
46.875 382.812 1632
15.625 320.312 1713
-492.188 164.062 1445
164.062 -343.75 1343
117.188 78.125 1185
-7.8125 62.5 1189
109.375 296.875 1609
54.6875 289.062 1794
-281.25 101.562 2381
-125 265.625 1543
-203.125 343.75 1624
-23.4375 -93.75 1392
-70.3125 265.625 1601
203.125 289.062 1421
-195.312 -203.125 1250
-312.5 -203.125 1197
-179.688 335.938 1655
140.625 -203.125 1464
-148.438 210.938 1579
-195.312 234.375 1470
-250 70.3125 1264
-242.188 195.312 1739
-179.688 265.625 1572
46.875 312.5 1739
-242.188 234.375 1731
-257.812 85.9375 2078
109.375 -125 1470
-54.6875 125 1273
312.5 93.75 1189
78.125 429.688 1804
132.812 257.812 1503
-281.25 93.75 2078
156.25 -296.875 1376
-187.5 -62.5 1322
-195.312 242.188 1458
132.812 343.75 1516
62.5 -304.688 1376
-250 203.125 1722
-437.5 -312.5 1273
-328.125 -195.312 1206
-250 -23.4375 1202
0 304.688 1757
-218.75 140.625 1322
-203.125 -62.5 1232
-203.125 156.25 1338
-398.438 -335.938 1250
-78.125 132.812 1288
-23.4375 78.125 1197
-31.25 78.125 1197
78.125 93.75 1193
148.438 304.688 1452
-7.8125 203.125 1354
-265.625 250 1696
-187.5 250 1489
312.5 -7.8125 1328
31.25 273.438 1804
-335.938 179.688 1722
-218.75 -54.6875 1210
-320.312 210.938 1663
-109.375 390.625 1624
31.25 289.062 1776
-171.875 -210.938 1328
-140.625 -320.312 1523
78.125 226.562 1359
-148.438 -179.688 1529
445.312 179.688 2333
-132.812 187.5 1359
187.5 328.125 1477
-351.562 -132.812 1123
70.3125 -312.5 1370
101.562 312.5 1579
-156.25 -156.25 1483
-54.6875 187.5 1343
281.25 -179.688 1647
-195.312 -31.25 1273
-78.125 195.312 1359
117.188 257.812 1655
-304.688 -234.375 1227
-390.625 226.562 1785
31.25 187.5 1328
-203.125 70.3125 1259
70.3125 -31.25 1307
-265.625 218.75 1688
-195.312 382.812 1624
31.25 85.9375 1189
453.125 -195.312 3468
273.438 187.5 2317
-62.5 234.375 1572
-203.125 132.812 1317
-390.625 78.125 2040
187.5 218.75 1349
101.562 93.75 1185
-500 -421.875 1307
-179.688 210.938 1564
-218.75 109.375 1297
-343.75 -195.312 1189
39.0625 148.438 1288
-31.25 -343.75 1370
-85.9375 -195.312 1572
187.5 109.375 1193
-296.875 203.125 1722
-187.5 328.125 1572
109.375 -414.062 1292
-250 218.75 1705
23.4375 289.062 1776
156.25 109.375 1189
-54.6875 265.625 1586
-210.938 -23.4375 1206
62.5 382.812 1632
125 257.812 1564
281.25 -164.062 1609
-7.8125 171.875 1292
-390.625 62.5 2053
-289.062 101.562 2365
-187.5 343.75 1632
-203.125 -39.0625 1288
-476.562 125 1894
15.625 156.25 1278
-500 242.188 1550
-203.125 -164.062 1202
210.938 265.625 1404
-203.125 -281.25 1392
93.75 273.438 1632
-54.6875 203.125 1365
62.5 312.5 1739
296.875 -125 1529
39.0625 242.188 1655
-210.938 -164.062 1185
7.8125 296.875 1766
78.125 -312.5 1370
-218.75 218.75 1439
-7.8125 265.625 1794
281.25 164.062 2365
-351.562 -210.938 1185
-375 -187.5 1157
-414.062 250 1731
148.438 -250 1427
-195.312 203.125 1439
-31.25 -375 1354
-304.688 273.438 1680
-70.3125 -210.938 1609
-179.688 -85.9375 1365
23.4375 234.375 1663
-148.438 -195.312 1489
-78.125 304.688 1722
-171.875 -109.375 1404
-382.812 187.5 1739
-218.75 257.812 1483
-203.125 117.188 1302
101.562 226.562 1349
-210.938 179.688 1370
-39.0625 -273.438 1439
125 273.438 1564
289.062 -257.812 3433
-54.6875 -195.312 1503
23.4375 265.625 1823
101.562 273.438 1616
-70.3125 296.875 1757
-39.0625 -289.062 1427
7.8125 312.5 1731
-46.875 281.25 1564
265.625 -125 1523
-210.938 -39.0625 1197
-351.562 -125 1126
250 -210.938 1688
117.188 273.438 1616
-250 78.125 1264
-179.688 -125 1338
-390.625 -203.125 1153
117.188 -414.062 1292
484.375 -289.062 3010
85.9375 -414.062 1292
234.375 85.9375 1189
-460.938 140.625 1883
31.25 -296.875 1392
414.062 -203.125 3468
54.6875 312.5 1739
140.625 -289.062 1392
453.125 179.688 2317
-62.5 343.75 1663
-164.062 187.5 1365
179.688 351.562 1509
140.625 -195.312 1464
-273.438 171.875 1785
-210.938 187.5 1404
-132.812 218.75 1564
-281.25 -70.3125 1169
-93.75 226.562 1557
-453.125 -281.25 1283
-484.375 250 1705
117.188 281.25 1624
273.438 148.438 2398
257.812 375 1904
-171.875 -265.625 1376
-398.438 242.188 1748
164.062 -429.688 1354
164.062 -429.688 1354
-62.5 -187.5 1557
109.375 93.75 1185
85.9375 437.5 1680
70.3125 250 1647
156.25 -382.812 1312
39.0625 304.688 1748
109.375 273.438 1616
-46.875 -187.5 1516
7.8125 -429.688 1312
7.8125 -156.25 1516
-62.5 320.312 1696
-46.875 304.688 1705
-484.375 265.625 1680
-70.3125 195.312 1354
-351.562 -179.688 1173
85.9375 382.812 1639
-242.188 203.125 1722
46.875 -125 1464
265.625 140.625 2432
62.5 250 1663
-23.4375 304.688 1739
312.5 23.4375 1278
-320.312 179.688 1748
-179.688 296.875 1557
-125 187.5 1359
-218.75 -62.5 1181
-164.062 -164.062 1458
132.812 320.312 1496
187.5 -218.75 1696
23.4375 -156.25 1523
109.375 312.5 1579
31.25 265.625 1813
-85.9375 281.25 1594
-179.688 -234.375 1312
31.25 -296.875 1392
-46.875 -171.875 1529
-187.5 -218.75 1268
93.75 312.5 1572
-140.625 -203.125 1529
-164.062 -156.25 1392
-187.5 312.5 1564
242.188 85.9375 1189
0 343.75 1688
-85.9375 273.438 1594
15.625 242.188 1663
-328.125 203.125 1696
250 156.25 1273
195.312 101.562 1193
85.9375 -148.438 1509
-281.25 -117.188 1130
0 -156.25 1516
148.438 -453.125 1398
-218.75 -156.25 1173
148.438 -257.812 1415
70.3125 257.812 1647
-218.75 101.562 1292
7.8125 203.125 1349
-242.188 226.562 1731
-156.25 226.562 1594
-203.125 109.375 1292
-117.188 273.438 1543
15.625 281.25 1794
-62.5 257.812 1601
-414.062 85.9375 2028
-195.312 -210.938 1259
-429.688 -351.562 1312
-62.5 296.875 1757
-101.562 70.3125 1193
-164.062 -210.938 1452
-31.25 -359.375 1359
-484.375 -359.375 1189
93.75 445.312 1688
-312.5 218.75 1663
-203.125 148.438 1333
-31.25 -367.188 1354
117.188 359.375 1550
117.188 226.562 1354
328.125 93.75 1189
-242.188 187.5 1757
54.6875 265.625 1655
156.25 406.25 1586
187.5 179.688 1312
-476.562 -234.375 1273
-39.0625 -257.812 1445
-203.125 125 1307
78.125 273.438 1794
343.75 54.6875 1236
125 351.562 1529
-437.5 54.6875 2053
132.812 218.75 1349
-187.5 320.312 1557
109.375 320.312 1572
7.8125 304.688 1757
-484.375 -226.562 1250
15.625 304.688 1757
117.188 218.75 1354
-203.125 140.625 1322
289.062 179.688 2333
-171.875 187.5 1359
125 296.875 1489
-453.125 -335.938 1255
-320.312 -218.75 1197
179.688 -218.75 1696
-187.5 -101.562 1387
39.0625 -156.25 1516
-187.5 -54.6875 1307
351.562 85.9375 1197
148.438 -156.25 1550
117.188 93.75 1181
242.188 -156.25 1579
-265.625 93.75 2053
46.875 85.9375 1193
101.562 312.5 1579
148.438 312.5 1464
-500 -437.5 1312
-218.75 -46.875 1197
132.812 -156.25 1496
-484.375 -242.188 1255
-148.438 289.062 1731
148.438 429.688 1616
39.0625 273.438 1804
-7.8125 242.188 1696
62.5 406.25 1624
234.375 203.125 1317
-31.25 -164.062 1516
-15.625 281.25 1794
-250 54.6875 1173
476.562 -195.312 3399
187.5 187.5 1317
-15.625 210.938 1359
-359.375 -210.938 1181
-281.25 101.562 2381
70.3125 312.5 1739
54.6875 -320.312 1370
54.6875 148.438 1288
-390.625 -328.125 1255
-101.562 -31.25 1288
-335.938 -210.938 1193
70.3125 70.3125 1185
-54.6875 343.75 1663
54.6875 242.188 1647
-39.0625 -273.438 1439
148.438 -242.188 1439
148.438 242.188 1427
-85.9375 296.875 1722
-164.062 -132.812 1439
62.5 312.5 1739
-62.5 78.125 1193
164.062 359.375 1523
-414.062 -398.438 1312
-148.438 -304.688 1489
-484.375 -367.188 1189
-203.125 93.75 1283
-187.5 304.688 1564
-429.688 78.125 2028
195.312 312.5 1445
-437.5 -320.312 1255
-15.625 289.062 1766
-195.312 187.5 1354
0 203.125 1349
62.5 265.625 1655
-31.25 203.125 1359
-382.812 179.688 1739
-62.5 195.312 1349
-320.312 210.938 1663
-195.312 -78.125 1288
31.25 -156.25 1523
15.625 265.625 1813
-398.438 -367.188 1349
78.125 250 1639
-93.75 296.875 1722
46.875 -320.312 1370
-335.938 203.125 1696
-320.312 195.312 1722
-203.125 -195.312 1227
-250 250 1722
54.6875 250 1663
-15.625 304.688 1766
-7.8125 226.562 1696
-257.812 250 1696
-125 234.375 1564
156.25 -101.562 1439
-148.438 210.938 1579
-54.6875 296.875 1713
31.25 289.062 1776
-398.438 -343.75 1241
-132.812 -218.75 1572
-39.0625 -281.25 1439
-500 179.688 1470
-125 296.875 1564
-109.375 289.062 1572
78.125 -312.5 1370
-195.312 195.312 1354
-132.812 -226.562 1572
-156.25 -179.688 1496
78.125 429.688 1804
54.6875 85.9375 1189
-78.125 273.438 1594
-398.438 -351.562 1354
460.938 -335.938 3208
-195.312 -31.25 1273
-7.8125 250 1843
70.3125 250 1647
312.5 -70.3125 1427
-7.8125 -164.062 1523
0 265.625 1813
125 273.438 1564
-46.875 257.812 1572
195.312 156.25 1283
-117.188 265.625 1543
-23.4375 281.25 1804
7.8125 -335.938 1370
117.188 -210.938 1458
-218.75 -23.4375 1206
-218.75 93.75 1283
78.125 257.812 1663
93.75 210.938 1349
304.688 -93.75 1452
-218.75 -78.125 1189
-15.625 242.188 1833
-132.812 289.062 1564
-187.5 257.812 1503
62.5 242.188 1647
125 281.25 1572
-39.0625 -265.625 1439
125 93.75 1185
-140.625 203.125 1586
-500 -296.875 1189
-7.8125 281.25 1776
-328.125 -210.938 1202
109.375 312.5 1579
-359.375 -195.312 1149
54.6875 -312.5 1376
484.375 -195.312 2789
164.062 -351.562 1343
320.312 -39.0625 1365
-179.688 289.062 1579
0 -156.25 1516
-148.438 -179.688 1529
-164.062 62.5 1197
-320.312 -250 1202
-39.0625 265.625 1572
54.6875 -148.438 1509
-187.5 296.875 1557
39.0625 -421.875 1302
-70.3125 54.6875 1185
171.875 375 1536
-46.875 265.625 1572
-382.812 93.75 2005
-187.5 -226.562 1288
-406.25 273.438 1696
117.188 273.438 1616
-179.688 -78.125 1343
-382.812 171.875 1757
-132.812 296.875 1722
-46.875 296.875 1705
-31.25 -382.812 1349
-187.5 289.062 1550
31.25 273.438 1804
101.562 414.062 1616
-203.125 -203.125 1236
23.4375 265.625 1823
-203.125 109.375 1292
117.188 -210.938 1458
-171.875 304.688 1705
-414.062 -390.625 1317
-39.0625 -179.688 1516
304.688 -85.9375 1452
148.438 78.125 1185
210.938 109.375 1202
-492.188 -320.312 1165
-62.5 304.688 1722
39.0625 -460.938 1387
140.625 265.625 1421
7.8125 210.938 1354
7.8125 210.938 1354
218.75 250 1376
125 -164.062 1496
-179.688 343.75 1632
23.4375 226.562 1647
-15.625 281.25 1794
-359.375 -218.75 1185
-187.5 179.688 1359
281.25 -179.688 1647
140.625 -203.125 1464
-414.062 242.188 1731
-140.625 250 1564
15.625 304.688 1757
-492.188 -421.875 1312
-125 289.062 1564
-390.625 187.5 1739
281.25 101.562 1189
296.875 164.062 2365
421.875 -203.125 3468
-101.562 289.062 1572
-406.25 187.5 1823
31.25 265.625 1813
-203.125 101.562 1288
-335.938 187.5 1713
62.5 -312.5 1370
-468.75 -390.625 1328
-304.688 -203.125 1197
-156.25 62.5 1197
-492.188 85.9375 1381
195.312 164.062 1292
-203.125 85.9375 1273
46.875 -460.938 1392
140.625 250 1415
453.125 -257.812 3208
-156.25 -156.25 1483
-242.188 195.312 1739
-70.3125 304.688 1722
-140.625 242.188 1572
-15.625 -164.062 1523
250 156.25 1273
-203.125 117.188 1302
117.188 312.5 1579
312.5 -218.75 3503
0 -164.062 1529
-101.562 195.312 1359
-257.812 78.125 2078
-250 187.5 1748
335.938 15.625 1283
234.375 250 2170
125 257.812 1564
-421.875 -375 1312
117.188 234.375 1354
-289.062 101.562 2365
70.3125 93.75 1193
62.5 250 1663
7.8125 218.75 1354
156.25 101.562 1189
-203.125 -54.6875 1232
-437.5 70.3125 2028
-484.375 -421.875 1312
265.625 335.938 1981
117.188 320.312 1529
-148.438 234.375 1586
54.6875 140.625 1283
210.938 101.562 1193
140.625 101.562 1197
140.625 101.562 1197
250 -210.938 1688
-179.688 -85.9375 1365
335.938 23.4375 1273
289.062 156.25 2381
343.75 46.875 1245
125 -414.062 1292
-351.562 -226.562 1189
31.25 234.375 1663
281.25 -171.875 1632
132.812 226.562 1343
-31.25 -398.438 1333
23.4375 281.25 1794
54.6875 -304.688 1381
-179.688 -242.188 1328
-203.125 -15.625 1245
-218.75 -39.0625 1197
-390.625 164.062 1833
117.188 -210.938 1458
54.6875 257.812 1655
156.25 414.062 1609
-210.938 -31.25 1202
-187.5 328.125 1572
7.8125 242.188 1671
-171.875 -250 1349
-46.875 250 1609
-421.875 -359.375 1307
-203.125 132.812 1317
-7.8125 210.938 1354
15.625 203.125 1349
-39.0625 -257.812 1445
23.4375 304.688 1748
39.0625 289.062 1776
203.125 289.062 1421
-109.375 273.438 1543
-85.9375 281.25 1594
-242.188 -23.4375 1206
164.062 -343.75 1343
164.062 265.625 1398
484.375 -343.75 3010
-39.0625 281.25 1564
-46.875 281.25 1564
101.562 -414.062 1292
-304.688 -218.75 1206
468.75 -312.5 3037
-242.188 187.5 1757
70.3125 382.812 1639
54.6875 187.5 1333
-250 -132.812 1119
140.625 281.25 1452
367.188 -210.938 3433
-23.4375 242.188 1833
-500 -250 1223
93.75 273.438 1632
-343.75 -250 1202
140.625 -195.312 1464
-179.688 -187.5 1292
257.812 -210.938 1688
132.812 -39.0625 1333
140.625 304.688 1464
-125 187.5 1359
7.8125 304.688 1757
-101.562 242.188 1557
-117.188 195.312 1365
-445.312 -390.625 1338
101.562 -148.438 1516
-265.625 -23.4375 1206
484.375 -62.5 2659
-335.938 195.312 1713
7.8125 85.9375 1197
15.625 312.5 1731
-46.875 257.812 1572
101.562 429.688 1655
265.625 -148.438 1572
-164.062 -281.25 1410
-78.125 281.25 1594
-289.062 -117.188 1126
101.562 312.5 1579
-54.6875 195.312 1354
-62.5 296.875 1757
242.188 429.688 1813
78.125 -148.438 1516
132.812 273.438 1483
54.6875 242.188 1647
-226.562 -125 1138
-257.812 -23.4375 1206
164.062 242.188 1381
0 62.5 1185
70.3125 -304.688 1376
125 312.5 1503
-203.125 70.3125 1259
-195.312 62.5 1197
-156.25 70.3125 1197
15.625 -156.25 1523
-187.5 281.25 1543
109.375 406.25 1609
-218.75 -85.9375 1197
109.375 375 1601
-117.188 257.812 1564
148.438 -250 1427
140.625 -187.5 1464
78.125 421.875 1632
140.625 296.875 1458
-39.0625 257.812 1572
-179.688 -117.188 1338
304.688 -101.562 1452
-312.5 171.875 1757
62.5 -320.312 1370
-78.125 273.438 1594
-140.625 -210.938 1529
-15.625 375 1632
-367.188 -210.938 1181
445.312 179.688 2333
179.688 -234.375 3503
-148.438 -195.312 1489
78.125 250 1639
-187.5 -54.6875 1307
-273.438 171.875 1785
70.3125 -148.438 1516
-78.125 335.938 1680
-85.9375 273.438 1594
-125 273.438 1543
-203.125 93.75 1283
-54.6875 304.688 1713
-148.438 -171.875 1516
-39.0625 -265.625 1439
-171.875 195.312 1359
-148.438 218.75 1579
-234.375 203.125 1433
148.438 187.5 1317
-218.75 -70.3125 1197
78.125 437.5 1794
85.9375 93.75 1189
-140.625 273.438 1550
273.438 -203.125 1680
468.75 -93.75 3120
-312.5 -125 1126
-500 218.75 1516
351.562 85.9375 1197
-468.75 156.25 1873
-390.625 -179.688 1165
0 85.9375 1197
-15.625 304.688 1766
15.625 304.688 1757
-171.875 -109.375 1404
-179.688 265.625 1572
39.0625 273.438 1804
-210.938 312.5 1564
70.3125 250 1647
125 273.438 1564
-140.625 70.3125 1197
171.875 78.125 1185
-7.8125 242.188 1696
70.3125 414.062 1624
78.125 312.5 1731
-93.75 -398.438 3238
85.9375 70.3125 1185
-31.25 -351.562 1370
85.9375 226.562 1354
-210.938 -23.4375 1206
-46.875 203.125 1359
-109.375 242.188 1564
140.625 273.438 1439
-7.8125 281.25 1776
-203.125 78.125 1264
-31.25 -359.375 1359
-15.625 257.812 1823
-164.062 -156.25 1392
-328.125 203.125 1696
-171.875 203.125 1601
-164.062 -125 1427
140.625 320.312 1483
-148.438 289.062 1731
-179.688 203.125 1572
-171.875 -101.562 1387
-62.5 351.562 1655
156.25 351.562 1516
-429.688 -390.625 1302
-210.938 250 1477
-85.9375 -117.188 1427
-500 203.125 1503
46.875 289.062 1766
359.375 -210.938 3468
23.4375 312.5 1731
164.062 101.562 1185
-500 257.812 1572
-250 78.125 1264
132.812 257.812 1503
70.3125 -320.312 1365
-335.938 -125 1126
-195.312 156.25 1338
-195.312 -78.125 1288
156.25 -289.062 1387
-93.75 70.3125 1193
-265.625 -125 1123
-117.188 265.625 1543
-265.625 85.9375 2053
7.8125 203.125 1349
257.812 85.9375 1189
-85.9375 296.875 1722
62.5 406.25 1624
-164.062 226.562 1601
46.875 85.9375 1193
-117.188 296.875 1572
203.125 140.625 1268
70.3125 265.625 1823
117.188 289.062 1632
125 234.375 1349
78.125 265.625 1663
187.5 335.938 1477
70.3125 312.5 1739
203.125 125 1255
-390.625 -195.312 1157
-257.812 -15.625 1236
-460.938 148.438 1873
289.062 -125 1529
23.4375 304.688 1748
46.875 273.438 1794
-39.0625 -242.188 1458
7.8125 265.625 1813
-203.125 -187.5 1227
132.812 312.5 1503
31.25 265.625 1813
390.625 -242.188 3365
429.688 -203.125 3433
31.25 304.688 1748
117.188 234.375 1354
-226.562 -23.4375 1206
492.188 -335.938 2984
0 242.188 1671
250 -226.562 3539
31.25 234.375 1663
-421.875 210.938 1785
-218.75 218.75 1439
-39.0625 -257.812 1445
85.9375 429.688 1671
132.812 273.438 1483
-31.25 265.625 1572
-242.188 210.938 1722
-70.3125 273.438 1601
-7.8125 148.438 1292
46.875 265.625 1663
-296.875 171.875 1785
-156.25 -148.438 1464
140.625 289.062 1458
101.562 273.438 1616
117.188 312.5 1579
-125 -273.438 1601
250 85.9375 1193
140.625 257.812 1410
492.188 -54.6875 2618
54.6875 -125 1464
-437.5 46.875 2053
-265.625 93.75 2053
-7.8125 304.688 1757
-320.312 187.5 1739
-476.562 148.438 1883
-195.312 218.75 1445
70.3125 -421.875 1297
78.125 70.3125 1185
-187.5 296.875 1557
140.625 312.5 1470
-125 289.062 1564
85.9375 382.812 1639
-62.5 210.938 1365
-421.875 148.438 1843
132.812 93.75 1185
-117.188 187.5 1359
164.062 -343.75 1343
-164.062 210.938 1594
-234.375 -23.4375 1202
-335.938 -343.75 1307
328.125 -15.625 1338
-257.812 -125 1123
-132.812 250 1564
93.75 70.3125 1185
125 367.188 1550
-398.438 250 1731
-195.312 140.625 1322
-125 -281.25 1616
148.438 257.812 1410
62.5 242.188 1647
-93.75 265.625 1572
0 148.438 1292
187.5 187.5 1317
-132.812 226.562 1557
-203.125 257.812 1489
23.4375 -429.688 1307
187.5 195.312 1328
367.188 -312.5 3269
70.3125 242.188 1616
-70.3125 195.312 1354
-187.5 304.688 1564
-203.125 -54.6875 1232
-468.75 257.812 1696
0 335.938 1696
-23.4375 -164.062 1523
-210.938 -164.062 1185
140.625 218.75 1349
453.125 -312.5 3178
-140.625 242.188 1572
31.25 156.25 1278
0 375 1639
-304.688 132.812 1833
-328.125 -132.812 1123
-31.25 257.812 1616
7.8125 250 1671
-179.688 -78.125 1343
-171.875 187.5 1359
-421.875 -382.812 1307
156.25 -164.062 1572
-125 46.875 1189
-289.062 -210.938 1241
289.062 101.562 1189
-23.4375 78.125 1197
-484.375 257.812 1688
-398.438 46.875 1250
0 281.25 1776
-7.8125 351.562 1671
-31.25 281.25 1564
0 226.562 1671
-78.125 273.438 1594
46.875 -156.25 1516
-101.562 296.875 1572
156.25 -296.875 1376
-39.0625 281.25 1564
-39.0625 265.625 1572
-179.688 296.875 1557
-375 195.312 1731
-46.875 125 1278
296.875 -125 1529
257.812 -226.562 3539
125 312.5 1503
54.6875 273.438 1794
-476.562 265.625 1680
7.8125 62.5 1189
-304.688 -195.312 1206
93.75 273.438 1632
140.625 265.625 1421
164.062 -437.5 1354
-171.875 312.5 1696
320.312 -218.75 3503
-500 -234.375 1236
-7.8125 78.125 1197
-70.3125 281.25 1601
-296.875 109.375 1993
-39.0625 257.812 1572
-148.438 -179.688 1529
476.562 -296.875 3037
-500 210.938 1509
39.0625 -156.25 1516
-78.125 281.25 1594
-304.688 109.375 1993
484.375 -70.3125 2680
-31.25 -320.312 1392
-242.188 179.688 1757
-15.625 281.25 1794
46.875 250 1663
-492.188 -351.562 1153
-54.6875 78.125 1193
-203.125 85.9375 1273
-453.125 101.562 1970
125 210.938 1349
-195.312 148.438 1328
-7.8125 85.9375 1202
-132.812 -218.75 1572
-78.125 296.875 1722
164.062 78.125 1185
-218.75 -132.812 1153
320.312 -46.875 1381
85.9375 312.5 1731
109.375 312.5 1579
23.4375 -335.938 1365
62.5 -421.875 1297
-109.375 46.875 1193
54.6875 -312.5 1376
-117.188 296.875 1572
-437.5 -382.812 1307
-39.0625 312.5 1705
-187.5 -93.75 1370
-281.25 -226.562 1250
132.812 234.375 1343
-132.812 46.875 1193
-156.25 359.375 1624
78.125 250 1639
117.188 -85.9375 1268
-62.5 335.938 1680
-289.062 359.375 1609
-148.438 203.125 1586
281.25 85.9375 1197
-85.9375 70.3125 1197
54.6875 85.9375 1189
-187.5 273.438 1543
23.4375 203.125 1349
39.0625 296.875 1766
296.875 101.562 1189
468.75 -101.562 3149
-406.25 203.125 1785
-187.5 289.062 1550
-7.8125 312.5 1731
-445.312 85.9375 2005
132.812 359.375 1529
-203.125 -179.688 1227
-171.875 218.75 1594
-7.8125 289.062 1766
-15.625 78.125 1197
-39.0625 -234.375 1464
140.625 328.125 1489
-187.5 -210.938 1288
93.75 437.5 1680
-343.75 -312.5 1312
70.3125 -132.812 1477
-85.9375 -250 1696
0 210.938 1354
-54.6875 296.875 1713
54.6875 -132.812 1477
31.25 312.5 1731
-46.875 296.875 1705
-117.188 265.625 1543
15.625 265.625 1813
-46.875 -210.938 1489
304.688 -54.6875 1392
312.5 -78.125 1427
-195.312 132.812 1317
148.438 -406.25 1292
-195.312 -31.25 1273
0 289.062 1766
101.562 70.3125 1185
125 320.312 1529
-234.375 210.938 1433
-492.188 -343.75 1153
-375 -171.875 1161
-250 -15.625 1236
148.438 -109.375 1458
132.812 312.5 1503
-203.125 62.5 1197
140.625 320.312 1483
-187.5 -78.125 1343
93.75 312.5 1572
78.125 242.188 1609
156.25 -281.25 1398
-39.0625 -187.5 1509
-195.312 -195.312 1250
-140.625 273.438 1550
140.625 242.188 1427
-54.6875 54.6875 1185
54.6875 -460.938 1392
125 375 1557
125 343.75 1529
-140.625 -195.312 1572
-140.625 218.75 1572
-250 62.5 1259
-171.875 -210.938 1328
-226.562 62.5 1197
93.75 226.562 1349
-320.312 -31.25 1202
-109.375 218.75 1564
93.75 289.062 1609
62.5 -312.5 1370
-46.875 54.6875 1185
304.688 -218.75 3539
-500 273.438 1594
7.8125 281.25 1776
-46.875 304.688 1705
148.438 -242.188 1439
375 -210.938 3468
101.562 289.062 1624
335.938 7.8125 1302
-93.75 289.062 1601
-320.312 -23.4375 1210
125 234.375 1349
-125 257.812 1557
23.4375 304.688 1748
164.062 -351.562 1343
54.6875 273.438 1794
-289.062 101.562 2365
-125 296.875 1564
0 281.25 1776
-164.062 273.438 1766
-296.875 -125 1126
54.6875 -156.25 1509
148.438 93.75 1185
171.875 101.562 1189
78.125 382.812 1639
-31.25 -375 1354
70.3125 -320.312 1365
62.5 187.5 1328
62.5 -148.438 1516
187.5 -234.375 3503
-250 -23.4375 1202
-234.375 -23.4375 1202
46.875 289.062 1766
-414.062 -351.562 1241
281.25 148.438 2398
-7.8125 281.25 1776
-171.875 -101.562 1387
195.312 78.125 1193
-7.8125 242.188 1696
-31.25 -343.75 1370
460.938 -304.688 3037
0 250 1823
-46.875 195.312 1349
23.4375 85.9375 1197
-187.5 -70.3125 1333
-187.5 -54.6875 1307
46.875 273.438 1794
273.438 -93.75 1464
31.25 304.688 1748
-242.188 164.062 1349
140.625 -187.5 1464
31.25 242.188 1663
-117.188 70.3125 1193
265.625 85.9375 1189
85.9375 210.938 1349
101.562 437.5 1671
-132.812 210.938 1572
-398.438 -359.375 1349
-320.312 210.938 1663
281.25 -187.5 1655
-242.188 -23.4375 1206
195.312 156.25 1283
-148.438 62.5 1197
93.75 -203.125 1458
54.6875 -421.875 1297
93.75 -148.438 1509
-179.688 281.25 1564
-140.625 -203.125 1529
46.875 265.625 1663
140.625 -437.5 1376
234.375 242.188 2184
164.062 -335.938 1349
492.188 -195.312 2789
-242.188 171.875 1359
-156.25 -148.438 1464
140.625 304.688 1464
31.25 234.375 1663
187.5 -218.75 1696
-445.312 195.312 1776
-132.812 265.625 1550
-132.812 -281.25 1509
78.125 304.688 1766
-54.6875 125 1278
-226.562 -117.188 1138
-117.188 289.062 1722
-484.375 265.625 1624
62.5 421.875 1813
7.8125 148.438 1302
54.6875 289.062 1766
-93.75 -250 1696
39.0625 304.688 1757
203.125 -218.75 1688
-164.062 -125 1427
-93.75 -179.688 1543
265.625 -210.938 1688
-250 -125 1126
-62.5 273.438 1601
140.625 -195.312 1458
-140.625 289.062 1731
-250 171.875 1776
-179.688 -234.375 1307
-101.562 -250 1696
132.812 273.438 1543
-304.688 218.75 1671
39.0625 -429.688 1307
-78.125 273.438 1594
140.625 226.562 1359
-156.25 -171.875 1458
179.688 359.375 1529
140.625 234.375 1359
-46.875 226.562 1572
140.625 250 1503
351.562 -210.938 3468
242.188 414.062 1843
-70.3125 -187.5 1557
-39.0625 296.875 1766
-484.375 226.562 1624
226.562 226.562 1354
-46.875 296.875 1757
-78.125 70.3125 1197
46.875 -320.312 1381
468.75 -296.875 3092
-242.188 -132.812 1130
-31.25 265.625 1785
-343.75 -367.188 1338
125 359.375 1564
132.812 210.938 1349
39.0625 312.5 1731
140.625 93.75 1189
-179.688 62.5 1197
132.812 -164.062 1496
-109.375 187.5 1354
-179.688 179.688 1359
-421.875 187.5 1766
320.312 93.75 1185
296.875 -109.375 1489
-132.812 273.438 1557
-23.4375 281.25 1776
-117.188 46.875 1193
-328.125 -31.25 1206
-171.875 -257.812 1354
0 148.438 1292
7.8125 289.062 1766
312.5 -218.75 3503
117.188 -414.062 1292
289.062 156.25 2381
-31.25 281.25 1766
140.625 -171.875 1489
-218.75 -109.375 1149
-476.562 140.625 1873
85.9375 429.688 1804
62.5 85.9375 1189
195.312 -218.75 1680
70.3125 85.9375 1189
125 -375 1322
-171.875 320.312 1688
-429.688 -437.5 1359
-70.3125 273.438 1601
-203.125 70.3125 1264
-39.0625 -242.188 1464
132.812 -414.062 1292
-117.188 -320.312 1564
226.562 -210.938 1705
281.25 -117.188 1503
7.8125 -164.062 1529
156.25 -375 1317
-195.312 148.438 1333
125 -414.062 1297
-125 257.812 1557
109.375 289.062 1639
-39.0625 265.625 1616
70.3125 -85.9375 1392
273.438 -179.688 1647
31.25 85.9375 1193
179.688 101.562 1189
-101.562 273.438 1543
-39.0625 257.812 1616
281.25 -125 1523
453.125 -335.938 3208
-46.875 -179.688 1543
140.625 335.938 1503
101.562 296.875 1766
-125 -234.375 1572
-406.25 -343.75 1259
54.6875 265.625 1655
-156.25 -296.875 1452
-218.75 -101.562 1157
312.5 -234.375 3468
101.562 312.5 1739
-7.8125 195.312 1349
-171.875 289.062 1543
-203.125 78.125 1268
-39.0625 -218.75 1483
101.562 289.062 1785
-125 70.3125 1193
85.9375 250 1647
195.312 93.75 1189
-312.5 -23.4375 1206
46.875 -312.5 1381
-39.0625 -250 1458
-273.438 -15.625 1236
-187.5 265.625 1509
46.875 304.688 1757
-78.125 -312.5 3399
164.062 -343.75 1349
164.062 -343.75 1349
-414.062 -367.188 1322
203.125 132.812 1264
250 164.062 1283
-328.125 -250 1206
203.125 296.875 1452
-242.188 210.938 1696
304.688 -109.375 1489
62.5 273.438 1804
101.562 382.812 1639
-140.625 234.375 1572
85.9375 -312.5 1376
195.312 164.062 1297
-39.0625 218.75 1594
140.625 257.812 1516
101.562 -93.75 1278
234.375 210.938 1338
148.438 320.312 1477
101.562 93.75 1189
-273.438 -218.75 1245
-195.312 125 1307
-414.062 171.875 1833
-195.312 179.688 1365
93.75 289.062 1785
-312.5 179.688 1748
39.0625 242.188 1655
-23.4375 257.812 1813
-195.312 226.562 1458
0 78.125 1193
-195.312 -46.875 1292
-70.3125 281.25 1601
-54.6875 304.688 1722
-93.75 218.75 1564
492.188 -296.875 2835
257.812 -156.25 1579
7.8125 375 1639
15.625 203.125 1354
70.3125 296.875 1766
70.3125 304.688 1766
15.625 296.875 1766
-382.812 164.062 1904
7.8125 281.25 1776
-23.4375 -171.875 1536
476.562 -85.9375 3120
187.5 78.125 1189
93.75 312.5 1731
-46.875 281.25 1757
125 312.5 1594
125 210.938 1349
-31.25 -335.938 1387
15.625 265.625 1833
109.375 414.062 1632
-31.25 -171.875 1536
-179.688 -117.188 1312
-203.125 54.6875 1197
7.8125 304.688 1739
-171.875 -140.625 1376
-171.875 -140.625 1376
-351.562 210.938 1722
281.25 203.125 2256
62.5 289.062 1766
343.75 -320.312 3269
62.5 250 1655
93.75 296.875 1766
-109.375 265.625 1543
132.812 328.125 1523
-54.6875 242.188 1572
70.3125 -421.875 1297
-234.375 171.875 1359
-398.438 -367.188 1343
-195.312 132.812 1322
148.438 -296.875 1381
109.375 445.312 1671
0 281.25 1776
148.438 437.5 1639
-140.625 265.625 1557
296.875 -132.812 1536
-125 250 1564
62.5 -132.812 1477
-7.8125 203.125 1349
-46.875 273.438 1616
-250 62.5 1259
-156.25 226.562 1594
210.938 117.188 1206
210.938 -218.75 1688
-39.0625 273.438 1776
85.9375 304.688 1757
-85.9375 218.75 1564
-242.188 -117.188 1134
-148.438 -171.875 1458
-148.438 195.312 1365
273.438 -210.938 1696
-164.062 -265.625 1376
-15.625 203.125 1343
156.25 93.75 1185
195.312 101.562 1193
39.0625 304.688 1757
54.6875 304.688 1757
0 -164.062 1523
-187.5 257.812 1489
-101.562 195.312 1354
46.875 -156.25 1516
156.25 -453.125 1398
101.562 289.062 1785
109.375 93.75 1189
54.6875 273.438 1794
492.188 -343.75 2984
-70.3125 296.875 1731
-23.4375 265.625 1794
78.125 -421.875 1302
-171.875 328.125 1663
-23.4375 -296.875 1415
-226.562 -23.4375 1206
-218.75 -117.188 1141
257.812 140.625 1268
93.75 382.812 1639
250 -210.938 1688
-39.0625 296.875 1766
-171.875 281.25 1579
140.625 210.938 1349
-39.0625 -226.562 1483
-156.25 281.25 1609
-312.5 -31.25 1202
-468.75 -242.188 1288
31.25 304.688 1757
46.875 265.625 1813
-398.438 -39.0625 1206
15.625 -429.688 1307
23.4375 265.625 1833
-31.25 257.812 1616
-93.75 281.25 1543
117.188 382.812 1609
31.25 62.5 1185
-320.312 195.312 1722
-171.875 210.938 1523
382.812 -210.938 3433
-148.438 187.5 1365
-250 70.3125 2053
-46.875 -203.125 1516
78.125 265.625 1663
-210.938 62.5 1255
-375 187.5 1731
148.438 -226.562 1452
70.3125 273.438 1813
-195.312 117.188 1302
-289.062 117.188 2005
54.6875 265.625 1655
-468.75 156.25 1863
-289.062 109.375 2005
117.188 70.3125 1185
-476.562 -289.062 1250
-210.938 164.062 1354
62.5 265.625 1655
-398.438 -335.938 1259
15.625 148.438 1292
109.375 296.875 1609
-148.438 234.375 1594
-218.75 -23.4375 1197
-484.375 156.25 1833
-132.812 265.625 1557
171.875 218.75 1349
-320.312 -31.25 1206
-218.75 -156.25 1161
-125 265.625 1557
15.625 62.5 1189
-39.0625 -234.375 1477
-109.375 218.75 1564
140.625 312.5 1483
-203.125 226.562 1458
265.625 -156.25 1579
-109.375 296.875 1731
-171.875 234.375 1624
-78.125 -250 1705
203.125 148.438 1278
257.812 -210.938 1696
-304.688 -132.812 1126
-70.3125 273.438 1601
476.562 -148.438 3468
109.375 382.812 1632
85.9375 -148.438 1509
-46.875 296.875 1757
46.875 304.688 1757
-351.562 -195.312 1153
-171.875 -132.812 1370
-312.5 -250 1206
-39.0625 -195.312 1509
-250 31.25 1189
109.375 289.062 1639
210.938 109.375 1206
-39.0625 304.688 1731
-46.875 78.125 1197
-328.125 195.312 1696
312.5 101.562 1189
-140.625 -210.938 1529
-39.0625 234.375 1594
250 210.938 2241
257.812 210.938 2256
-335.938 -210.938 1193
-398.438 -375 1338
-132.812 -125 1433
-187.5 218.75 1464
328.125 -218.75 3503
-257.812 -117.188 1130
-343.75 109.375 1993
-203.125 218.75 1439
-242.188 54.6875 1197
-62.5 273.438 1601
-195.312 -70.3125 1273
132.812 312.5 1483
-46.875 140.625 1297
15.625 281.25 1785
-195.312 109.375 1297
-335.938 -31.25 1206
156.25 -289.062 1392
70.3125 -460.938 1387
-101.562 187.5 1354
289.062 -164.062 1616
-367.188 101.562 2005
117.188 296.875 1609
195.312 320.312 1477
-132.812 289.062 1731
132.812 210.938 1349
-101.562 289.062 1601
-15.625 281.25 1804
-15.625 265.625 1794
-484.375 273.438 1671
-492.188 -289.062 1219
7.8125 281.25 1776
-39.0625 140.625 1292
-171.875 179.688 1359
101.562 312.5 1739
171.875 367.188 1543
195.312 -234.375 3503
-101.562 234.375 1557
-125 257.812 1557
0 39.0625 1210
-125 273.438 1543
148.438 218.75 1354
-156.25 -148.438 1398
-296.875 -23.4375 1206
-421.875 -367.188 1317
-93.75 195.312 1354
15.625 375 1639
-54.6875 273.438 1601
-140.625 62.5 1193
-23.4375 281.25 1776
70.3125 289.062 1794
-70.3125 70.3125 1197
23.4375 210.938 1359
-132.812 187.5 1359
-78.125 367.188 1624
7.8125 78.125 1193
-70.3125 78.125 1197
-468.75 -250 1292
-359.375 -226.562 1206
7.8125 148.438 1302
-421.875 -335.938 1259
101.562 210.938 1354
257.812 -226.562 3539
-406.25 -335.938 1259
-132.812 273.438 1557
445.312 -203.125 3433
171.875 -398.438 1302
125 273.438 1594
117.188 289.062 1639
164.062 93.75 1185
-312.5 -234.375 1210
-23.4375 257.812 1813
-125 -242.188 1586
23.4375 281.25 1804
-132.812 242.188 1572
-195.312 101.562 1288
-406.25 -351.562 1322
195.312 171.875 1307
-39.0625 195.312 1349
148.438 210.938 1349
460.938 -312.5 3064
-179.688 -70.3125 1333
117.188 93.75 1185
93.75 234.375 1609
-187.5 -93.75 1273
-367.188 -148.438 1130
-320.312 -140.625 1126
-109.375 265.625 1543
-304.688 78.125 2078
31.25 148.438 1288
-484.375 250 1624
-101.562 296.875 1722
257.812 203.125 2256
62.5 304.688 1757
-85.9375 210.938 1572
-62.5 296.875 1739
70.3125 265.625 1663
-148.438 -242.188 1489
-195.312 -23.4375 1268
-312.5 -117.188 1130
437.5 -203.125 3433
-187.5 234.375 1477
-156.25 -281.25 1415
31.25 -429.688 1307
-390.625 234.375 1757
226.562 93.75 1189
23.4375 -156.25 1523
242.188 187.5 1312
-343.75 -296.875 1333
-382.812 85.9375 2040
304.688 164.062 2365
-15.625 257.812 1813
-117.188 296.875 1722
54.6875 -156.25 1509
-187.5 -46.875 1292
-85.9375 -250 1705
-320.312 -195.312 1214
-218.75 -125 1141
-242.188 -125 1130
320.312 -218.75 3503
109.375 289.062 1639
85.9375 -421.875 1302
62.5 -156.25 1509
-85.9375 242.188 1564
117.188 -148.438 1523
-31.25 304.688 1731
-15.625 289.062 1766
-304.688 -23.4375 1206
31.25 265.625 1813
-39.0625 296.875 1766
-484.375 242.188 1616
-421.875 148.438 1904
-367.188 -218.75 1189
46.875 304.688 1757
101.562 85.9375 1185
101.562 -93.75 1278
-23.4375 296.875 1766
-195.312 85.9375 1273
23.4375 7.8125 1250
15.625 304.688 1766
-234.375 -15.625 1245
54.6875 304.688 1757
70.3125 250 1655
39.0625 304.688 1757
-398.438 179.688 1853
109.375 70.3125 1185
62.5 273.438 1804
140.625 210.938 1349
-164.062 289.062 1731
140.625 312.5 1483
-171.875 -93.75 1376
156.25 -226.562 1452
125 70.3125 1185
-265.625 -15.625 1241
-39.0625 -187.5 1516
-296.875 109.375 1993
0 78.125 1193
-109.375 257.812 1550
148.438 -234.375 1445
-304.688 -31.25 1202
39.0625 148.438 1288
296.875 -140.625 1564
78.125 -460.938 1387
15.625 281.25 1785
-203.125 210.938 1433
-164.062 281.25 1579
117.188 289.062 1639
-39.0625 -242.188 1464
-164.062 -132.812 1370
39.0625 312.5 1731
-39.0625 -226.562 1483
-351.562 -281.25 1328
-31.25 296.875 1766
93.75 437.5 1680
-242.188 -15.625 1241
195.312 -164.062 1579
-203.125 203.125 1421
-164.062 179.688 1359
-132.812 -226.562 1572
62.5 289.062 1766
-7.8125 -164.062 1523
-429.688 -359.375 1317
-15.625 -164.062 1523
70.3125 -39.0625 1312
-500 -351.562 1153
218.75 -218.75 1696
-312.5 -31.25 1202
-125 -296.875 1586
273.438 -132.812 1529
