ply
format ascii 1.0
comment Created by Open3D
element vertex 2386
property double x
property double y
property double z
end_header
210.938 -273.438 3037
-273.438 429.688 1529
281.25 -250 1001
359.375 -78.125 1016
-312.5 -101.562 962
437.5 70.3125 1236
78.125 -296.875 3092
-453.125 -203.125 1044
-273.438 -242.188 1073
-109.375 257.812 847
-257.812 -335.938 3092
-335.938 382.812 951
23.4375 140.625 930
265.625 78.125 1181
226.562 -273.438 3064
-46.875 281.25 839
-304.688 218.75 858
210.938 453.125 913
460.938 -46.875 1019
-132.812 85.9375 908
-179.688 -132.812 992
242.188 78.125 1202
445.312 70.3125 1236
484.375 -171.875 935
-351.562 -125 1145
179.688 -281.25 3037
-148.438 109.375 906
-460.938 320.312 951
39.0625 101.562 959
445.312 0 1067
31.25 187.5 896
-171.875 250 847
273.438 46.875 1153
-257.812 101.562 946
-15.625 273.438 841
-335.938 -156.25 1063
85.9375 -101.562 1134
15.625 273.438 841
-101.562 109.375 943
-476.562 179.688 875
23.4375 -304.688 3120
-296.875 -218.75 987
-273.438 78.125 964
445.312 195.312 1112
-343.75 -164.062 1050
15.625 -304.688 3120
-476.562 -62.5 885
-414.062 -148.438 889
382.812 -187.5 938
-195.312 78.125 923
-281.25 -210.938 987
-382.812 39.0625 967
-484.375 -140.625 894
-7.8125 281.25 837
-351.562 359.375 946
-210.938 -117.188 1044
414.062 46.875 1112
62.5 -140.625 1181
195.312 -23.4375 1307
46.875 78.125 978
492.188 78.125 1227
437.5 -7.8125 1057
-375 203.125 867
-242.188 -7.8125 1025
-468.75 -23.4375 915
-203.125 -39.0625 1010
-203.125 -39.0625 1010
-125 140.625 925
39.0625 140.625 930
125 -289.062 3037
-414.062 242.188 903
85.9375 -85.9375 1123
-320.312 -320.312 1050
-203.125 242.188 851
-187.5 -226.562 1268
304.688 -179.688 964
-328.125 -140.625 987
-460.938 -125 880
-195.312 -101.562 962
-125 421.875 933
492.188 -117.188 956
-421.875 -257.812 1007
-468.75 0 940
54.6875 23.4375 1025
-242.188 0 1031
31.25 62.5 989
421.875 -289.062 1101
-468.75 -148.438 891
-117.188 109.375 913
-109.375 375 943
-234.375 234.375 854
-187.5 179.688 867
-390.625 -218.75 1007
-312.5 218.75 858
-242.188 406.25 940
-125 -218.75 1268
46.875 -46.875 1084
-125 109.375 915
-46.875 -312.5 3092
476.562 -85.9375 987
-500 273.438 959
289.062 -218.75 964
-492.188 -296.875 2333
-265.625 -242.188 1094
-148.438 421.875 938
-7.8125 445.312 928
-195.312 -148.438 1028
-390.625 -85.9375 873
-414.062 -23.4375 913
-210.938 156.25 875
445.312 -23.4375 1041
414.062 39.0625 1101
-460.938 -62.5 885
-132.812 421.875 935
460.938 -39.0625 1025
492.188 -31.25 1343
-437.5 406.25 1359
15.625 148.438 925
312.5 -203.125 951
468.75 31.25 1283
453.125 -31.25 1034
-93.75 -31.25 1063
-273.438 -93.75 943
54.6875 31.25 1016
-382.812 -109.375 885
-453.125 -148.438 1161
-453.125 -93.75 867
492.188 132.812 1177
-179.688 85.9375 925
-484.375 -289.062 3149
-273.438 -148.438 1001
-156.25 -289.062 3178
132.812 -93.75 1365
-7.8125 437.5 928
-257.812 -101.562 1001
312.5 85.9375 1173
-343.75 210.938 860
-125 -226.562 1268
-210.938 140.625 903
70.3125 -296.875 3120
-31.25 289.062 841
-54.6875 289.062 841
187.5 7.8125 1268
-273.438 -335.938 3092
-187.5 -328.125 3120
-398.438 -289.062 1007
-437.5 187.5 873
-39.0625 -312.5 3092
-351.562 -148.438 1067
-226.562 -109.375 1022
429.688 15.625 1080
-343.75 -226.562 1016
-250 -335.938 3092
-117.188 -218.75 1264
15.625 179.688 903
-156.25 265.625 847
-398.438 15.625 948
70.3125 15.625 1025
-468.75 -125 885
31.25 85.9375 973
54.6875 15.625 1028
-476.562 -125 885
-210.938 78.125 923
-390.625 39.0625 970
-101.562 -320.312 3092
-398.438 39.0625 970
-250 78.125 967
-203.125 -328.125 3120
0 265.625 843
-273.438 226.562 858
-500 -109.375 867
132.812 -289.062 3092
328.125 85.9375 1169
-226.562 -265.625 3178
70.3125 -148.438 1197
-382.812 -273.438 1001
-453.125 -234.375 1031
-375 351.562 946
421.875 31.25 1090
-187.5 62.5 981
-171.875 -328.125 3120
-351.562 -156.25 1054
39.0625 15.625 1028
-46.875 289.062 841
437.5 -296.875 2812
-62.5 265.625 843
-414.062 -281.25 1007
-117.188 414.062 930
0 257.812 847
-406.25 335.938 943
31.25 171.875 908
-265.625 -125 1010
23.4375 132.812 935
187.5 -281.25 3037
62.5 -101.562 1138
-304.688 406.25 1564
-375 390.625 1398
54.6875 -46.875 1084
39.0625 125 943
46.875 62.5 989
390.625 85.9375 1157
-234.375 78.125 967
-156.25 421.875 938
-390.625 -320.312 995
-375 367.188 956
234.375 78.125 1206
39.0625 132.812 935
-429.688 367.188 1338
335.938 101.562 1193
-468.75 -62.5 885
359.375 -304.688 1112
-125 78.125 908
-195.312 85.9375 925
-414.062 -7.8125 928
179.688 -7.8125 1288
-304.688 -101.562 954
0 351.562 908
195.312 -7.8125 1292
-187.5 242.188 851
101.562 -281.25 3092
31.25 179.688 903
234.375 -273.438 3064
85.9375 -296.875 3092
-500 -210.938 2450
-304.688 -195.312 992
-148.438 250 847
-179.688 -328.125 3120
-242.188 148.438 913
-234.375 -101.562 1025
-140.625 54.6875 910
-140.625 265.625 845
-226.562 125 930
-171.875 70.3125 930
-257.812 -335.938 3092
-218.75 -101.562 954
-273.438 -156.25 1001
7.8125 250 854
-500 -195.312 1410
7.8125 320.312 867
187.5 -7.8125 1288
-320.312 -164.062 1070
-281.25 234.375 856
-273.438 406.25 1557
-398.438 -117.188 873
335.938 -78.125 1025
-328.125 -164.062 1063
-203.125 78.125 923
-289.062 -273.438 1057
-226.562 70.3125 975
265.625 85.9375 1193
-273.438 -78.125 943
-406.25 195.312 869
-460.938 -125 880
437.5 0 1063
46.875 78.125 978
-398.438 -273.438 1004
62.5 -117.188 1157
-312.5 226.562 856
-156.25 406.25 933
-484.375 31.25 973
-460.938 -78.125 873
390.625 -296.875 1105
70.3125 -132.812 1169
0 -203.125 1255
-171.875 39.0625 998
-132.812 125 913
-164.062 265.625 847
-343.75 -210.938 1019
-335.938 -156.25 1063
46.875 101.562 959
-85.9375 101.562 940
-164.062 -328.125 3120
343.75 -70.3125 1025
-132.812 -218.75 1264
15.625 140.625 930
218.75 -273.438 3037
-210.938 -328.125 3120
-390.625 -109.375 873
62.5 -148.438 1197
367.188 -70.3125 1019
-468.75 -140.625 891
-476.562 31.25 967
0 234.375 864
-421.875 -148.438 1028
-468.75 31.25 967
210.938 -54.6875 1343
328.125 93.75 1181
-351.562 351.562 943
0 304.688 843
-117.188 257.812 845
-148.438 406.25 930
-492.188 -140.625 894
-7.8125 296.875 839
-500 -148.438 894
-195.312 242.188 851
23.4375 171.875 908
-203.125 250 849
-164.062 171.875 867
-226.562 148.438 875
-320.312 -140.625 987
23.4375 -304.688 3120
-414.062 -148.438 889
-226.562 78.125 970
-421.875 203.125 867
-187.5 398.438 933
-31.25 390.625 943
-289.062 375 940
140.625 -93.75 1370
-460.938 -148.438 891
46.875 148.438 925
-218.75 117.188 938
-390.625 -273.438 1001
203.125 -46.875 1333
453.125 304.688 1025
39.0625 101.562 959
421.875 101.562 1197
78.125 -171.875 1223
15.625 171.875 908
-468.75 -109.375 869
-367.188 31.25 962
-203.125 164.062 878
-125 -320.312 3120
-398.438 7.8125 943
-281.25 -195.312 992
468.75 -70.3125 998
-242.188 -101.562 1010
343.75 -78.125 1022
-468.75 -398.438 2933
31.25 132.812 935
195.312 0 1283
-7.8125 289.062 837
-31.25 -312.5 3092
-320.312 -234.375 1025
-312.5 -234.375 1031
-210.938 234.375 856
-226.562 234.375 854
-468.75 -351.562 2984
-460.938 -85.9375 871
453.125 -39.0625 1028
39.0625 54.6875 992
23.4375 101.562 959
39.0625 93.75 967
-234.375 -78.125 946
62.5 -78.125 1115
-453.125 -62.5 885
460.938 -289.062 1070
70.3125 -117.188 1157
492.188 93.75 1210
-429.688 7.8125 943
-187.5 125 901
-453.125 -109.375 869
-484.375 320.312 951
-414.062 -210.938 1010
-125 257.812 845
-257.812 -78.125 946
-304.688 -109.375 956
-367.188 203.125 867
78.125 437.5 918
-390.625 -156.25 1044
-117.188 -218.75 1264
-484.375 15.625 954
-109.375 273.438 843
210.938 -46.875 1126
-265.625 -242.188 1094
-257.812 226.562 858
-500 171.875 880
351.562 -78.125 1019
-179.688 117.188 898
210.938 -62.5 1354
-320.312 226.562 858
-335.938 210.938 862
-226.562 -179.688 1034
54.6875 -54.6875 1087
-31.25 281.25 839
-187.5 -234.375 1268
-414.062 390.625 1333
46.875 0 1041
-296.875 218.75 858
-304.688 -234.375 1034
195.312 -23.4375 1307
-453.125 390.625 1333
54.6875 -31.25 1067
0 242.188 858
-343.75 218.75 858
195.312 -39.0625 1322
-218.75 164.062 875
78.125 -296.875 3092
-31.25 -304.688 3120
70.3125 -140.625 1181
-218.75 242.188 849
234.375 70.3125 1189
-375 15.625 946
-23.4375 265.625 845
-375 -328.125 1007
-296.875 -179.688 995
-328.125 367.188 946
-265.625 242.188 856
382.812 179.688 1126
23.4375 218.75 875
390.625 78.125 1145
117.188 398.438 946
-39.0625 -312.5 3092
31.25 140.625 930
-406.25 -101.562 869
-62.5 -312.5 3092
-93.75 -320.312 3092
-7.8125 335.938 882
-140.625 421.875 935
132.812 218.75 1077
62.5 437.5 918
320.312 -210.938 954
-257.812 -242.188 1112
-437.5 -54.6875 889
31.25 70.3125 984
-125 46.875 913
-132.812 70.3125 906
-148.438 421.875 938
-15.625 265.625 845
-109.375 -320.312 3120
-476.562 -109.375 869
460.938 -210.938 967
203.125 -54.6875 1338
-54.6875 265.625 841
46.875 70.3125 981
78.125 -85.9375 1123
-406.25 343.75 943
140.625 -289.062 3037
-218.75 78.125 923
-304.688 -132.812 998
-242.188 140.625 920
406.25 62.5 1126
320.312 85.9375 1169
-7.8125 351.562 908
-93.75 -304.688 3120
132.812 445.312 915
-367.188 -273.438 1007
31.25 -304.688 3092
46.875 54.6875 992
-429.688 23.4375 956
-15.625 375 954
31.25 171.875 908
304.688 125 1173
398.438 125 1173
-421.875 -234.375 1007
484.375 -101.562 975
-226.562 7.8125 1025
421.875 -289.062 1101
-437.5 328.125 951
39.0625 7.8125 1031
39.0625 46.875 1001
-78.125 273.438 839
-328.125 -148.438 1087
7.8125 257.812 847
-70.3125 382.812 943
187.5 0 1278
-265.625 226.562 856
-39.0625 281.25 839
-382.812 -210.938 1007
-187.5 -117.188 975
343.75 -62.5 1031
-304.688 -39.0625 989
-328.125 -304.688 1034
-125 421.875 933
-468.75 179.688 875
-484.375 -109.375 871
78.125 -164.062 1214
-242.188 -335.938 3092
-242.188 -335.938 3092
-445.312 -109.375 869
-156.25 101.562 906
179.688 -281.25 3037
453.125 -289.062 1073
31.25 164.062 915
39.0625 125 943
-281.25 -203.125 987
390.625 -179.688 935
-250 -335.938 3092
203.125 -273.438 3037
429.688 125 1177
-476.562 203.125 880
7.8125 210.938 880
382.812 85.9375 1161
23.4375 125 943
375 -62.5 1019
-484.375 -140.625 894
-101.562 -320.312 3092
-171.875 414.062 935
-7.8125 281.25 837
-367.188 -281.25 1007
31.25 54.6875 998
-492.188 31.25 984
-210.938 148.438 875
54.6875 54.6875 995
7.8125 187.5 896
-359.375 375 1594
-140.625 39.0625 915
304.688 -234.375 970
-250 -242.188 1112
460.938 -171.875 933
203.125 -23.4375 1307
54.6875 7.8125 1034
-15.625 445.312 933
39.0625 117.188 946
-273.438 -148.438 1001
-125 -226.562 1268
-281.25 226.562 856
-179.688 93.75 915
39.0625 0 1041
359.375 -195.312 940
132.812 -289.062 3092
-164.062 140.625 901
-476.562 273.438 975
-234.375 156.25 908
312.5 93.75 1177
-210.938 -31.25 1013
445.312 -15.625 1047
62.5 -187.5 1245
-414.062 -70.3125 878
39.0625 31.25 1016
-234.375 132.812 925
-125 148.438 923
0 250 854
-304.688 218.75 858
-335.938 -234.375 1019
179.688 335.938 989
-421.875 390.625 1333
-156.25 132.812 901
312.5 390.625 959
-429.688 -54.6875 889
-257.812 -101.562 1001
296.875 85.9375 1181
-164.062 125 898
-398.438 -312.5 998
-390.625 203.125 864
-437.5 -281.25 1028
70.3125 -156.25 1206
-187.5 148.438 896
-148.438 70.3125 908
-171.875 -320.312 3120
-398.438 -234.375 1007
-382.812 -54.6875 894
31.25 78.125 978
-453.125 -226.562 1034
242.188 -273.438 3037
-445.312 93.75 938
-351.562 312.5 962
-7.8125 -15.625 1054
296.875 15.625 1112
39.0625 -304.688 3064
31.25 132.812 935
-93.75 320.312 891
460.938 -164.062 930
-148.438 437.5 1458
210.938 -54.6875 1343
-234.375 -7.8125 1025
484.375 -164.062 933
-390.625 -78.125 873
-132.812 421.875 935
460.938 304.688 1022
195.312 -31.25 1312
0 296.875 837
-289.062 -234.375 1050
273.438 78.125 1177
62.5 -195.312 1250
492.188 -125 951
-117.188 85.9375 915
54.6875 -101.562 1138
-476.562 -93.75 867
-164.062 46.875 915
218.75 70.3125 1206
-242.188 15.625 1019
210.938 195.312 1108
-281.25 -195.312 992
70.3125 46.875 1007
320.312 -203.125 951
-320.312 218.75 858
109.375 234.375 1067
-414.062 -93.75 867
31.25 125 943
-421.875 -70.3125 878
-179.688 -234.375 1268
453.125 148.438 1157
-140.625 93.75 915
54.6875 140.625 933
-273.438 -140.625 1001
-421.875 -304.688 1022
460.938 -54.6875 1013
210.938 62.5 1202
195.312 15.625 1264
-500 -140.625 894
-195.312 171.875 873
-359.375 -125 1141
15.625 132.812 935
-281.25 -210.938 987
54.6875 31.25 1016
445.312 85.9375 1219
-375 210.938 864
-195.312 78.125 923
-125 140.625 925
93.75 31.25 1236
-273.438 421.875 1550
-367.188 421.875 1529
39.0625 39.0625 1010
-453.125 328.125 951
-476.562 -46.875 898
-351.562 -140.625 1070
-7.8125 437.5 928
164.062 335.938 989
445.312 -23.4375 1041
-437.5 187.5 873
140.625 164.062 1123
203.125 23.4375 1181
-382.812 -101.562 885
-23.4375 -312.5 3092
-257.812 -109.375 998
-156.25 140.625 903
-453.125 31.25 967
-226.562 -7.8125 1028
468.75 -171.875 933
85.9375 -296.875 3092
-468.75 -328.125 2984
-460.938 31.25 964
187.5 23.4375 1255
-289.062 -117.188 1028
62.5 -23.4375 1060
-437.5 -171.875 1047
23.4375 242.188 858
23.4375 187.5 896
7.8125 -203.125 1259
-445.312 -281.25 1034
203.125 359.375 978
46.875 70.3125 981
476.562 -85.9375 987
70.3125 437.5 918
-132.812 85.9375 908
-500 -195.312 1410
-375 7.8125 940
429.688 7.8125 1073
429.688 85.9375 1219
-156.25 -328.125 3092
-218.75 125 933
-250 -101.562 995
-179.688 265.625 849
-382.812 -46.875 901
85.9375 -101.562 1134
-148.438 93.75 918
31.25 164.062 915
281.25 85.9375 1185
-468.75 -93.75 867
-375 -93.75 903
-117.188 250 851
-390.625 -281.25 1004
484.375 -109.375 964
-171.875 39.0625 998
7.8125 179.688 901
-125 273.438 843
406.25 54.6875 1123
382.812 -203.125 946
-460.938 -109.375 867
-140.625 54.6875 910
-109.375 -226.562 1264
-375 -109.375 891
-218.75 148.438 875
-429.688 187.5 873
-304.688 -140.625 995
234.375 85.9375 1206
93.75 62.5 1210
23.4375 -195.312 1250
-7.8125 257.812 849
367.188 93.75 1173
-101.562 257.812 847
31.25 46.875 1001
-312.5 421.875 1543
335.938 -78.125 1025
-421.875 70.3125 959
359.375 85.9375 1165
476.562 187.5 1126
453.125 70.3125 1236
343.75 85.9375 1169
-320.312 -218.75 1028
-93.75 85.9375 946
70.3125 -148.438 1197
15.625 203.125 887
46.875 62.5 989
-203.125 140.625 896
-375 203.125 867
140.625 -93.75 1370
-382.812 31.25 962
-85.9375 -320.312 3092
0 -203.125 1255
-335.938 -140.625 1073
-242.188 289.062 898
429.688 78.125 1223
398.438 78.125 1145
421.875 78.125 1134
398.438 70.3125 1138
15.625 164.062 913
-242.188 -93.75 946
-218.75 -117.188 1041
-289.062 -226.562 1054
-62.5 281.25 841
-164.062 -328.125 3120
-164.062 250 847
-109.375 257.812 847
-382.812 -117.188 887
-500 -78.125 871
-398.438 -109.375 871
-54.6875 289.062 841
-109.375 140.625 906
7.8125 242.188 858
23.4375 171.875 908
70.3125 -46.875 1084
0 273.438 837
23.4375 85.9375 973
-187.5 39.0625 1001
-210.938 132.812 906
-320.312 367.188 943
-406.25 39.0625 970
148.438 -289.062 3064
39.0625 93.75 967
460.938 0 1060
203.125 -39.0625 1322
-390.625 312.5 959
-273.438 -109.375 1010
492.188 -101.562 973
-195.312 70.3125 923
-304.688 -101.562 954
54.6875 -62.5 1097
-140.625 250 849
-359.375 367.188 943
-281.25 -187.5 992
-15.625 390.625 943
179.688 31.25 1250
-375 -226.562 1004
-296.875 -101.562 951
-359.375 -132.812 1067
-343.75 -132.812 1073
-132.812 250 851
-132.812 46.875 915
-257.812 -109.375 998
-257.812 -101.562 1001
-406.25 -70.3125 880
-226.562 132.812 925
-328.125 -203.125 1031
-31.25 -312.5 3092
-31.25 -312.5 3092
-468.75 -117.188 875
-7.8125 289.062 837
-15.625 437.5 933
-406.25 -140.625 889
-234.375 140.625 920
-492.188 -117.188 875
39.0625 117.188 946
-484.375 179.688 878
-257.812 -242.188 1112
-320.312 -117.188 981
-125 39.0625 1010
-210.938 101.562 943
-328.125 210.938 862
-234.375 242.188 851
187.5 0 1278
281.25 78.125 1173
-257.812 -117.188 998
7.8125 195.312 891
-164.062 257.812 847
-375 -335.938 998
-93.75 -320.312 3092
-210.938 117.188 938
-273.438 234.375 856
-453.125 -273.438 1044
54.6875 -93.75 1130
-375 -15.625 923
15.625 195.312 891
0 289.062 837
-320.312 -78.125 962
-468.75 179.688 875
-156.25 257.812 845
46.875 -15.625 1057
234.375 453.125 913
-343.75 390.625 1572
39.0625 85.9375 970
-15.625 445.312 933
328.125 -78.125 1028
0 210.938 880
62.5 -109.375 1145
-187.5 242.188 847
23.4375 164.062 908
-171.875 289.062 880
-148.438 -328.125 3092
-398.438 195.312 867
-210.938 156.25 875
-304.688 -187.5 987
23.4375 93.75 962
7.8125 312.5 869
46.875 429.688 920
-312.5 -31.25 975
-203.125 156.25 880
328.125 289.062 1028
-421.875 335.938 948
54.6875 23.4375 1022
-468.75 320.312 951
-429.688 -31.25 913
-7.8125 328.125 878
-343.75 359.375 943
-328.125 -195.312 1034
-468.75 -46.875 898
-445.312 -148.438 889
-476.562 382.812 1273
-351.562 -265.625 1010
195.312 -85.9375 1354
-500 -140.625 885
-445.312 7.8125 946
203.125 -265.625 3037
-218.75 109.375 943
-492.188 -31.25 913
-484.375 -117.188 873
-218.75 101.562 946
437.5 -7.8125 1060
-414.062 -85.9375 869
-320.312 -132.812 992
-476.562 -460.938 2744
-312.5 -93.75 954
-148.438 250 847
-257.812 -335.938 3092
93.75 -296.875 3092
31.25 156.25 915
335.938 -203.125 943
-234.375 -335.938 3092
31.25 39.0625 1004
195.312 -281.25 3037
-414.062 -101.562 867
-304.688 -109.375 946
-414.062 39.0625 973
-156.25 406.25 935
421.875 23.4375 1087
-93.75 -257.812 3178
-164.062 93.75 908
335.938 265.625 1028
164.062 31.25 1241
39.0625 109.375 948
-453.125 187.5 869
46.875 46.875 995
453.125 -39.0625 1028
-156.25 242.188 851
-484.375 -195.312 1421
39.0625 -304.688 3092
-320.312 -265.625 1025
70.3125 -125 1161
-343.75 -250 1010
15.625 250 851
-375 -265.625 1004
-179.688 78.125 925
-226.562 -335.938 3092
187.5 445.312 915
7.8125 218.75 871
195.312 -31.25 1312
-226.562 234.375 851
140.625 445.312 915
-242.188 -242.188 1268
234.375 -273.438 3037
85.9375 437.5 918
-140.625 421.875 938
281.25 -234.375 973
367.188 250 984
-500 -117.188 871
-437.5 -312.5 1041
-367.188 398.438 1557
-148.438 406.25 933
-195.312 117.188 901
-257.812 -109.375 989
62.5 -101.562 1138
328.125 -203.125 946
-203.125 242.188 849
429.688 7.8125 1070
203.125 -62.5 1349
0 226.562 867
-351.562 -164.062 1054
-296.875 218.75 856
-289.062 -148.438 998
-500 304.688 951
-476.562 -78.125 875
-398.438 343.75 946
-390.625 -343.75 1044
-7.8125 304.688 849
140.625 -289.062 3092
-328.125 -156.25 995
62.5 -156.25 1197
-46.875 265.625 843
210.938 117.188 1169
-406.25 -273.438 1001
414.062 39.0625 1105
-359.375 351.562 943
-320.312 -179.688 992
-437.5 -218.75 1013
-500 -15.625 925
-500 312.5 948
-250 226.562 856
-218.75 -117.188 1031
-312.5 -148.438 995
7.8125 234.375 862
-429.688 335.938 951
304.688 -210.938 951
39.0625 -296.875 3120
429.688 -179.688 933
-492.188 171.875 875
-328.125 398.438 1564
-312.5 -210.938 984
78.125 -101.562 1134
-78.125 -320.312 3092
-296.875 -101.562 948
23.4375 156.25 915
31.25 125 938
-109.375 273.438 841
218.75 62.5 1193
46.875 -54.6875 1084
-382.812 390.625 1404
-234.375 148.438 875
-273.438 -140.625 1001
-15.625 351.562 915
406.25 54.6875 1123
39.0625 23.4375 1019
445.312 -23.4375 1044
-210.938 125 903
-195.312 -250 3120
-343.75 -140.625 1084
289.062 -289.062 1038
359.375 -304.688 1108
343.75 -78.125 1016
-375 -171.875 1031
-140.625 117.188 913
-164.062 265.625 847
195.312 -7.8125 1283
-132.812 -242.188 3120
-296.875 -226.562 1050
-312.5 367.188 940
-78.125 109.375 946
7.8125 203.125 882
54.6875 15.625 1025
-23.4375 -312.5 3092
-234.375 15.625 1016
-195.312 187.5 871
-7.8125 375 951
421.875 -179.688 930
-437.5 31.25 967
179.688 39.0625 1232
46.875 -62.5 1094
-375 382.812 1564
62.5 54.6875 1001
46.875 62.5 984
-54.6875 382.812 943
-210.938 -125 1047
-359.375 -164.062 1047
-468.75 -226.562 1044
265.625 453.125 913
-445.312 31.25 967
-468.75 -359.375 3010
-179.688 398.438 935
390.625 -187.5 935
-390.625 -320.312 1001
109.375 -289.062 3120
-414.062 -46.875 898
-179.688 54.6875 915
242.188 70.3125 1185
-203.125 -46.875 1016
-15.625 -312.5 3092
-132.812 -320.312 3120
398.438 -187.5 933
15.625 156.25 915
-390.625 39.0625 973
23.4375 78.125 973
-304.688 -234.375 1041
0 343.75 903
-70.3125 281.25 839
-218.75 78.125 923
-140.625 54.6875 908
460.938 -54.6875 1013
-304.688 -195.312 987
367.188 -62.5 1019
-281.25 -195.312 998
23.4375 117.188 943
-484.375 -46.875 901
-281.25 -78.125 946
-289.062 -250 1057
62.5 -117.188 1153
437.5 -7.8125 1060
-437.5 335.938 954
-195.312 195.312 880
-414.062 0 938
-289.062 -281.25 1067
0 281.25 837
-429.688 343.75 954
-117.188 257.812 843
-492.188 273.438 970
335.938 -62.5 1031
-453.125 -265.625 1028
70.3125 -62.5 1090
-250 -335.938 3092
351.562 -62.5 1028
31.25 156.25 915
-7.8125 351.562 915
148.438 -289.062 3064
320.312 -78.125 1031
-335.938 -164.062 1060
39.0625 109.375 948
335.938 85.9375 1169
437.5 101.562 1197
-140.625 78.125 906
-367.188 -109.375 908
-312.5 -343.75 3092
203.125 70.3125 1210
31.25 148.438 920
-382.812 23.4375 954
-31.25 437.5 933
15.625 148.438 920
-460.938 179.688 871
-218.75 85.9375 925
-148.438 -171.875 1206
-171.875 -234.375 1268
-289.062 218.75 856
46.875 54.6875 992
382.812 -289.062 1108
203.125 -31.25 1307
-492.188 -109.375 864
31.25 117.188 943
-328.125 234.375 864
-250 148.438 910
-328.125 -171.875 1063
-257.812 0 1028
-437.5 15.625 954
-414.062 382.812 1338
31.25 164.062 910
-453.125 -31.25 913
15.625 125 938
-398.438 -304.688 1004
304.688 -250 981
-390.625 -242.188 998
-289.062 46.875 984
-23.4375 -234.375 3092
-382.812 -226.562 1004
-468.75 -335.938 3037
-203.125 234.375 851
-429.688 31.25 964
-500 -140.625 885
62.5 -125 1157
-414.062 -109.375 867
468.75 -39.0625 1025
-226.562 70.3125 970
-281.25 -242.188 1073
-218.75 140.625 875
398.438 70.3125 1141
-343.75 -179.688 1038
429.688 7.8125 1070
-320.312 398.438 1564
-382.812 398.438 1398
-101.562 -218.75 1255
-367.188 203.125 860
85.9375 -210.938 3064
-414.062 195.312 867
-492.188 -101.562 864
46.875 78.125 975
492.188 -125 951
-250 -101.562 940
-375 -250 1001
-140.625 31.25 1004
-414.062 -78.125 873
-289.062 -242.188 1057
-296.875 -140.625 1004
-437.5 70.3125 954
-203.125 -132.812 1047
-437.5 359.375 1343
187.5 281.25 1028
-437.5 -7.8125 928
-93.75 -218.75 1264
343.75 289.062 1004
-304.688 -343.75 3092
-406.25 -78.125 873
351.562 85.9375 1169
46.875 -23.4375 1057
468.75 0 1307
23.4375 109.375 948
-312.5 -218.75 987
421.875 23.4375 1087
62.5 0 1041
-93.75 257.812 843
-15.625 437.5 935
39.0625 -23.4375 1054
-343.75 -148.438 1080
-171.875 171.875 862
7.8125 164.062 910
-406.25 -31.25 910
31.25 62.5 987
31.25 62.5 987
23.4375 148.438 920
101.562 -296.875 3092
-398.438 -273.438 1001
-187.5 70.3125 930
-78.125 281.25 841
367.188 85.9375 1169
-257.812 -187.5 1038
7.8125 296.875 839
-164.062 125 901
187.5 -7.8125 1283
-70.3125 265.625 841
-265.625 -101.562 940
390.625 78.125 1145
210.938 265.625 1044
203.125 -242.188 3120
-226.562 85.9375 956
-460.938 -265.625 1034
-257.812 226.562 856
-195.312 85.9375 925
-148.438 421.875 938
-273.438 -187.5 1007
54.6875 -109.375 1145
46.875 39.0625 1004
-500 -101.562 864
70.3125 54.6875 1001
-296.875 54.6875 973
429.688 -15.625 1044
-203.125 78.125 925
39.0625 101.562 956
-468.75 -109.375 864
-343.75 -234.375 1019
-335.938 -117.188 978
-296.875 -101.562 948
-484.375 23.4375 964
54.6875 -117.188 1153
54.6875 203.125 1080
-265.625 -117.188 998
-281.25 -187.5 998
0 273.438 837
-218.75 109.375 943
351.562 -78.125 1016
-398.438 -101.562 869
-7.8125 242.188 854
7.8125 226.562 864
-125 78.125 913
23.4375 429.688 923
203.125 -281.25 3037
-7.8125 265.625 843
31.25 70.3125 978
-179.688 242.188 849
-281.25 242.188 858
132.812 -281.25 3120
-218.75 -335.938 3092
484.375 -109.375 964
187.5 54.6875 1219
-187.5 140.625 894
-390.625 -70.3125 887
-468.75 -125 880
23.4375 156.25 915
-15.625 273.438 837
-156.25 125 903
-7.8125 289.062 837
-445.312 -281.25 1022
-164.062 -234.375 1268
-289.062 -101.562 943
-218.75 234.375 851
31.25 148.438 920
-156.25 -328.125 3092
7.8125 234.375 862
-226.562 -335.938 3092
-242.188 234.375 851
-281.25 -179.688 998
-140.625 406.25 930
7.8125 171.875 903
-414.062 -273.438 1004
31.25 171.875 906
-156.25 117.188 903
414.062 39.0625 1105
0 203.125 880
-312.5 218.75 856
78.125 -101.562 1134
-171.875 93.75 908
7.8125 187.5 894
-429.688 187.5 869
-39.0625 375 948
70.3125 -156.25 1202
39.0625 31.25 1013
-210.938 132.812 891
460.938 -39.0625 1025
15.625 140.625 925
-70.3125 257.812 843
-437.5 -250 1010
46.875 -70.3125 1105
-7.8125 250 849
476.562 -101.562 975
-500 -93.75 864
-320.312 -125 987
-484.375 -195.312 1421
-7.8125 -312.5 3120
-140.625 -328.125 3092
0 265.625 841
-304.688 -218.75 987
421.875 15.625 1080
-179.688 148.438 894
-468.75 -15.625 925
-15.625 281.25 837
-492.188 -140.625 887
156.25 -289.062 3064
-296.875 -226.562 1050
187.5 7.8125 1264
39.0625 15.625 1025
179.688 23.4375 1250
203.125 453.125 913
-375 -343.75 1047
-148.438 -328.125 3092
-234.375 -109.375 1019
-500 -85.9375 871
-15.625 343.75 903
15.625 195.312 887
39.0625 78.125 973
46.875 31.25 1013
-156.25 109.375 906
281.25 453.125 913
203.125 -54.6875 1333
31.25 117.188 943
-351.562 398.438 1564
-187.5 398.438 935
-15.625 -312.5 3092
-390.625 -164.062 1038
195.312 -39.0625 1317
-156.25 390.625 933
-109.375 257.812 843
-7.8125 296.875 841
-375 -15.625 935
210.938 -70.3125 1354
39.0625 -15.625 1050
39.0625 -31.25 1063
-367.188 351.562 943
320.312 93.75 1185
-242.188 -109.375 1019
-398.438 -109.375 871
382.812 93.75 1177
-382.812 -156.25 1047
46.875 -304.688 3092
-101.562 273.438 841
-218.75 -328.125 3120
-250 -187.5 1034
-460.938 -132.812 882
-312.5 -234.375 1034
210.938 -62.5 1101
117.188 312.5 1004
-281.25 -125 1004
-70.3125 -320.312 3092
156.25 312.5 1004
476.562 -93.75 981
39.0625 54.6875 989
359.375 -62.5 1025
-296.875 -343.75 3064
-406.25 -23.4375 918
-289.062 -257.812 1057
-375 -7.8125 935
-85.9375 257.812 843
15.625 187.5 894
-210.938 85.9375 925
-164.062 62.5 908
23.4375 203.125 882
445.312 -31.25 1034
-343.75 -125 1141
-78.125 -320.312 3092
125 156.25 1123
54.6875 -78.125 1108
62.5 46.875 1007
-289.062 -140.625 1001
-203.125 125 903
23.4375 101.562 954
-453.125 179.688 871
-195.312 -328.125 3120
382.812 257.812 970
62.5 -132.812 1169
-234.375 -242.188 1268
-484.375 7.8125 948
-296.875 -62.5 987
-406.25 -140.625 894
-500 187.5 873
-500 257.812 964
-437.5 -78.125 873
-7.8125 281.25 835
-484.375 -78.125 878
453.125 125 1173
-125 132.812 906
54.6875 7.8125 1028
-226.562 -320.312 3149
351.562 -296.875 1108
-265.625 421.875 1557
-140.625 85.9375 913
-406.25 218.75 871
-164.062 140.625 901
187.5 -15.625 1292
-289.062 421.875 1543
-265.625 -101.562 940
-421.875 187.5 869
31.25 109.375 948
109.375 -296.875 3037
335.938 93.75 1181
-406.25 -132.812 885
-429.688 -218.75 1013
-304.688 226.562 854
-289.062 -343.75 3064
335.938 312.5 1010
31.25 31.25 1013
70.3125 -70.3125 1101
23.4375 164.062 908
218.75 -70.3125 1084
203.125 -62.5 1349
0 273.438 837
218.75 -265.625 3064
46.875 70.3125 981
0 335.938 889
39.0625 101.562 956
23.4375 148.438 920
187.5 39.0625 1232
-15.625 382.812 946
-171.875 242.188 851
367.188 -195.312 938
406.25 148.438 1149
187.5 31.25 1245
-343.75 -156.25 1067
-15.625 445.312 935
-164.062 93.75 908
31.25 148.438 920
-203.125 -140.625 1044
257.812 -195.312 987
-476.562 328.125 943
-460.938 -7.8125 933
-476.562 -62.5 885
-281.25 -171.875 998
-132.812 265.625 843
187.5 -7.8125 1283
-226.562 125 925
-398.438 -203.125 1010
-476.562 312.5 951
-15.625 335.938 889
195.312 -15.625 1292
429.688 -296.875 2812
-304.688 -187.5 987
31.25 156.25 915
296.875 -218.75 954
70.3125 -296.875 3120
-156.25 93.75 910
468.75 -78.125 989
-156.25 -125 1149
-382.812 23.4375 954
273.438 -179.688 978
46.875 46.875 995
-335.938 210.938 858
-343.75 382.812 1586
-437.5 54.6875 967
-382.812 -39.0625 908
39.0625 109.375 948
31.25 140.625 928
-171.875 414.062 940
31.25 -195.312 1250
-375 -117.188 891
-23.4375 390.625 938
-429.688 -78.125 873
-367.188 382.812 1572
85.9375 -70.3125 1101
-203.125 85.9375 925
-164.062 132.812 901
-359.375 -171.875 1038
0 265.625 841
-500 -70.3125 882
-421.875 -148.438 887
-242.188 -109.375 1019
-421.875 -62.5 887
460.938 -62.5 1007
-343.75 93.75 940
-156.25 187.5 889
492.188 -132.812 948
210.938 -281.25 3010
429.688 0 1063
468.75 203.125 1105
31.25 23.4375 1019
-257.812 -304.688 3149
-93.75 -218.75 1264
-296.875 429.688 1536
54.6875 -304.688 3092
54.6875 -85.9375 1119
-343.75 -171.875 1047
-195.312 179.688 869
-460.938 367.188 1322
390.625 101.562 1193
-421.875 23.4375 956
-304.688 -125 1010
-195.312 62.5 925
-125 85.9375 920
-273.438 62.5 973
-210.938 -39.0625 1016
156.25 -93.75 1370
-351.562 -156.25 1060
-414.062 -125 875
-492.188 -195.312 1410
-406.25 -125 875
-187.5 -125 975
-445.312 328.125 951
0 257.812 843
-226.562 78.125 923
70.3125 -179.688 1232
-210.938 156.25 875
39.0625 -39.0625 1067
-351.562 -101.562 1112
39.0625 0 1038
-242.188 -335.938 3092
-453.125 -328.125 1044
453.125 -46.875 1022
390.625 -296.875 1101
15.625 -226.562 3064
398.438 62.5 1134
46.875 -78.125 1108
203.125 -156.25 2908
-429.688 -226.562 1007
-492.188 -226.562 2432
31.25 54.6875 992
328.125 -85.9375 1019
-265.625 -109.375 989
-226.562 -15.625 1025
-335.938 -132.812 989
-109.375 273.438 841
-250 -7.8125 1028
-289.062 -218.75 987
-328.125 -195.312 1034
-132.812 -328.125 3092
-101.562 101.562 940
320.312 -78.125 1031
-390.625 195.312 867
-195.312 234.375 851
-195.312 234.375 851
-234.375 -101.562 948
23.4375 70.3125 978
-414.062 46.875 975
414.062 78.125 1141
-468.75 -234.375 1044
0 328.125 880
-382.812 -335.938 1019
-70.3125 -312.5 3092
7.8125 195.312 887
-289.062 -273.438 1060
-382.812 -273.438 1001
15.625 132.812 930
367.188 250 984
-257.812 -109.375 989
31.25 101.562 954
-187.5 125 896
31.25 46.875 995
46.875 -85.9375 1119
62.5 -117.188 1153
-382.812 -203.125 1010
62.5 -125 1157
-289.062 -226.562 1063
304.688 -226.562 959
23.4375 140.625 928
-289.062 -156.25 998
-445.312 15.625 954
7.8125 281.25 837
203.125 -70.3125 1354
-343.75 -273.438 1016
289.062 -335.938 2859
343.75 -70.3125 1022
-406.25 -273.438 1001
39.0625 70.3125 978
-335.938 218.75 858
-179.688 70.3125 915
46.875 -39.0625 1067
-15.625 289.062 837
-242.188 132.812 920
0 195.312 887
-281.25 -343.75 3064
39.0625 23.4375 1019
-289.062 -265.625 1057
-164.062 85.9375 915
-7.8125 234.375 860
-320.312 -171.875 995
7.8125 226.562 864
195.312 -23.4375 1302
-484.375 -125 880
195.312 -39.0625 1317
-304.688 -312.5 1060
31.25 109.375 948
148.438 445.312 915
0 234.375 862
476.562 -265.625 1047
195.312 -46.875 1328
39.0625 93.75 962
-265.625 226.562 854
7.8125 218.75 871
-226.562 -117.188 1028
195.312 218.75 1080
-468.75 226.562 913
39.0625 7.8125 1028
179.688 7.8125 1264
-148.438 78.125 906
-328.125 210.938 858
-398.438 -187.5 1016
-421.875 -335.938 1028
320.312 -304.688 1063
-187.5 257.812 849
39.0625 117.188 946
-343.75 -296.875 1019
-148.438 109.375 908
-445.312 -195.312 1028
-156.25 109.375 906
-390.625 -62.5 891
7.8125 179.688 896
-273.438 -101.562 940
-203.125 -156.25 1025
-390.625 -101.562 875
-250 140.625 915
437.5 -15.625 1047
-289.062 -250 1057
-328.125 -117.188 978
0 187.5 894
-476.562 -46.875 901
31.25 62.5 987
-437.5 -31.25 913
-15.625 445.312 935
39.0625 -7.8125 1044
23.4375 93.75 962
203.125 -46.875 1328
39.0625 85.9375 967
-476.562 -414.062 2883
46.875 31.25 1013
62.5 -289.062 3120
-312.5 -39.0625 975
281.25 -335.938 2859
-335.938 -140.625 989
203.125 -39.0625 1312
46.875 -31.25 1063
-203.125 140.625 894
-453.125 -210.938 1028
-164.062 265.625 847
62.5 -93.75 1126
-476.562 15.625 954
-15.625 320.312 871
-234.375 390.625 940
-210.938 125 903
0 218.75 871
-203.125 -54.6875 1007
382.812 -234.375 973
-226.562 -125 1031
-179.688 132.812 896
-312.5 -343.75 3092
-7.8125 257.812 845
343.75 312.5 1007
-445.312 -140.625 889
0 -312.5 3120
312.5 -210.938 951
-289.062 -125 1007
-101.562 429.688 935
-375 -125 891
-484.375 328.125 951
-460.938 23.4375 959
-203.125 -101.562 959
70.3125 -171.875 1219
31.25 -273.438 3178
195.312 -281.25 3037
-296.875 -171.875 995
-304.688 -234.375 1041
-179.688 54.6875 915
-421.875 343.75 951
-187.5 164.062 864
-210.938 101.562 903
70.3125 -164.062 1206
445.312 -31.25 1034
-265.625 31.25 998
23.4375 85.9375 967
437.5 -7.8125 1060
15.625 179.688 898
-85.9375 -320.312 3092
-23.4375 367.188 956
62.5 -39.0625 1073
0 210.938 878
-203.125 -148.438 1031
-453.125 -343.75 3064
-15.625 312.5 860
-343.75 -156.25 1067
-15.625 328.125 878
-492.188 -15.625 925
375 85.9375 1161
23.4375 148.438 920
-421.875 -31.25 913
-281.25 -101.562 943
0 250 849
31.25 140.625 928
46.875 -46.875 1080
39.0625 78.125 973
-281.25 -179.688 998
-218.75 132.812 891
-437.5 -257.812 1010
-187.5 46.875 989
414.062 -273.438 1016
7.8125 148.438 920
304.688 85.9375 1181
78.125 -187.5 1241
-132.812 140.625 913
-335.938 -203.125 1031
-23.4375 375 948
-484.375 273.438 970
-328.125 -187.5 1041
-492.188 390.625 1250
-117.188 414.062 933
335.938 -70.3125 1025
312.5 125 1169
-414.062 -117.188 871
-460.938 187.5 869
-195.312 78.125 925
7.8125 210.938 878
23.4375 210.938 878
-273.438 -132.812 1004
195.312 335.938 992
93.75 -296.875 3092
-421.875 31.25 964
-500 -195.312 1410
-210.938 -335.938 3092
-398.438 -101.562 869
179.688 445.312 915
406.25 46.875 1112
-468.75 -312.5 1044
187.5 15.625 1255
-335.938 15.625 1007
7.8125 140.625 925
23.4375 62.5 987
445.312 -23.4375 1044
453.125 -39.0625 1028
421.875 23.4375 1087
-390.625 414.062 1410
-218.75 70.3125 923
-15.625 367.188 956
-78.125 281.25 841
-15.625 437.5 935
-304.688 335.938 948
-109.375 93.75 940
-304.688 -179.688 992
46.875 39.0625 1004
-179.688 39.0625 995
-296.875 -296.875 1057
-226.562 117.188 933
406.25 78.125 1141
187.5 -15.625 1292
406.25 93.75 1149
7.8125 273.438 837
-382.812 -132.812 889
31.25 15.625 1025
-23.4375 359.375 915
-164.062 101.562 903
46.875 46.875 995
15.625 117.188 943
-328.125 46.875 975
320.312 273.438 1041
328.125 85.9375 1173
476.562 -171.875 933
-132.812 85.9375 913
31.25 101.562 954
-390.625 -70.3125 887
-359.375 203.125 862
382.812 203.125 1097
-382.812 15.625 948
-148.438 46.875 908
296.875 -335.938 2859
-289.062 -218.75 987
-382.812 -31.25 918
23.4375 179.688 898
-304.688 -210.938 987
-406.25 -125 875
-312.5 -140.625 995
39.0625 85.9375 967
-210.938 -132.812 1054
-148.438 39.0625 908
-15.625 343.75 903
-398.438 -93.75 871
-195.312 -335.938 3092
-7.8125 218.75 871
-148.438 85.9375 913
-132.812 31.25 1004
414.062 31.25 1097
-453.125 -351.562 3064
-140.625 62.5 906
-468.75 -335.938 3037
46.875 62.5 984
-414.062 -62.5 889
31.25 39.0625 1004
367.188 250 984
7.8125 171.875 903
31.25 132.812 933
-226.562 -117.188 1028
468.75 -78.125 989
23.4375 140.625 928
-414.062 -39.0625 906
-335.938 -218.75 1022
15.625 109.375 948
-343.75 -203.125 1022
-500 -31.25 910
-218.75 93.75 928
-281.25 -156.25 1001
414.062 -226.562 970
-117.188 101.562 925
-187.5 148.438 891
-289.062 -101.562 943
-375 0 940
398.438 85.9375 1149
-351.562 -250 1010
0 312.5 862
-281.25 -164.062 1001
-203.125 406.25 940
179.688 23.4375 1250
-39.0625 367.188 956
-468.75 289.062 964
15.625 171.875 906
62.5 -140.625 1177
-289.062 -132.812 1004
-453.125 -328.125 1044
39.0625 70.3125 978
-335.938 -125 989
62.5 -132.812 1169
-203.125 70.3125 925
-375 -7.8125 935
-406.25 -117.188 873
-156.25 101.562 906
179.688 15.625 1259
-195.312 101.562 903
31.25 54.6875 992
54.6875 -93.75 1126
-140.625 78.125 906
-39.0625 296.875 849
-125 250 847
-312.5 -203.125 984
-7.8125 226.562 867
-320.312 -164.062 992
-343.75 -281.25 1016
62.5 257.812 1041
-296.875 -132.812 1019
195.312 -46.875 1328
-7.8125 296.875 841
39.0625 62.5 984
-15.625 281.25 837
15.625 93.75 962
203.125 -70.3125 1354
-281.25 -117.188 1004
-15.625 335.938 889
0 320.312 873
-23.4375 281.25 837
320.312 -78.125 1031
-437.5 367.188 1343
367.188 -70.3125 1016
-7.8125 -312.5 3120
46.875 31.25 1013
-304.688 -343.75 3092
-265.625 -125 1010
476.562 -179.688 938
23.4375 132.812 930
-218.75 -125 1038
-195.312 148.438 891
437.5 -15.625 1047
195.312 -31.25 1312
351.562 -70.3125 1019
187.5 -31.25 1307
-398.438 -85.9375 873
-484.375 -31.25 913
39.0625 -304.688 3092
54.6875 -125 1157
7.8125 156.25 915
-195.312 171.875 867
23.4375 78.125 973
-500 -343.75 3149
429.688 0 1063
-140.625 31.25 1004
-304.688 -226.562 987
-234.375 148.438 875
-289.062 -109.375 1013
-437.5 7.8125 946
-492.188 -343.75 3037
-453.125 -109.375 867
-335.938 375 948
-289.062 -203.125 989
-15.625 328.125 878
39.0625 78.125 973
-125 -328.125 3092
-304.688 -46.875 981
31.25 93.75 962
0 242.188 854
-226.562 -242.188 1268
46.875 7.8125 1028
453.125 -46.875 1022
101.562 46.875 1219
23.4375 -304.688 3120
484.375 -117.188 959
54.6875 -85.9375 1119
46.875 23.4375 1019
-398.438 23.4375 954
-109.375 406.25 928
-382.812 -273.438 1001
-390.625 31.25 964
171.875 15.625 1259
-85.9375 85.9375 948
421.875 15.625 1080
23.4375 171.875 906
-218.75 132.812 891
-382.812 7.8125 940
312.5 85.9375 1173
179.688 31.25 1241
-70.3125 273.438 839
-195.312 140.625 894
0 226.562 867
54.6875 -7.8125 1044
15.625 140.625 925
-367.188 -132.812 896
320.312 281.25 1034
351.562 -242.188 981
-289.062 -218.75 987
15.625 125 938
265.625 31.25 1138
-437.5 -304.688 1034
-210.938 -296.875 3208
15.625 179.688 898
-164.062 62.5 908
-210.938 117.188 906
-164.062 179.688 894
-359.375 359.375 943
460.938 -62.5 1007
39.0625 31.25 1013
7.8125 210.938 878
-351.562 390.625 1564
-289.062 -210.938 987
-15.625 257.812 845
15.625 101.562 956
-421.875 -78.125 873
-132.812 46.875 910
-7.8125 304.688 849
31.25 125 938
7.8125 281.25 837
445.312 -31.25 1034
-484.375 -46.875 901
-312.5 -109.375 954
-382.812 -46.875 906
-382.812 367.188 954
-437.5 -320.312 1022
-296.875 -234.375 1057
406.25 46.875 1112
-140.625 46.875 910
429.688 -7.8125 1067
-343.75 -164.062 1070
-148.438 46.875 906
492.188 -132.812 948
31.25 46.875 992
-15.625 289.062 841
39.0625 93.75 943
-31.25 398.438 933
-390.625 -54.6875 906
-281.25 -125 995
31.25 101.562 948
70.3125 -179.688 1219
-109.375 101.562 946
179.688 7.8125 1255
54.6875 -54.6875 1077
187.5 -23.4375 1292
437.5 -179.688 930
-218.75 109.375 906
-148.438 39.0625 913
-140.625 109.375 910
0 312.5 878
-289.062 -453.125 2835
-140.625 101.562 913
-359.375 -265.625 1007
0 250 845
-445.312 -304.688 1028
31.25 109.375 943
398.438 62.5 1138
-140.625 70.3125 906
-351.562 -234.375 1013
-382.812 -265.625 998
-226.562 148.438 875
-320.312 -265.625 1028
296.875 -15.625 1084
-171.875 140.625 903
-164.062 -234.375 1268
-132.812 132.812 903
7.8125 265.625 837
39.0625 0 1028
46.875 31.25 1004
-281.25 -171.875 1004
-250 23.4375 998
7.8125 164.062 906
-335.938 -210.938 1031
-421.875 -101.562 860
-195.312 164.062 862
0 203.125 875
-320.312 -250 1028
23.4375 171.875 896
-484.375 -7.8125 940
-171.875 156.25 901
-171.875 156.25 901
-289.062 -195.312 995
242.188 -54.6875 1077
453.125 -171.875 930
-359.375 421.875 1529
-281.25 -117.188 998
7.8125 203.125 878
-492.188 -156.25 887
-484.375 -62.5 891
-78.125 281.25 845
-414.062 -23.4375 920
-382.812 -23.4375 933
-500 -101.562 862
-101.562 421.875 933
-406.25 -312.5 998
54.6875 -101.562 1123
7.8125 273.438 837
-476.562 -203.125 1070
-335.938 -148.438 992
-437.5 -85.9375 871
-164.062 117.188 903
-265.625 -109.375 943
390.625 70.3125 1141
-7.8125 242.188 849
-226.562 156.25 878
-242.188 78.125 956
62.5 -148.438 1181
46.875 15.625 1016
-210.938 156.25 871
-289.062 -203.125 992
-414.062 -70.3125 882
484.375 -242.188 1007
23.4375 164.062 903
-500 62.5 940
-289.062 -226.562 987
-429.688 -273.438 1004
203.125 -78.125 1354
-468.75 -140.625 880
-468.75 -140.625 880
-281.25 -156.25 1019
-421.875 -85.9375 873
23.4375 132.812 925
31.25 7.8125 1019
-265.625 -101.562 943
39.0625 78.125 967
484.375 -250 1019
-164.062 187.5 882
46.875 -54.6875 1077
414.062 31.25 1101
-437.5 0 943
31.25 0 1028
7.8125 132.812 925
-406.25 -218.75 1007
328.125 -78.125 1028
320.312 -78.125 1028
171.875 23.4375 1241
-289.062 -132.812 1001
62.5 -187.5 1227
-406.25 -132.812 875
0 242.188 849
-398.438 -257.812 995
195.312 -54.6875 1322
-445.312 367.188 1343
-23.4375 445.312 1038
39.0625 70.3125 973
-7.8125 289.062 841
15.625 117.188 935
-265.625 -85.9375 943
39.0625 -7.8125 1034
39.0625 85.9375 946
320.312 289.062 1022
-398.438 -85.9375 882
-335.938 -171.875 1063
-390.625 -234.375 1004
15.625 171.875 898
-218.75 132.812 880
-390.625 -226.562 1004
-406.25 -117.188 867
195.312 -46.875 1317
-359.375 -117.188 1115
-421.875 -39.0625 910
-304.688 -257.812 1044
-335.938 -156.25 995
-406.25 -15.625 923
-15.625 250 845
-203.125 85.9375 913
179.688 15.625 1250
-7.8125 296.875 851
101.562 -296.875 3092
-328.125 -140.625 989
171.875 7.8125 1255
31.25 93.75 956
-468.75 -132.812 875
-460.938 -46.875 903
-242.188 132.812 871
-15.625 312.5 869
31.25 31.25 1004
-320.312 -156.25 995
7.8125 257.812 841
39.0625 54.6875 984
406.25 -226.562 959
-273.438 375 938
-218.75 -125 964
359.375 273.438 981
-382.812 31.25 967
179.688 31.25 1236
-250 -328.125 3120
46.875 39.0625 1001
171.875 31.25 1236
0 171.875 896
31.25 23.4375 1013
-132.812 31.25 1001
62.5 -195.312 1236
-203.125 117.188 898
15.625 164.062 903
179.688 23.4375 1241
70.3125 -187.5 1227
31.25 117.188 938
-304.688 -304.688 1057
54.6875 -304.688 3064
23.4375 164.062 903
-398.438 -78.125 885
31.25 125 935
109.375 -148.438 2835
-320.312 -109.375 954
0 304.688 862
179.688 54.6875 1214
-250 156.25 898
70.3125 -85.9375 1112
476.562 -257.812 1031
23.4375 179.688 891
0 195.312 882
-179.688 257.812 847
31.25 85.9375 962
-351.562 -140.625 1141
-382.812 218.75 869
-390.625 -62.5 896
-23.4375 273.438 835
187.5 0 1264
-15.625 273.438 837
-328.125 -148.438 995
23.4375 125 933
-187.5 -148.438 998
23.4375 70.3125 973
-218.75 78.125 925
-125 125 901
476.562 242.188 1067
31.25 132.812 930
0 343.75 913
140.625 414.062 928
-265.625 -109.375 943
-62.5 429.688 938
210.938 -265.625 3064
-140.625 -320.312 3120
46.875 -101.562 1123
-195.312 85.9375 908
-195.312 93.75 903
31.25 39.0625 998
335.938 289.062 1004
62.5 -140.625 1169
-93.75 93.75 943
-218.75 117.188 903
-234.375 398.438 946
-460.938 -226.562 1022
-468.75 -203.125 1054
-218.75 148.438 878
187.5 -15.625 1288
-429.688 359.375 1338
-226.562 101.562 938
156.25 -289.062 3064
312.5 -257.812 981
179.688 7.8125 1255
-390.625 -46.875 906
-429.688 242.188 923
328.125 289.062 1022
187.5 7.8125 1165
-460.938 -265.625 1022
-382.812 -257.812 998
-289.062 -195.312 995
-343.75 -164.062 1070
-328.125 -164.062 998
-437.5 304.688 954
-15.625 289.062 841
-273.438 -328.125 3120
46.875 23.4375 1013
0 164.062 903
179.688 46.875 1219
-312.5 -203.125 987
195.312 -23.4375 1138
-226.562 109.375 935
-398.438 -320.312 995
492.188 -179.688 933
-351.562 -132.812 1138
-445.312 54.6875 959
437.5 -23.4375 1047
273.438 0 1105
-171.875 62.5 908
-335.938 -109.375 973
328.125 273.438 1025
0 296.875 856
39.0625 101.562 946
421.875 15.625 1084
70.3125 -78.125 1105
367.188 250 973
-164.062 101.562 903
-320.312 421.875 1536
-210.938 -46.875 1016
0 179.688 894
-15.625 304.688 854
-234.375 0 1022
-476.562 -125 873
179.688 0 1264
46.875 -62.5 1084
-460.938 -289.062 1034
-179.688 54.6875 913
-7.8125 343.75 913
-7.8125 281.25 837
-15.625 281.25 837
-132.812 70.3125 910
-414.062 -140.625 882
-367.188 -304.688 1010
-468.75 -406.25 2859
7.8125 203.125 878
-15.625 -304.688 3120
-203.125 179.688 885
210.938 -70.3125 1349
476.562 -101.562 975
-218.75 85.9375 925
460.938 -70.3125 1004
23.4375 54.6875 984
-296.875 -289.062 1057
492.188 -140.625 938
195.312 -39.0625 1307
7.8125 125 933
0 234.375 856
-382.812 382.812 1557
296.875 93.75 1193
23.4375 164.062 903
187.5 -23.4375 1292
429.688 140.625 1149
7.8125 250 847
406.25 39.0625 1108
7.8125 195.312 882
46.875 -109.375 1130
421.875 7.8125 1073
-476.562 -453.125 2859
-148.438 31.25 913
351.562 -78.125 1019
-445.312 375 1343
-179.688 85.9375 906
-101.562 125 928
-148.438 101.562 913
-328.125 414.062 1543
31.25 109.375 943
-398.438 -78.125 885
-203.125 187.5 882
468.75 -93.75 984
39.0625 70.3125 973
-15.625 437.5 928
320.312 140.625 1145
-421.875 -109.375 860
-390.625 23.4375 959
-296.875 -140.625 1001
-15.625 320.312 878
-492.188 -7.8125 938
-250 390.625 943
-7.8125 210.938 871
-296.875 -250 1050
-460.938 -187.5 1050
468.75 -85.9375 987
-468.75 -265.625 1038
-203.125 125 898
23.4375 156.25 908
-406.25 -257.812 995
-351.562 -148.438 1070
437.5 -15.625 1050
-7.8125 273.438 837
-125 85.9375 935
-289.062 -164.062 995
7.8125 257.812 841
54.6875 -109.375 1134
-382.812 0 940
-164.062 109.375 903
7.8125 148.438 915
39.0625 -54.6875 1077
-226.562 125 896
-140.625 -328.125 3120
-289.062 -195.312 995
-296.875 -289.062 1057
-187.5 54.6875 915
31.25 93.75 956
-375 -335.938 1004
-468.75 -132.812 875
-421.875 -23.4375 920
23.4375 62.5 981
15.625 156.25 908
7.8125 156.25 908
15.625 85.9375 962
-320.312 382.812 1564
-226.562 171.875 889
-70.3125 265.625 837
-468.75 -85.9375 873
484.375 -234.375 998
-125 273.438 849
203.125 195.312 1097
-289.062 -187.5 998
-171.875 62.5 908
-445.312 -273.438 1010
-312.5 -312.5 1050
-234.375 -281.25 3208
-281.25 -148.438 998
31.25 85.9375 962
406.25 46.875 1112
-359.375 -171.875 1047
39.0625 -62.5 1087
-140.625 39.0625 913
-109.375 117.188 935
-7.8125 234.375 856
-367.188 -156.25 1060
-226.562 382.812 935
-23.4375 437.5 930
-289.062 -210.938 987
-15.625 296.875 849
-304.688 -312.5 1060
-7.8125 250 845
-406.25 250 923
23.4375 39.0625 998
-171.875 414.062 1452
-320.312 -320.312 1047
-375 -328.125 1004
-398.438 -70.3125 887
-7.8125 195.312 882
-500 367.188 1141
39.0625 46.875 989
31.25 117.188 938
-476.562 -93.75 867
492.188 -187.5 940
203.125 -62.5 1333
23.4375 125 933
-398.438 -156.25 891
-109.375 93.75 938
-148.438 125 920
-7.8125 265.625 839
-351.562 -171.875 1050
-148.438 85.9375 918
62.5 -195.312 1236
62.5 -195.312 1236
0 187.5 889
351.562 265.625 1001
-23.4375 343.75 913
-289.062 -203.125 992
156.25 0 1264
-210.938 85.9375 923
-117.188 257.812 841
-398.438 15.625 954
15.625 109.375 940
-15.625 265.625 837
320.312 -70.3125 1038
101.562 234.375 1054
23.4375 31.25 1004
343.75 -70.3125 1028
62.5 -148.438 1181
-382.812 -15.625 935
117.188 23.4375 1236
15.625 78.125 967
414.062 23.4375 1094
-468.75 -375 2958
39.0625 62.5 978
-187.5 93.75 901
-140.625 85.9375 918
-257.812 148.438 903
-304.688 -226.562 973
-242.188 156.25 898
62.5 -156.25 1185
-7.8125 328.125 889
7.8125 140.625 918
23.4375 117.188 935
-304.688 -109.375 946
-304.688 -164.062 992
-390.625 406.25 1415
187.5 46.875 1219
-312.5 -132.812 995
-7.8125 218.75 867
-148.438 406.25 935
-328.125 -132.812 981
-406.25 -46.875 901
-468.75 -46.875 901
195.312 -54.6875 1322
-242.188 234.375 849
-476.562 -15.625 930
31.25 -7.8125 1038
-296.875 -164.062 995
-218.75 93.75 943
445.312 -39.0625 1031
-390.625 31.25 970
-359.375 -140.625 1070
203.125 -78.125 1354
-320.312 -203.125 987
0 234.375 856
-265.625 -132.812 995
-296.875 234.375 858
250 265.625 1041
-7.8125 203.125 875
-437.5 -296.875 1016
203.125 -54.6875 1112
7.8125 265.625 837
15.625 164.062 903
-281.25 -140.625 995
-195.312 398.438 943
414.062 31.25 1101
-218.75 125 896
-453.125 -328.125 1038
31.25 78.125 967
-15.625 242.188 849
265.625 257.812 1050
-390.625 195.312 862
39.0625 -23.4375 1044
-234.375 117.188 928
179.688 0 1264
23.4375 156.25 908
-296.875 -148.438 1001
-328.125 210.938 856
-359.375 -164.062 1057
-39.0625 398.438 933
-351.562 -234.375 1013
-335.938 210.938 856
-23.4375 289.062 843
367.188 -70.3125 1019
23.4375 78.125 967
23.4375 171.875 896
-195.312 -132.812 973
-429.688 187.5 867
-289.062 -125 1001
15.625 203.125 878
0 289.062 843
179.688 39.0625 1227
195.312 54.6875 1206
375 312.5 995
-171.875 101.562 901
7.8125 195.312 882
-179.688 70.3125 915
-7.8125 343.75 913
-23.4375 328.125 889
-296.875 -132.812 1007
-312.5 -117.188 954
54.6875 -117.188 1141
-156.25 117.188 903
0 328.125 889
23.4375 148.438 915
-210.938 -140.625 1044
476.562 7.8125 1297
-453.125 359.375 1365
429.688 7.8125 1073
265.625 54.6875 1169
31.25 109.375 943
-7.8125 273.438 837
-468.75 -335.938 1041
39.0625 -70.3125 1090
-468.75 -328.125 1041
195.312 -62.5 1333
-109.375 273.438 843
-359.375 -250 1007
343.75 -289.062 1028
15.625 148.438 915
46.875 -70.3125 1090
46.875 15.625 1016
-195.312 257.812 851
187.5 -31.25 1292
-250 -109.375 946
-7.8125 226.562 860
-414.062 -273.438 998
-328.125 -171.875 998
-492.188 -31.25 918
39.0625 62.5 978
-187.5 398.438 943
-429.688 -54.6875 894
-109.375 109.375 938
-39.0625 406.25 925
-23.4375 335.938 901
-414.062 -85.9375 873
-234.375 171.875 887
-343.75 -218.75 1022
-492.188 15.625 959
0 156.25 908
39.0625 78.125 967
-398.438 -70.3125 887
-156.25 406.25 935
15.625 101.562 948
148.438 -85.9375 1354
-195.312 46.875 915
-164.062 164.062 896
23.4375 195.312 885
15.625 156.25 908
46.875 156.25 1115
-398.438 -250 995
