ply
format ascii 1.0
comment Created by Open3D
element vertex 2450
property double x
property double y
property double z
end_header
109.375 179.688 869
320.312 70.3125 1025
-39.0625 250 954
421.875 281.25 973
140.625 265.625 856
398.438 -406.25 3238
375 -335.938 3269
-39.0625 164.062 915
54.6875 148.438 878
265.625 62.5 1041
-101.562 250 967
242.188 203.125 946
429.688 -203.125 3576
171.875 -218.75 1161
-46.875 39.0625 1073
93.75 296.875 856
320.312 187.5 871
140.625 335.938 908
171.875 296.875 860
281.25 78.125 1010
421.875 -85.9375 1007
445.312 171.875 918
-54.6875 39.0625 1067
398.438 -125 1001
70.3125 375 862
343.75 -289.062 3365
-23.4375 109.375 1073
414.062 -367.188 3269
414.062 -375 3269
187.5 -367.188 3149
156.25 54.6875 1084
289.062 195.312 871
-78.125 203.125 954
46.875 179.688 845
375 -453.125 3120
156.25 304.688 860
109.375 328.125 854
-15.625 -23.4375 3399
398.438 164.062 896
343.75 -117.188 978
70.3125 179.688 841
250 -171.875 1134
281.25 -109.375 989
359.375 -187.5 3468
-85.9375 234.375 943
328.125 -109.375 962
437.5 -210.938 3576
289.062 210.938 875
101.562 312.5 854
460.938 -210.938 3503
132.812 257.812 858
39.0625 289.062 875
367.188 -31.25 998
375 -70.3125 984
156.25 187.5 867
210.938 117.188 989
257.812 -93.75 1153
-125 250 995
414.062 -78.125 1010
351.562 367.188 908
398.438 -15.625 1031
203.125 210.938 901
31.25 289.062 959
-46.875 250 946
62.5 70.3125 1016
296.875 -70.3125 989
328.125 187.5 871
85.9375 78.125 1001
54.6875 54.6875 1019
54.6875 367.188 871
328.125 78.125 1010
257.812 171.875 913
-54.6875 31.25 1070
375 -117.188 981
226.562 -156.25 1123
-460.938 54.6875 1273
265.625 -117.188 1145
-93.75 226.562 946
179.688 -23.4375 1189
-117.188 125 943
390.625 289.062 967
164.062 -31.25 1210
101.562 0 1193
210.938 242.188 889
234.375 320.312 930
164.062 -39.0625 1232
304.688 320.312 928
398.438 -54.6875 1007
125 351.562 889
109.375 351.562 887
179.688 187.5 875
265.625 179.688 901
367.188 171.875 887
218.75 125 973
-7.8125 125 1050
179.688 164.062 891
343.75 70.3125 1025
320.312 312.5 935
-171.875 -7.8125 3269
382.812 421.875 1496
140.625 -7.8125 1161
132.812 335.938 906
93.75 304.688 854
-23.4375 226.562 956
70.3125 234.375 885
70.3125 312.5 862
-125 312.5 915
31.25 312.5 882
-148.438 117.188 954
156.25 312.5 862
-54.6875 226.562 943
-62.5 203.125 954
-101.562 242.188 967
351.562 78.125 1010
210.938 296.875 880
156.25 -31.25 1206
0 234.375 940
31.25 70.3125 1031
195.312 -31.25 1210
210.938 234.375 894
164.062 0 1145
-93.75 39.0625 1047
125 312.5 860
171.875 281.25 860
320.312 85.9375 998
367.188 62.5 1038
0 289.062 956
-46.875 31.25 1073
101.562 78.125 989
265.625 -171.875 1145
-101.562 281.25 956
-101.562 132.812 935
359.375 304.688 946
78.125 210.938 891
195.312 -78.125 1157
-15.625 15.625 1421
0 304.688 938
171.875 70.3125 1054
85.9375 171.875 847
125 335.938 871
171.875 343.75 901
390.625 -54.6875 1004
304.688 85.9375 1001
406.25 171.875 898
125 62.5 978
312.5 46.875 1013
476.562 148.438 923
164.062 62.5 1070
101.562 304.688 854
203.125 109.375 1001
-7.8125 54.6875 1054
-15.625 117.188 1063
109.375 -31.25 1202
320.312 -117.188 975
78.125 148.438 873
367.188 -125 995
93.75 171.875 847
-7.8125 46.875 1054
-70.3125 39.0625 1060
195.312 289.062 871
460.938 148.438 915
429.688 156.25 906
250 164.062 925
117.188 164.062 862
54.6875 304.688 873
-101.562 257.812 964
15.625 281.25 967
171.875 -210.938 1149
359.375 179.688 878
39.0625 -39.0625 1338
367.188 -85.9375 970
-445.312 31.25 2958
-179.688 171.875 1097
234.375 -23.4375 1193
39.0625 359.375 880
-85.9375 289.062 948
70.3125 289.062 860
203.125 -7.8125 1161
-46.875 210.938 962
203.125 -156.25 1119
-70.3125 148.438 913
39.0625 296.875 871
-78.125 195.312 962
-31.25 281.25 964
54.6875 78.125 1013
54.6875 179.688 843
289.062 -78.125 992
7.8125 289.062 962
-85.9375 140.625 918
-140.625 125 951
-148.438 289.062 943
226.562 312.5 938
-93.75 46.875 1041
-164.062 109.375 956
109.375 382.812 856
218.75 -93.75 1134
398.438 23.4375 1044
132.812 312.5 860
335.938 -109.375 959
7.8125 234.375 930
234.375 -148.438 1123
250 -148.438 1126
85.9375 367.188 873
-140.625 101.562 951
-125 257.812 987
-39.0625 39.0625 1070
335.938 312.5 935
390.625 15.625 1034
85.9375 296.875 856
257.812 171.875 906
-109.375 273.438 967
203.125 281.25 875
-117.188 273.438 964
359.375 -125 989
39.0625 367.188 871
15.625 125 1050
-7.8125 234.375 940
343.75 -125 987
23.4375 234.375 925
-101.562 125 925
-15.625 273.438 973
179.688 78.125 1028
140.625 39.0625 1105
109.375 320.312 854
31.25 234.375 923
78.125 375 864
398.438 171.875 891
-54.6875 453.125 792
460.938 218.75 948
414.062 -85.9375 995
226.562 132.812 956
31.25 343.75 896
273.438 -101.562 989
476.562 -265.625 3433
-46.875 453.125 796
390.625 0 1028
-7.8125 343.75 891
296.875 85.9375 1001
289.062 -109.375 981
335.938 429.688 1496
-54.6875 117.188 1050
328.125 375 896
109.375 210.938 858
351.562 -164.062 1153
312.5 187.5 867
320.312 78.125 1010
484.375 140.625 920
-171.875 171.875 1101
-132.812 117.188 946
-54.6875 304.688 930
179.688 -242.188 1149
0 125 1050
148.438 164.062 885
23.4375 328.125 913
70.3125 375 862
382.812 23.4375 1034
0 273.438 975
359.375 -62.5 973
375 171.875 882
-70.3125 187.5 943
-117.188 125 938
-93.75 257.812 956
390.625 -15.625 1016
492.188 304.688 954
296.875 203.125 862
242.188 -70.3125 1169
343.75 179.688 873
-23.4375 203.125 918
23.4375 351.562 887
195.312 398.438 856
-7.8125 117.188 1060
-101.562 203.125 954
382.812 359.375 918
304.688 -85.9375 967
187.5 398.438 856
31.25 289.062 871
359.375 398.438 1680
62.5 156.25 869
398.438 289.062 967
-117.188 265.625 975
39.0625 234.375 920
15.625 132.812 1041
195.312 203.125 906
23.4375 242.188 920
-101.562 242.188 962
468.75 -156.25 3433
78.125 304.688 854
-148.438 109.375 954
437.5 289.062 970
62.5 335.938 871
335.938 -156.25 1149
148.438 335.938 864
-257.812 39.0625 1328
-78.125 281.25 959
445.312 273.438 987
460.938 -171.875 3468
437.5 -117.188 1173
-31.25 109.375 1067
351.562 -109.375 967
125 343.75 898
367.188 -117.188 978
468.75 -93.75 1101
-148.438 117.188 951
148.438 156.25 891
78.125 320.312 854
281.25 195.312 873
390.625 54.6875 1050
468.75 273.438 987
-39.0625 218.75 959
312.5 320.312 930
-109.375 125 933
382.812 -85.9375 978
195.312 -187.5 1126
179.688 226.562 880
171.875 406.25 851
375 62.5 1031
117.188 23.4375 1157
359.375 367.188 908
312.5 398.438 1696
85.9375 382.812 856
406.25 164.062 894
289.062 218.75 869
429.688 164.062 901
382.812 179.688 887
320.312 195.312 869
242.188 -156.25 1123
-23.4375 117.188 1060
203.125 398.438 858
281.25 -85.9375 992
375 296.875 956
492.188 257.812 995
78.125 203.125 896
15.625 437.5 811
289.062 421.875 1543
203.125 -210.938 1138
-101.562 257.812 964
125 -156.25 1161
31.25 203.125 896
101.562 289.062 860
375 -117.188 978
351.562 -117.188 978
-62.5 445.312 789
273.438 70.3125 1025
195.312 304.688 878
-62.5 265.625 940
-15.625 109.375 1067
367.188 -85.9375 970
78.125 179.688 841
46.875 367.188 871
-156.25 -7.8125 3238
351.562 70.3125 1022
281.25 -406.25 3092
164.062 -54.6875 1189
109.375 312.5 854
312.5 70.3125 1016
156.25 -218.75 1161
335.938 -125 984
179.688 -187.5 1126
218.75 453.125 948
-62.5 218.75 943
195.312 -218.75 1145
375 414.062 1489
54.6875 343.75 878
382.812 -70.3125 984
-109.375 46.875 1031
39.0625 437.5 815
476.562 -226.562 3433
-62.5 453.125 789
375 -125 992
101.562 -78.125 1312
-93.75 281.25 956
15.625 171.875 858
226.562 296.875 956
148.438 -62.5 1189
320.312 187.5 869
125 367.188 875
-164.062 171.875 1097
-46.875 156.25 896
46.875 78.125 1019
54.6875 -70.3125 1297
335.938 179.688 871
359.375 296.875 946
367.188 351.562 906
406.25 351.562 928
453.125 164.062 910
187.5 281.25 869
39.0625 289.062 871
-46.875 242.188 946
382.812 -125 995
140.625 101.562 946
39.0625 250 913
375 -398.438 3178
70.3125 148.438 873
85.9375 187.5 869
156.25 -195.312 1149
273.438 328.125 918
-203.125 421.875 796
31.25 429.688 813
312.5 359.375 889
-375 421.875 780
-23.4375 46.875 1063
429.688 -414.062 3269
234.375 312.5 938
335.938 375 901
390.625 23.4375 1041
-500 46.875 2680
226.562 289.062 880
265.625 421.875 1536
-257.812 421.875 790
468.75 -234.375 3433
250 164.062 915
242.188 156.25 928
492.188 -234.375 1427
-140.625 62.5 995
203.125 289.062 878
156.25 -171.875 1138
296.875 320.312 930
109.375 85.9375 978
0 164.062 869
-250 0 3178
421.875 -375 3269
164.062 -179.688 1134
-7.8125 -23.4375 3399
-93.75 242.188 954
367.188 -39.0625 989
250 335.938 910
-78.125 203.125 954
70.3125 328.125 860
93.75 312.5 851
171.875 117.188 920
492.188 -23.4375 1087
304.688 203.125 862
7.8125 132.812 1041
-171.875 31.25 1354
359.375 -109.375 967
429.688 203.125 918
70.3125 281.25 867
476.562 -257.812 3433
429.688 265.625 962
218.75 125 967
484.375 148.438 918
335.938 -351.562 3238
109.375 296.875 856
468.75 -171.875 3468
23.4375 7.8125 1415
70.3125 429.688 823
429.688 -367.188 3300
359.375 421.875 1503
31.25 179.688 849
125 203.125 856
359.375 -406.25 3149
179.688 -171.875 1123
273.438 195.312 882
-93.75 289.062 948
210.938 289.062 878
429.688 343.75 935
375 -109.375 970
304.688 -367.188 3178
125 78.125 970
-164.062 -7.8125 3238
-15.625 265.625 989
257.812 -187.5 1138
179.688 -156.25 1126
-39.0625 203.125 930
203.125 109.375 992
39.0625 421.875 819
406.25 335.938 920
382.812 -375 3208
-117.188 187.5 987
273.438 -265.625 3333
210.938 117.188 981
-46.875 273.438 973
148.438 46.875 1090
343.75 -343.75 3238
281.25 -93.75 992
-23.4375 445.312 800
328.125 187.5 869
328.125 437.5 1496
62.5 375 862
359.375 -117.188 978
-85.9375 445.312 787
421.875 265.625 959
359.375 187.5 878
-78.125 -15.625 3333
343.75 359.375 898
203.125 304.688 878
210.938 281.25 880
0 273.438 975
296.875 421.875 1550
23.4375 140.625 858
335.938 359.375 896
195.312 273.438 875
476.562 -250 3433
39.0625 359.375 880
226.562 140.625 954
367.188 -117.188 978
281.25 390.625 885
437.5 164.062 903
257.812 171.875 906
-328.125 203.125 1028
-31.25 257.812 995
-125 164.062 989
390.625 -359.375 3238
-468.75 23.4375 2908
-7.8125 15.625 1421
343.75 70.3125 1022
132.812 265.625 854
15.625 179.688 880
-125 54.6875 1019
304.688 -101.562 967
93.75 179.688 847
-148.438 -7.8125 3269
453.125 335.938 946
468.75 148.438 913
46.875 312.5 873
203.125 -187.5 1123
210.938 -148.438 1119
351.562 429.688 1503
-85.9375 312.5 920
398.438 -125 989
492.188 -187.5 1433
414.062 335.938 925
-148.438 101.562 954
343.75 429.688 1503
54.6875 328.125 875
296.875 382.812 887
335.938 -101.562 956
31.25 140.625 1028
367.188 70.3125 1025
273.438 -140.625 1141
132.812 -85.9375 1185
492.188 -93.75 1392
476.562 -85.9375 1376
273.438 375 880
-23.4375 226.562 951
15.625 234.375 928
-148.438 117.188 951
54.6875 343.75 878
429.688 -351.562 3300
359.375 -78.125 967
54.6875 -15.625 1307
320.312 -39.0625 970
-39.0625 156.25 894
328.125 195.312 869
437.5 156.25 903
187.5 -31.25 1197
23.4375 179.688 878
148.438 -70.3125 1193
242.188 312.5 935
-23.4375 156.25 885
54.6875 62.5 1016
70.3125 78.125 1004
187.5 -156.25 1123
-62.5 296.875 940
-101.562 281.25 956
-312.5 7.8125 3092
-54.6875 156.25 896
289.062 -78.125 992
250 210.938 925
-117.188 117.188 935
-132.812 140.625 967
234.375 203.125 946
171.875 312.5 862
179.688 -54.6875 1177
93.75 140.625 885
281.25 -54.6875 1004
234.375 148.438 940
171.875 -250 1161
492.188 148.438 923
468.75 -242.188 3433
117.188 312.5 856
226.562 265.625 894
445.312 -93.75 1105
429.688 -156.25 3539
351.562 304.688 946
-85.9375 -15.625 3333
109.375 234.375 867
-257.812 39.0625 1328
132.812 195.312 858
367.188 -46.875 984
-70.3125 210.938 948
-7.8125 289.062 956
101.562 312.5 851
226.562 312.5 938
164.062 -23.4375 1197
-78.125 289.062 948
70.3125 289.062 860
-164.062 109.375 956
210.938 289.062 878
62.5 335.938 871
218.75 304.688 948
101.562 250 864
343.75 312.5 935
375 62.5 1031
156.25 156.25 896
351.562 -117.188 978
406.25 -117.188 989
351.562 179.688 875
54.6875 375 862
-328.125 304.688 903
273.438 78.125 1013
437.5 -117.188 1173
-7.8125 312.5 928
195.312 -210.938 1138
242.188 156.25 928
304.688 -109.375 967
414.062 171.875 898
453.125 -226.562 3468
-250 39.0625 1333
218.75 281.25 880
46.875 -93.75 1354
148.438 -23.4375 1189
382.812 171.875 887
203.125 -218.75 1141
421.875 281.25 973
164.062 125 906
101.562 85.9375 984
46.875 359.375 880
101.562 320.312 851
125 375 864
85.9375 367.188 873
414.062 15.625 1041
210.938 -242.188 1138
367.188 367.188 915
-132.812 109.375 943
195.312 320.312 928
242.188 320.312 933
484.375 -320.312 3238
46.875 148.438 845
148.438 320.312 862
0 429.688 809
70.3125 320.312 858
289.062 375 882
226.562 -46.875 1177
492.188 320.312 954
296.875 -78.125 978
-7.8125 296.875 948
-164.062 31.25 1359
351.562 -46.875 978
171.875 70.3125 1047
468.75 265.625 995
328.125 312.5 935
343.75 -46.875 973
156.25 54.6875 1077
-7.8125 54.6875 1054
-70.3125 125 913
70.3125 375 862
460.938 -242.188 3539
164.062 62.5 1063
148.438 164.062 885
-101.562 203.125 954
85.9375 421.875 827
320.312 320.312 928
492.188 -78.125 1343
281.25 203.125 873
-132.812 148.438 967
46.875 289.062 871
406.25 289.062 967
132.812 85.9375 962
437.5 -203.125 3503
156.25 179.688 869
-15.625 289.062 954
-78.125 148.438 918
62.5 156.25 869
-85.9375 289.062 948
-70.3125 226.562 940
390.625 359.375 920
367.188 304.688 946
140.625 -156.25 1145
335.938 78.125 1007
375 -85.9375 973
429.688 281.25 975
15.625 304.688 940
-132.812 296.875 935
164.062 406.25 847
421.875 -85.9375 992
382.812 296.875 956
492.188 140.625 923
109.375 179.688 867
414.062 296.875 956
203.125 -31.25 1210
117.188 187.5 862
484.375 -85.9375 1370
62.5 289.062 862
0 15.625 1421
414.062 -78.125 1004
312.5 195.312 862
328.125 -39.0625 970
226.562 320.312 928
7.8125 304.688 938
367.188 179.688 880
179.688 289.062 862
23.4375 437.5 811
382.812 179.688 887
351.562 -101.562 956
148.438 -31.25 1202
445.312 281.25 981
179.688 -15.625 1177
437.5 -218.75 3576
54.6875 -93.75 1349
304.688 -78.125 970
31.25 242.188 918
179.688 359.375 885
328.125 -117.188 975
-101.562 187.5 989
187.5 -210.938 1138
203.125 109.375 992
320.312 187.5 869
148.438 -171.875 1138
109.375 15.625 1169
125 -78.125 1189
109.375 335.938 854
187.5 -218.75 1145
-343.75 46.875 1297
-15.625 234.375 946
15.625 359.375 878
226.562 343.75 898
390.625 54.6875 1050
250 -70.3125 1165
46.875 218.75 920
171.875 -23.4375 1189
335.938 85.9375 998
171.875 132.812 894
320.312 -23.4375 975
484.375 140.625 920
257.812 335.938 910
304.688 -70.3125 970
-109.375 250 967
437.5 132.812 928
117.188 -171.875 1169
429.688 -171.875 3539
406.25 -257.812 3399
367.188 -15.625 998
148.438 343.75 898
164.062 367.188 873
78.125 296.875 856
101.562 54.6875 1210
125 -70.3125 1288
-117.188 171.875 989
328.125 78.125 1010
210.938 -210.938 1138
164.062 343.75 898
54.6875 148.438 875
-117.188 265.625 975
101.562 210.938 858
351.562 70.3125 1022
367.188 -109.375 967
304.688 85.9375 998
-140.625 132.812 967
-15.625 265.625 989
23.4375 296.875 871
210.938 289.062 878
414.062 164.062 898
-54.6875 148.438 896
-156.25 31.25 1365
390.625 -125 998
375 -125 992
218.75 320.312 928
343.75 375 906
70.3125 195.312 878
289.062 -109.375 981
-242.188 39.0625 1338
265.625 382.812 875
484.375 -179.688 1427
234.375 320.312 930
0 -23.4375 3399
-23.4375 296.875 943
39.0625 296.875 871
132.812 -23.4375 1181
164.062 156.25 896
445.312 156.25 906
398.438 171.875 891
367.188 -31.25 992
359.375 171.875 880
281.25 328.125 920
265.625 -85.9375 1173
468.75 -218.75 3468
-351.562 46.875 1292
367.188 429.688 1496
70.3125 210.938 889
-85.9375 203.125 954
140.625 320.312 862
359.375 -39.0625 987
210.938 -85.9375 1141
31.25 132.812 1038
304.688 320.312 930
70.3125 156.25 869
54.6875 304.688 867
296.875 195.312 862
-234.375 0 3208
-156.25 187.5 1080
7.8125 171.875 862
171.875 234.375 871
15.625 289.062 959
281.25 78.125 1010
140.625 164.062 885
351.562 -70.3125 964
-85.9375 132.812 918
23.4375 289.062 959
234.375 335.938 910
31.25 234.375 923
54.6875 367.188 871
335.938 39.0625 1013
289.062 -62.5 995
-125 164.062 989
484.375 257.812 992
312.5 54.6875 1007
398.438 -62.5 1001
359.375 -23.4375 992
85.9375 304.688 851
273.438 195.312 882
460.938 -226.562 3468
-148.438 70.3125 989
-109.375 281.25 956
-31.25 265.625 984
210.938 -164.062 1119
164.062 132.812 894
468.75 148.438 913
93.75 304.688 851
7.8125 54.6875 1041
62.5 -93.75 1349
78.125 179.688 841
117.188 265.625 856
93.75 367.188 873
250 164.062 915
179.688 203.125 906
-31.25 39.0625 1067
359.375 -46.875 981
70.3125 -46.875 1259
70.3125 -70.3125 1288
382.812 -125 995
210.938 -117.188 1123
296.875 -109.375 975
484.375 -171.875 1427
437.5 -187.5 3503
257.812 -187.5 1138
156.25 -140.625 1134
492.188 -203.125 1433
453.125 -234.375 3539
382.812 -437.5 3149
367.188 -382.812 3149
367.188 -281.25 3365
359.375 70.3125 1025
39.0625 78.125 1025
289.062 85.9375 998
195.312 109.375 1007
-390.625 15.625 3010
351.562 46.875 1025
406.25 164.062 894
468.75 156.25 913
54.6875 156.25 845
390.625 179.688 887
132.812 179.688 867
312.5 171.875 878
445.312 140.625 918
234.375 140.625 940
460.938 148.438 910
-62.5 125 903
78.125 242.188 878
62.5 234.375 885
-54.6875 226.562 943
179.688 226.562 880
93.75 187.5 864
226.562 210.938 964
-234.375 445.312 774
-125 453.125 778
242.188 398.438 873
218.75 390.625 860
234.375 375 869
46.875 429.688 819
-453.125 429.688 762
-218.75 429.688 789
-62.5 273.438 940
414.062 250 940
156.25 289.062 856
7.8125 281.25 967
-85.9375 281.25 956
476.562 328.125 951
265.625 335.938 913
312.5 320.312 930
156.25 343.75 898
304.688 367.188 887
289.062 -54.6875 998
54.6875 -39.0625 1292
359.375 -78.125 967
453.125 -242.188 3539
273.438 -351.562 3178
-15.625 -398.438 2883
-7.8125 164.062 871
-85.9375 46.875 1050
-195.312 429.688 789
421.875 273.438 962
375 351.562 908
265.625 -78.125 1169
414.062 -445.312 3178
429.688 140.625 915
62.5 187.5 843
281.25 -85.9375 992
-320.312 398.438 809
62.5 -429.688 2933
-437.5 351.562 839
-70.3125 132.812 910
-15.625 -382.812 2908
343.75 -101.562 956
117.188 -445.312 2958
265.625 367.188 878
-304.688 7.8125 3092
132.812 218.75 856
343.75 -39.0625 978
-132.812 164.062 987
414.062 -70.3125 1004
-390.625 375 823
-54.6875 437.5 794
273.438 -23.4375 1025
-70.3125 -398.438 2835
-171.875 31.25 1354
328.125 -398.438 3149
-46.875 -62.5 3269
437.5 -304.688 3399
312.5 -93.75 956
117.188 320.312 856
421.875 203.125 918
-234.375 -328.125 2767
164.062 -109.375 1138
-281.25 406.25 803
-78.125 445.312 789
273.438 187.5 882
-78.125 -304.688 2933
210.938 -375 3120
210.938 -460.938 2984
-39.0625 -132.812 3208
70.3125 203.125 887
93.75 421.875 829
257.812 -398.438 3120
312.5 203.125 867
164.062 -140.625 1130
164.062 -54.6875 1189
-31.25 -109.375 3238
218.75 -328.125 3149
132.812 320.312 862
-7.8125 -23.4375 3399
359.375 187.5 878
-46.875 250 946
281.25 375 880
-359.375 421.875 781
-296.875 296.875 915
445.312 -304.688 3433
343.75 -164.062 1149
171.875 171.875 885
93.75 -78.125 1307
382.812 -445.312 3149
132.812 -132.812 1153
-406.25 187.5 1044
-117.188 210.938 992
453.125 -335.938 3399
351.562 -351.562 3238
7.8125 62.5 1041
-70.3125 31.25 1060
-31.25 -257.812 3037
250 -406.25 3037
132.812 210.938 856
125 210.938 856
187.5 -171.875 1123
476.562 312.5 948
-234.375 414.062 802
351.562 -312.5 3300
93.75 250 869
453.125 265.625 973
78.125 296.875 856
-46.875 -437.5 2812
304.688 -62.5 975
109.375 46.875 1177
453.125 -257.812 3468
-23.4375 226.562 951
335.938 -187.5 3468
281.25 -359.375 3149
23.4375 234.375 925
140.625 273.438 854
39.0625 234.375 920
226.562 218.75 964
437.5 218.75 933
-85.9375 218.75 943
-250 39.0625 1333
476.562 265.625 998
-101.562 273.438 967
257.812 226.562 908
39.0625 7.8125 1370
39.0625 273.438 906
-101.562 257.812 964
93.75 85.9375 987
-78.125 148.438 918
484.375 -265.625 1452
265.625 187.5 896
320.312 -109.375 959
23.4375 187.5 887
210.938 273.438 882
85.9375 187.5 869
-218.75 0 3208
-31.25 257.812 995
7.8125 242.188 930
-39.0625 218.75 959
351.562 -62.5 967
203.125 296.875 878
468.75 257.812 978
39.0625 296.875 871
54.6875 289.062 869
375 23.4375 1031
-117.188 296.875 935
359.375 429.688 1503
226.562 -375 3120
78.125 85.9375 1001
-101.562 281.25 956
398.438 359.375 928
31.25 187.5 887
125 414.062 837
351.562 421.875 1509
-78.125 296.875 940
54.6875 187.5 843
187.5 203.125 906
429.688 -210.938 3539
-109.375 250 967
-23.4375 125 1047
117.188 257.812 856
7.8125 15.625 1421
117.188 179.688 867
54.6875 398.438 837
109.375 328.125 854
109.375 335.938 854
492.188 -257.812 1445
437.5 -179.688 3503
476.562 -85.9375 1376
-164.062 31.25 1359
359.375 304.688 946
-93.75 289.062 948
195.312 398.438 856
453.125 -171.875 3433
-62.5 156.25 925
195.312 101.562 1007
273.438 -257.812 3333
-234.375 39.0625 1343
164.062 312.5 858
-23.4375 164.062 896
78.125 -31.25 1236
-54.6875 39.0625 1063
250 328.125 920
156.25 179.688 869
101.562 -85.9375 1333
-156.25 31.25 1365
257.812 382.812 871
312.5 85.9375 998
218.75 -117.188 1123
132.812 171.875 875
312.5 62.5 1013
-31.25 164.062 898
367.188 179.688 880
140.625 242.188 860
109.375 257.812 860
62.5 78.125 1013
132.812 359.375 882
-148.438 -7.8125 3269
140.625 78.125 967
210.938 281.25 880
39.0625 359.375 880
359.375 359.375 908
171.875 78.125 1047
-226.562 39.0625 1338
140.625 164.062 885
-23.4375 117.188 1060
359.375 179.688 878
-46.875 312.5 923
46.875 187.5 843
0 132.812 1041
-343.75 46.875 1297
335.938 -39.0625 973
203.125 359.375 887
476.562 -93.75 1376
304.688 85.9375 998
78.125 375 864
125 359.375 882
445.312 164.062 906
125 -187.5 1169
101.562 359.375 882
-242.188 39.0625 1338
320.312 195.312 869
304.688 195.312 862
492.188 -78.125 1343
179.688 85.9375 1034
335.938 312.5 935
117.188 -85.9375 1322
-132.812 234.375 970
70.3125 85.9375 1004
70.3125 187.5 837
-70.3125 210.938 948
156.25 320.312 862
210.938 -39.0625 1232
476.562 -242.188 3468
70.3125 -93.75 1349
-54.6875 234.375 940
62.5 -78.125 1312
39.0625 70.3125 1025
367.188 187.5 880
-15.625 -78.125 3300
-140.625 -7.8125 3300
226.562 140.625 954
-125 125 946
39.0625 -54.6875 1333
273.438 195.312 882
414.062 171.875 898
23.4375 289.062 959
195.312 -132.812 1123
-382.812 15.625 3010
7.8125 132.812 1041
39.0625 140.625 1028
78.125 429.688 827
445.312 156.25 906
62.5 375 862
140.625 406.25 843
359.375 -101.562 962
-31.25 46.875 1067
-101.562 46.875 1034
453.125 281.25 978
250 171.875 915
203.125 218.75 896
382.812 62.5 1031
54.6875 62.5 1016
-15.625 46.875 1060
375 367.188 918
132.812 -70.3125 1189
414.062 281.25 956
85.9375 304.688 851
7.8125 171.875 862
453.125 156.25 910
398.438 -46.875 1004
93.75 312.5 851
421.875 171.875 898
375 -31.25 998
-15.625 54.6875 1060
117.188 -156.25 1165
421.875 171.875 898
-85.9375 203.125 954
-328.125 46.875 1302
210.938 242.188 891
39.0625 -93.75 1354
85.9375 296.875 856
351.562 359.375 901
-320.312 46.875 1297
46.875 70.3125 1019
210.938 156.25 989
15.625 15.625 1421
203.125 304.688 878
-148.438 31.25 1365
195.312 359.375 887
445.312 -109.375 1153
31.25 304.688 871
179.688 -218.75 1149
312.5 -39.0625 973
406.25 296.875 956
0 15.625 1421
187.5 320.312 928
312.5 70.3125 1016
31.25 351.562 887
296.875 -101.562 975
460.938 -187.5 3503
187.5 -15.625 1181
242.188 -62.5 1169
460.938 273.438 984
273.438 -101.562 989
460.938 -93.75 1101
-148.438 171.875 1105
476.562 148.438 915
234.375 195.312 946
125 93.75 959
406.25 -23.4375 1028
-109.375 281.25 956
375 304.688 946
398.438 343.75 920
-132.812 -7.8125 3300
156.25 171.875 878
179.688 -132.812 1126
-296.875 7.8125 3120
335.938 15.625 998
54.6875 375 862
265.625 187.5 896
390.625 46.875 1054
460.938 -195.312 3433
109.375 15.625 1169
-125 265.625 975
23.4375 179.688 878
-210.938 0 3238
398.438 179.688 891
375 54.6875 1050
85.9375 -93.75 1349
-62.5 -15.625 3333
-93.75 140.625 925
132.812 257.812 856
257.812 179.688 906
195.312 -31.25 1210
210.938 140.625 984
101.562 195.312 860
117.188 351.562 889
78.125 210.938 889
164.062 -187.5 1138
23.4375 15.625 1410
93.75 320.312 851
234.375 148.438 940
0 351.562 885
62.5 -54.6875 1273
15.625 242.188 928
242.188 -15.625 1181
484.375 328.125 956
320.312 -54.6875 962
109.375 195.312 860
-70.3125 203.125 954
-46.875 234.375 946
382.812 -125 995
195.312 304.688 878
140.625 320.312 862
46.875 367.188 871
289.062 85.9375 998
328.125 78.125 1010
-156.25 117.188 956
210.938 250 891
367.188 -23.4375 998
-15.625 304.688 938
23.4375 445.312 813
-132.812 62.5 1001
398.438 296.875 956
46.875 -39.0625 1322
39.0625 187.5 843
210.938 125 981
171.875 -203.125 1141
-304.688 398.438 809
343.75 -117.188 975
304.688 -39.0625 978
-140.625 132.812 967
78.125 195.312 873
132.812 250 858
132.812 320.312 862
218.75 -210.938 1138
109.375 304.688 854
125 187.5 862
132.812 31.25 1119
-31.25 226.562 956
-210.938 242.188 995
-140.625 109.375 948
7.8125 281.25 967
179.688 -210.938 1141
-140.625 31.25 1365
23.4375 140.625 858
351.562 429.688 1503
242.188 390.625 869
414.062 289.062 970
453.125 273.438 984
421.875 -54.6875 1016
-7.8125 273.438 973
234.375 328.125 920
101.562 187.5 862
101.562 421.875 833
390.625 296.875 959
156.25 -187.5 1138
343.75 -101.562 956
-7.8125 335.938 898
164.062 -210.938 1153
-148.438 296.875 930
-125 257.812 987
-101.562 312.5 918
437.5 343.75 940
-132.812 148.438 967
171.875 -31.25 1206
210.938 335.938 913
195.312 421.875 860
359.375 414.062 1503
421.875 164.062 898
39.0625 367.188 871
218.75 132.812 964
351.562 -7.8125 995
54.6875 328.125 875
156.25 -54.6875 1185
398.438 171.875 891
156.25 54.6875 1077
328.125 85.9375 998
15.625 132.812 1041
195.312 351.562 891
171.875 -242.188 1157
312.5 195.312 862
328.125 367.188 896
-117.188 273.438 964
296.875 -54.6875 989
171.875 367.188 875
359.375 39.0625 1025
31.25 367.188 871
0 132.812 1041
304.688 -109.375 967
148.438 187.5 862
203.125 -234.375 1145
125 179.688 867
70.3125 156.25 869
484.375 -203.125 1433
-46.875 156.25 896
-31.25 445.312 800
93.75 234.375 871
351.562 304.688 946
-93.75 289.062 948
335.938 78.125 1007
15.625 140.625 860
476.562 156.25 918
476.562 250 981
328.125 437.5 1496
343.75 195.312 873
-101.562 187.5 989
-93.75 218.75 943
335.938 187.5 871
46.875 15.625 1333
-85.9375 195.312 959
343.75 78.125 1007
125 218.75 856
39.0625 78.125 1025
171.875 210.938 896
320.312 -375 3178
-429.688 54.6875 1264
367.188 -62.5 978
140.625 -171.875 1149
257.812 398.438 882
-125 296.875 935
101.562 132.812 898
-70.3125 375 851
-93.75 203.125 954
164.062 289.062 858
23.4375 343.75 896
359.375 70.3125 1025
312.5 203.125 867
132.812 101.562 946
437.5 281.25 981
62.5 187.5 843
85.9375 195.312 867
-23.4375 265.625 987
304.688 320.312 930
70.3125 375 862
23.4375 335.938 901
281.25 -78.125 1001
-234.375 39.0625 1343
-39.0625 289.062 956
414.062 -117.188 992
-117.188 54.6875 1022
101.562 210.938 858
132.812 187.5 862
140.625 414.062 843
39.0625 39.0625 1354
242.188 328.125 920
109.375 359.375 882
78.125 -93.75 1349
460.938 -234.375 3433
421.875 289.062 970
-156.25 109.375 956
187.5 93.75 1019
93.75 -93.75 1349
-78.125 46.875 1050
421.875 281.25 973
359.375 -125 989
93.75 312.5 851
429.688 296.875 959
406.25 -78.125 1001
-328.125 398.438 807
-320.312 46.875 1297
164.062 -156.25 1134
-125 -7.8125 3300
85.9375 85.9375 995
335.938 437.5 1503
109.375 -93.75 1202
-140.625 117.188 951
421.875 -78.125 992
328.125 -46.875 964
453.125 -101.562 1115
304.688 -31.25 981
132.812 351.562 889
62.5 78.125 1013
406.25 -54.6875 1013
-15.625 234.375 946
70.3125 335.938 864
54.6875 78.125 1013
46.875 335.938 882
468.75 -93.75 1101
367.188 179.688 880
140.625 273.438 854
148.438 46.875 1090
109.375 421.875 833
125 31.25 1141
-62.5 289.062 951
117.188 31.25 1157
-85.9375 265.625 954
101.562 234.375 869
382.812 -54.6875 989
85.9375 148.438 878
367.188 304.688 946
54.6875 -7.8125 1312
-23.4375 281.25 964
23.4375 328.125 913
78.125 375 864
453.125 320.312 938
54.6875 156.25 845
328.125 320.312 928
179.688 195.312 875
195.312 -93.75 1138
54.6875 343.75 878
46.875 320.312 875
23.4375 164.062 854
-46.875 117.188 1054
460.938 -171.875 3468
257.812 179.688 906
78.125 304.688 854
101.562 257.812 864
85.9375 179.688 845
226.562 296.875 956
31.25 148.438 849
-109.375 210.938 954
250 390.625 873
31.25 351.562 887
-7.8125 125 1047
492.188 -250 1421
39.0625 -46.875 1333
109.375 -125 1185
-109.375 179.688 989
0 171.875 885
148.438 -203.125 1157
54.6875 0 1312
421.875 351.562 933
445.312 343.75 946
78.125 70.3125 1001
-93.75 257.812 956
-78.125 210.938 946
367.188 -101.562 967
375 -125 992
-289.062 7.8125 3120
328.125 -85.9375 951
-39.0625 148.438 889
15.625 70.3125 1038
-445.312 23.4375 2933
-78.125 -15.625 3333
406.25 -39.0625 1016
390.625 359.375 920
31.25 359.375 880
-46.875 -15.625 3333
-421.875 54.6875 1268
109.375 125 906
375 187.5 882
203.125 296.875 878
-398.438 296.875 906
351.562 54.6875 1034
312.5 85.9375 998
398.438 -125 989
-54.6875 273.438 970
-328.125 46.875 1302
335.938 -85.9375 954
7.8125 15.625 1421
429.688 171.875 903
296.875 328.125 918
54.6875 312.5 869
164.062 328.125 871
148.438 312.5 858
-156.25 171.875 1105
320.312 312.5 935
148.438 320.312 862
85.9375 304.688 851
132.812 320.312 862
429.688 -117.188 992
226.562 140.625 954
343.75 312.5 935
-132.812 31.25 1370
492.188 -148.438 1445
414.062 -109.375 992
15.625 15.625 1421
70.3125 304.688 854
132.812 421.875 843
-101.562 54.6875 1034
54.6875 195.312 903
351.562 7.8125 1004
-23.4375 312.5 930
320.312 382.812 896
226.562 320.312 928
-31.25 39.0625 1067
289.062 -46.875 1001
468.75 320.312 946
179.688 85.9375 1034
-93.75 226.562 943
0 54.6875 1050
70.3125 187.5 837
312.5 54.6875 1007
15.625 54.6875 1038
492.188 -226.562 1427
375 31.25 1031
132.812 343.75 898
453.125 164.062 910
-117.188 164.062 973
15.625 62.5 1038
359.375 -62.5 973
7.8125 132.812 1041
265.625 335.938 913
304.688 375 887
62.5 328.125 873
-218.75 39.0625 1338
429.688 164.062 901
187.5 203.125 906
140.625 39.0625 1105
382.812 23.4375 1034
148.438 140.625 887
351.562 23.4375 1013
-125 31.25 1370
-54.6875 -15.625 3365
-70.3125 156.25 930
101.562 328.125 851
117.188 -429.688 3010
62.5 85.9375 1013
265.625 382.812 875
78.125 187.5 873
156.25 -156.25 1134
398.438 359.375 928
101.562 -93.75 1349
-46.875 218.75 954
484.375 -78.125 1354
226.562 382.812 864
101.562 429.688 835
140.625 101.562 946
453.125 328.125 940
-164.062 85.9375 967
429.688 328.125 930
320.312 -31.25 973
54.6875 375 862
468.75 -226.562 3433
281.25 382.812 885
-375 15.625 3010
-312.5 46.875 1297
250 171.875 915
406.25 343.75 920
-78.125 39.0625 1054
-460.938 23.4375 2908
460.938 226.562 954
281.25 210.938 873
210.938 296.875 878
-39.0625 257.812 943
62.5 375 862
-7.8125 304.688 938
-140.625 31.25 1365
273.438 62.5 1038
31.25 296.875 871
484.375 148.438 918
109.375 187.5 862
125 421.875 839
-46.875 210.938 962
445.312 -109.375 1153
117.188 343.75 854
109.375 -164.062 1185
46.875 156.25 845
-109.375 281.25 956
15.625 289.062 959
289.062 328.125 918
39.0625 187.5 843
453.125 156.25 910
109.375 351.562 889
93.75 140.625 885
250 -148.438 1126
375 179.688 882
164.062 -125 1134
414.062 -179.688 3539
328.125 312.5 935
117.188 421.875 837
-54.6875 281.25 962
-148.438 31.25 1365
-125 265.625 975
484.375 -125 1427
187.5 -117.188 1130
-93.75 203.125 954
117.188 203.125 856
398.438 179.688 891
484.375 -140.625 1439
-54.6875 234.375 940
109.375 -140.625 1181
-7.8125 140.625 871
265.625 -164.062 1134
-62.5 203.125 954
468.75 -218.75 3468
210.938 -164.062 1119
39.0625 367.188 871
-132.812 62.5 1001
-15.625 54.6875 1060
328.125 -156.25 1157
54.6875 437.5 821
406.25 171.875 894
-156.25 78.125 973
351.562 -62.5 967
414.062 -250 3433
140.625 -203.125 1165
289.062 203.125 867
-62.5 39.0625 1060
218.75 140.625 964
187.5 -7.8125 1153
476.562 -85.9375 1376
226.562 -437.5 3037
242.188 320.312 933
218.75 -242.188 1141
70.3125 382.812 856
281.25 -85.9375 992
132.812 -62.5 1202
265.625 70.3125 1025
343.75 437.5 1503
101.562 203.125 860
343.75 -109.375 959
-101.562 250 964
367.188 70.3125 1025
-117.188 62.5 1013
23.4375 320.312 920
320.312 -437.5 3092
414.062 218.75 923
109.375 343.75 854
296.875 210.938 867
171.875 78.125 1047
148.438 414.062 845
273.438 -93.75 992
31.25 250 918
367.188 46.875 1034
140.625 195.312 858
351.562 195.312 878
156.25 250 860
109.375 171.875 856
78.125 179.688 841
367.188 -78.125 970
-101.562 46.875 1034
-62.5 -15.625 3333
-31.25 312.5 928
390.625 304.688 948
390.625 62.5 1038
359.375 429.688 1503
23.4375 304.688 871
-85.9375 148.438 938
-31.25 46.875 1067
156.25 62.5 1077
320.312 320.312 928
398.438 -7.8125 1028
218.75 132.812 964
-453.125 23.4375 2908
117.188 93.75 975
70.3125 218.75 885
62.5 195.312 843
265.625 46.875 1054
445.312 320.312 938
109.375 367.188 878
7.8125 351.562 885
-101.562 289.062 948
-39.0625 -15.625 3333
382.812 31.25 1038
281.25 -70.3125 1001
-132.812 70.3125 998
296.875 -78.125 978
0 242.188 935
273.438 382.812 880
351.562 312.5 935
398.438 -117.188 989
-70.3125 281.25 959
54.6875 78.125 1013
210.938 -148.438 1119
-54.6875 312.5 920
140.625 351.562 889
62.5 343.75 871
195.312 -210.938 1138
382.812 -31.25 1001
-132.812 -242.188 2984
242.188 -179.688 1126
367.188 31.25 1028
414.062 -62.5 1007
-320.312 46.875 1297
460.938 156.25 910
203.125 289.062 878
382.812 367.188 918
320.312 195.312 869
62.5 -46.875 1273
187.5 -234.375 1149
468.75 226.562 959
257.812 179.688 906
109.375 218.75 856
46.875 375 862
-281.25 7.8125 3149
-78.125 46.875 1050
351.562 375 906
62.5 351.562 875
-218.75 0 3208
46.875 343.75 885
46.875 242.188 898
359.375 187.5 878
-210.938 39.0625 1338
70.3125 296.875 856
429.688 -429.688 3238
148.438 242.188 860
281.25 203.125 873
210.938 125 981
398.438 -70.3125 992
242.188 312.5 935
398.438 7.8125 1034
468.75 -429.688 3300
273.438 335.938 910
-101.562 -70.3125 3238
62.5 218.75 887
23.4375 -429.688 2908
23.4375 242.188 920
132.812 -125 1153
218.75 312.5 938
312.5 375 889
23.4375 132.812 1041
101.562 328.125 851
125 320.312 860
-39.0625 117.188 1057
-414.062 54.6875 1268
93.75 179.688 847
390.625 -46.875 1001
-15.625 117.188 1060
234.375 -54.6875 1177
-78.125 210.938 946
250 171.875 915
148.438 -179.688 1141
453.125 -101.562 1115
195.312 296.875 873
62.5 156.25 869
367.188 -101.562 967
148.438 171.875 878
289.062 -101.562 984
281.25 -46.875 1007
39.0625 257.812 910
375 -62.5 981
195.312 328.125 923
320.312 85.9375 995
460.938 -179.688 3433
226.562 -15.625 1181
437.5 171.875 906
390.625 343.75 918
15.625 179.688 880
390.625 -125 998
484.375 265.625 1001
406.25 -31.25 1022
304.688 328.125 920
85.9375 250 871
54.6875 351.562 882
70.3125 -39.0625 1259
54.6875 156.25 845
23.4375 15.625 1410
39.0625 148.438 849
54.6875 85.9375 1016
132.812 31.25 1119
-125 31.25 1370
382.812 187.5 889
-54.6875 125 903
398.438 304.688 948
-195.312 187.5 1073
304.688 203.125 862
93.75 132.812 901
23.4375 335.938 901
15.625 296.875 948
-218.75 39.0625 1338
375 -101.562 970
484.375 156.25 920
-406.25 54.6875 1268
85.9375 335.938 854
281.25 -101.562 989
31.25 140.625 1028
156.25 -23.4375 1193
320.312 367.188 891
-39.0625 46.875 1070
-117.188 281.25 956
164.062 -31.25 1210
-148.438 265.625 970
117.188 187.5 862
-7.8125 281.25 964
343.75 78.125 1007
-62.5 304.688 930
-312.5 46.875 1297
-39.0625 39.0625 1070
156.25 320.312 862
-31.25 226.562 956
-132.812 -7.8125 3300
312.5 195.312 862
-117.188 54.6875 1022
-117.188 -7.8125 3333
132.812 -164.062 1153
-70.3125 132.812 910
125 343.75 898
70.3125 187.5 837
351.562 -101.562 956
328.125 203.125 873
460.938 281.25 978
-46.875 187.5 928
320.312 -109.375 959
140.625 304.688 856
109.375 343.75 854
101.562 390.625 847
195.312 -23.4375 1189
210.938 -31.25 1210
234.375 -7.8125 1165
101.562 367.188 873
171.875 312.5 862
164.062 70.3125 1063
-23.4375 398.438 835
171.875 -164.062 1130
382.812 -125 995
375 -109.375 970
-109.375 210.938 954
226.562 -210.938 1141
-39.0625 226.562 959
-62.5 210.938 948
-23.4375 234.375 951
-46.875 39.0625 1063
203.125 -203.125 1134
-132.812 31.25 1370
54.6875 335.938 878
54.6875 187.5 843
-140.625 -7.8125 3300
93.75 187.5 864
15.625 289.062 959
218.75 -15.625 1185
250 382.812 869
156.25 312.5 854
203.125 117.188 984
46.875 195.312 841
46.875 437.5 815
171.875 164.062 891
125 218.75 851
-85.9375 296.875 940
210.938 257.812 894
-109.375 187.5 989
398.438 0 1025
351.562 -39.0625 975
304.688 93.75 992
-78.125 132.812 913
-203.125 39.0625 1343
492.188 265.625 1001
375 421.875 1496
-78.125 203.125 954
132.812 203.125 854
359.375 -125 987
367.188 -39.0625 984
203.125 -46.875 1219
390.625 -117.188 984
78.125 281.25 862
0 445.312 805
70.3125 328.125 854
414.062 -54.6875 1007
343.75 7.8125 995
101.562 257.812 858
-70.3125 46.875 1054
140.625 445.312 903
179.688 -218.75 1149
382.812 -117.188 981
156.25 -78.125 1165
250 328.125 923
187.5 -210.938 1138
367.188 -78.125 964
328.125 -39.0625 964
296.875 93.75 992
-23.4375 46.875 1060
-109.375 257.812 964
-46.875 -15.625 3333
-101.562 140.625 928
195.312 312.5 862
359.375 375 906
54.6875 382.812 858
226.562 328.125 923
210.938 281.25 880
-367.188 15.625 3010
375 -78.125 970
195.312 335.938 913
62.5 382.812 860
-23.4375 117.188 1063
484.375 -257.812 1427
296.875 -62.5 978
406.25 -15.625 1019
-132.812 250 995
171.875 289.062 860
218.75 351.562 896
39.0625 242.188 910
148.438 179.688 869
429.688 289.062 973
281.25 203.125 864
343.75 437.5 1496
156.25 -164.062 1134
-117.188 273.438 967
406.25 179.688 891
257.812 -70.3125 1169
-296.875 46.875 1307
203.125 -85.9375 1134
210.938 273.438 885
-156.25 31.25 1365
234.375 210.938 938
156.25 -70.3125 1177
78.125 210.938 894
265.625 429.688 1523
-46.875 289.062 954
-125 265.625 978
164.062 -187.5 1134
234.375 -117.188 1123
117.188 320.312 854
273.438 203.125 875
62.5 343.75 867
242.188 164.062 920
-195.312 0 3238
445.312 -85.9375 1094
-39.0625 265.625 987
78.125 312.5 849
187.5 203.125 908
101.562 85.9375 978
195.312 234.375 885
-421.875 54.6875 1268
109.375 242.188 858
62.5 437.5 821
46.875 335.938 875
-93.75 289.062 951
429.688 335.938 928
132.812 101.562 948
382.812 304.688 948
382.812 -78.125 973
265.625 -109.375 1138
218.75 -7.8125 1165
460.938 -164.062 3433
-15.625 312.5 930
70.3125 242.188 875
39.0625 367.188 873
93.75 367.188 875
382.812 312.5 940
132.812 85.9375 962
140.625 257.812 851
-85.9375 148.438 920
250 335.938 915
320.312 328.125 923
0 281.25 967
70.3125 312.5 851
421.875 335.938 923
101.562 359.375 885
70.3125 195.312 871
359.375 -70.3125 964
-7.8125 46.875 1050
460.938 164.062 908
-39.0625 -15.625 3333
-101.562 54.6875 1034
31.25 164.062 847
132.812 156.25 873
164.062 -164.062 1126
-437.5 23.4375 2958
390.625 -15.625 1013
31.25 70.3125 1025
-398.438 54.6875 1268
476.562 335.938 951
468.75 156.25 910
15.625 70.3125 1034
492.188 -171.875 1433
140.625 109.375 935
171.875 320.312 862
-109.375 132.812 930
406.25 171.875 891
0 125 1050
140.625 265.625 851
15.625 210.938 896
-140.625 78.125 987
-31.25 -15.625 3365
492.188 -234.375 1433
23.4375 31.25 1387
164.062 -226.562 1157
117.188 31.25 1149
304.688 210.938 860
-62.5 46.875 1060
218.75 398.438 860
46.875 148.438 1025
398.438 171.875 889
250 171.875 908
54.6875 351.562 871
46.875 70.3125 1013
148.438 -140.625 1138
-93.75 195.312 973
46.875 7.8125 1322
406.25 -117.188 984
-15.625 351.562 887
-46.875 164.062 901
437.5 -226.562 3539
117.188 -187.5 1181
-31.25 453.125 798
460.938 -265.625 3503
-78.125 210.938 946
429.688 -54.6875 1097
101.562 335.938 851
-7.8125 132.812 1041
62.5 351.562 867
-148.438 125 943
117.188 -171.875 1165
179.688 85.9375 1022
281.25 -101.562 981
343.75 187.5 871
445.312 -210.938 3539
351.562 429.688 1496
484.375 156.25 915
46.875 54.6875 1016
460.938 -234.375 3539
351.562 -156.25 1149
367.188 -117.188 978
101.562 54.6875 1193
281.25 -62.5 995
109.375 85.9375 975
289.062 375 880
382.812 54.6875 1044
-210.938 39.0625 1343
234.375 328.125 923
46.875 375 867
-7.8125 242.188 935
226.562 -171.875 1119
-210.938 -460.938 2639
289.062 -70.3125 989
-328.125 304.688 906
375 -117.188 981
429.688 351.562 930
140.625 421.875 839
351.562 -109.375 970
335.938 -54.6875 959
343.75 -109.375 959
70.3125 179.688 843
375 179.688 880
15.625 242.188 923
-117.188 132.812 938
-125 117.188 935
375 -85.9375 967
101.562 328.125 847
203.125 0 1149
7.8125 445.312 807
453.125 273.438 973
101.562 179.688 851
351.562 -54.6875 967
-101.562 250 959
265.625 -78.125 1169
-406.25 54.6875 1264
23.4375 148.438 1028
-101.562 265.625 962
117.188 445.312 837
351.562 -62.5 964
31.25 78.125 1025
460.938 -218.75 3503
210.938 125 973
85.9375 320.312 847
85.9375 179.688 845
54.6875 335.938 873
335.938 -31.25 970
414.062 179.688 894
468.75 -210.938 3468
437.5 164.062 901
156.25 335.938 860
-78.125 296.875 943
453.125 -179.688 3433
398.438 31.25 1041
406.25 296.875 962
367.188 -109.375 970
492.188 -242.188 1421
343.75 -117.188 978
78.125 218.75 887
-148.438 210.938 1047
437.5 171.875 901
406.25 -70.3125 998
0 171.875 862
320.312 85.9375 1001
-109.375 -7.8125 3300
226.562 390.625 860
296.875 -101.562 970
250 -62.5 1169
242.188 -132.812 1119
46.875 343.75 878
-15.625 273.438 978
-23.4375 54.6875 1060
-78.125 226.562 938
390.625 171.875 885
-125 -7.8125 3300
148.438 343.75 903
-101.562 289.062 951
218.75 304.688 951
476.562 382.812 1427
117.188 218.75 851
62.5 187.5 839
78.125 390.625 854
-93.75 46.875 1041
-70.3125 156.25 913
406.25 359.375 923
-70.3125 46.875 1054
281.25 -156.25 1149
203.125 406.25 860
-117.188 31.25 1370
117.188 195.312 856
359.375 -109.375 970
218.75 -125 1119
406.25 -101.562 981
328.125 -187.5 3468
46.875 -23.4375 1317
289.062 382.812 880
359.375 -101.562 956
414.062 -296.875 3365
320.312 203.125 864
-117.188 -117.188 3149
273.438 -109.375 984
343.75 -156.25 1145
375 70.3125 1025
179.688 406.25 851
-109.375 31.25 1044
382.812 179.688 882
226.562 335.938 913
484.375 -78.125 1365
382.812 -62.5 981
-460.938 414.062 776
328.125 -54.6875 956
484.375 320.312 948
265.625 195.312 885
335.938 -46.875 962
367.188 414.062 1663
367.188 437.5 1496
289.062 203.125 860
359.375 195.312 875
39.0625 437.5 813
328.125 203.125 869
492.188 312.5 948
273.438 78.125 1016
-85.9375 273.438 951
148.438 54.6875 1080
-132.812 125 940
-132.812 156.25 964
335.938 312.5 938
468.75 210.938 938
156.25 273.438 854
335.938 203.125 869
140.625 203.125 854
437.5 335.938 928
23.4375 367.188 875
-54.6875 312.5 925
359.375 187.5 873
328.125 320.312 930
390.625 187.5 885
125 265.625 851
-93.75 140.625 918
492.188 140.625 923
484.375 210.938 946
414.062 -398.438 3178
375 304.688 948
-39.0625 164.062 889
117.188 320.312 854
484.375 -250 1421
46.875 187.5 841
226.562 156.25 946
335.938 320.312 930
132.812 93.75 956
85.9375 85.9375 989
414.062 359.375 928
218.75 312.5 940
335.938 437.5 1496
468.75 164.062 910
-23.4375 164.062 880
148.438 171.875 880
234.375 156.25 933
398.438 -23.4375 1013
492.188 148.438 920
437.5 -179.688 3468
148.438 281.25 851
492.188 156.25 920
468.75 -257.812 3468
203.125 117.188 984
78.125 187.5 845
-109.375 257.812 964
398.438 -117.188 984
203.125 -164.062 1115
-46.875 39.0625 1063
-210.938 0 3238
468.75 -85.9375 1101
203.125 312.5 875
78.125 156.25 871
140.625 328.125 858
179.688 210.938 896
351.562 78.125 1010
78.125 296.875 856
289.062 39.0625 1013
-203.125 39.0625 1343
70.3125 437.5 821
398.438 296.875 962
289.062 -437.5 3037
367.188 -7.8125 995
257.812 437.5 1516
351.562 390.625 1705
-7.8125 437.5 803
132.812 250 854
164.062 -171.875 1130
453.125 343.75 940
156.25 195.312 862
359.375 78.125 1010
140.625 195.312 860
265.625 375 871
242.188 164.062 920
148.438 -148.438 1138
171.875 -46.875 1169
390.625 351.562 913
15.625 140.625 1031
78.125 304.688 851
-31.25 164.062 887
46.875 320.312 869
281.25 335.938 913
218.75 -179.688 1119
210.938 304.688 873
382.812 351.562 910
203.125 164.062 992
414.062 171.875 894
468.75 -203.125 3468
460.938 320.312 938
281.25 -70.3125 992
359.375 -70.3125 964
-195.312 39.0625 1343
-359.375 15.625 3037
-125 304.688 930
187.5 210.938 898
312.5 203.125 860
226.562 -31.25 1219
7.8125 296.875 951
-23.4375 23.4375 1067
320.312 195.312 864
-31.25 265.625 987
484.375 257.812 981
-101.562 203.125 954
-39.0625 46.875 1063
156.25 414.062 843
289.062 -101.562 978
234.375 312.5 938
109.375 93.75 973
187.5 -78.125 1149
203.125 289.062 875
265.625 -85.9375 1165
398.438 179.688 887
445.312 -289.062 3399
468.75 -242.188 3539
-414.062 54.6875 1264
414.062 -109.375 987
-125 328.125 898
0 226.562 908
78.125 195.312 862
-93.75 296.875 940
-46.875 46.875 1063
15.625 179.688 854
-265.625 7.8125 3178
421.875 15.625 1126
-296.875 46.875 1307
367.188 -226.562 3433
382.812 -78.125 973
85.9375 375 869
62.5 296.875 856
304.688 203.125 860
398.438 335.938 918
320.312 375 889
109.375 320.312 854
375 -109.375 970
250 343.75 906
-101.562 31.25 1044
195.312 0 1145
-54.6875 46.875 1063
234.375 335.938 915
148.438 -101.562 1149
-7.8125 54.6875 1050
328.125 -109.375 962
7.8125 140.625 1031
484.375 148.438 915
-117.188 179.688 987
-15.625 125 1054
31.25 242.188 915
406.25 -109.375 981
-187.5 0 3238
437.5 -195.312 3468
351.562 187.5 871
164.062 250 862
-70.3125 218.75 946
109.375 343.75 854
187.5 0 1149
70.3125 382.812 860
343.75 210.938 878
109.375 187.5 862
101.562 93.75 981
390.625 -390.625 3120
0 132.812 1041
468.75 335.938 946
-62.5 281.25 964
195.312 210.938 898
-54.6875 296.875 940
-125 171.875 987
-429.688 23.4375 2958
289.062 429.688 1543
359.375 -39.0625 978
390.625 179.688 885
187.5 -23.4375 1193
210.938 398.438 858
421.875 -117.188 987
39.0625 -15.625 1349
390.625 367.188 920
320.312 -15.625 970
-23.4375 -15.625 3365
367.188 -109.375 970
242.188 -54.6875 1181
15.625 250 923
218.75 328.125 920
164.062 -15.625 1177
148.438 351.562 894
39.0625 375 867
359.375 -109.375 970
148.438 234.375 875
187.5 328.125 923
234.375 0 1153
210.938 -140.625 1115
179.688 234.375 873
375 -78.125 970
171.875 -15.625 1181
117.188 -78.125 1312
453.125 296.875 962
359.375 312.5 938
257.812 343.75 906
-140.625 70.3125 995
148.438 296.875 851
46.875 234.375 889
304.688 93.75 992
7.8125 375 862
-351.562 15.625 3064
46.875 156.25 854
312.5 382.812 889
351.562 437.5 1496
-390.625 54.6875 1268
312.5 -101.562 956
304.688 210.938 860
265.625 54.6875 1050
242.188 335.938 915
-148.438 125 943
328.125 85.9375 1001
210.938 -125 1115
359.375 -54.6875 970
476.562 156.25 910
70.3125 218.75 885
46.875 85.9375 1016
484.375 -257.812 1427
7.8125 312.5 933
304.688 328.125 925
132.812 203.125 854
-62.5 226.562 943
-140.625 117.188 943
492.188 281.25 978
46.875 -62.5 1312
367.188 -101.562 964
125 351.562 894
-15.625 445.312 800
265.625 -125 1130
-117.188 273.438 967
39.0625 23.4375 1349
335.938 31.25 1001
226.562 0 1145
7.8125 31.25 1392
421.875 -78.125 989
-101.562 140.625 928
70.3125 210.938 887
406.25 -7.8125 1028
23.4375 351.562 889
-398.438 54.6875 1268
23.4375 250 918
468.75 312.5 943
-101.562 132.812 925
203.125 -140.625 1115
171.875 242.188 869
453.125 281.25 984
242.188 179.688 925
132.812 312.5 854
390.625 -117.188 984
414.062 -54.6875 1007
23.4375 296.875 948
-289.062 46.875 1312
-46.875 257.812 946
62.5 320.312 860
265.625 343.75 906
54.6875 -15.625 1292
296.875 -70.3125 975
-117.188 226.562 954
132.812 39.0625 1112
156.25 296.875 854
93.75 320.312 847
-78.125 289.062 951
117.188 359.375 885
-101.562 265.625 962
93.75 226.562 903
39.0625 296.875 869
-109.375 289.062 954
203.125 226.562 896
164.062 -31.25 1210
171.875 140.625 906
-31.25 -15.625 3365
23.4375 242.188 918
367.188 359.375 906
39.0625 62.5 1016
85.9375 390.625 851
421.875 343.75 923
62.5 226.562 880
171.875 -7.8125 1165
125 179.688 869
-101.562 -7.8125 3300
-125 265.625 978
-15.625 242.188 940
421.875 179.688 896
0 289.062 959
-23.4375 234.375 946
312.5 328.125 923
390.625 62.5 1041
351.562 -93.75 954
164.062 328.125 867
31.25 359.375 882
296.875 93.75 992
15.625 367.188 871
-187.5 39.0625 1349
296.875 -39.0625 987
117.188 273.438 851
93.75 195.312 860
31.25 148.438 1025
39.0625 195.312 841
195.312 109.375 1001
23.4375 179.688 845
164.062 132.812 901
289.062 335.938 913
39.0625 281.25 896
109.375 250 856
54.6875 250 887
265.625 195.312 885
367.188 312.5 938
132.812 257.812 851
367.188 375 908
375 -39.0625 989
-453.125 343.75 849
171.875 -23.4375 1189
398.438 -54.6875 992
-39.0625 117.188 1057
164.062 70.3125 1054
367.188 78.125 1013
398.438 -7.8125 1022
-39.0625 312.5 928
281.25 343.75 903
367.188 70.3125 1028
0 312.5 933
335.938 46.875 1010
203.125 328.125 925
117.188 429.688 835
210.938 296.875 873
445.312 171.875 901
54.6875 312.5 860
-85.9375 234.375 935
382.812 -117.188 981
203.125 -23.4375 1197
164.062 210.938 854
445.312 296.875 964
476.562 390.625 1427
93.75 367.188 875
