ply
format ascii 1.0
comment Created by Open3D
element vertex 2334
property double x
property double y
property double z
end_header
382.812 304.688 1259
-414.062 296.875 1292
343.75 382.812 1452
179.688 -164.062 1523
-343.75 -132.812 1292
-148.438 304.688 1926
210.938 23.4375 1421
445.312 -125 3399
78.125 70.3125 1193
-492.188 -70.3125 1223
-226.562 -132.812 1433
101.562 296.875 1259
-312.5 -148.438 1292
-500 -398.438 3037
85.9375 250 1241
39.0625 226.562 1873
226.562 406.25 1489
-39.0625 351.562 1616
-140.625 62.5 1197
-39.0625 70.3125 1193
-312.5 -218.75 1273
179.688 -265.625 1496
-500 -210.938 2723
-476.562 296.875 1489
-257.812 -210.938 1283
-460.938 335.938 1410
265.625 265.625 1250
-382.812 46.875 1193
85.9375 70.3125 1241
-382.812 406.25 1376
-500 -421.875 3010
-382.812 54.6875 1193
257.812 414.062 1445
-46.875 -117.188 1259
54.6875 -164.062 1639
203.125 -46.875 1557
421.875 -46.875 1739
85.9375 273.438 1255
93.75 62.5 1273
-500 -101.562 1210
-281.25 -195.312 1283
-289.062 70.3125 1206
242.188 414.062 1458
-421.875 343.75 1307
70.3125 -46.875 1153
250 406.25 1477
-250 -125 1312
-195.312 70.3125 1219
-500 -195.312 2723
-445.312 148.438 1219
-328.125 46.875 1197
-187.5 62.5 1197
-476.562 250 1255
-398.438 414.062 1338
-117.188 62.5 1197
-54.6875 -296.875 3333
179.688 -187.5 1516
-343.75 421.875 1404
-242.188 421.875 1609
-335.938 -218.75 1264
-367.188 54.6875 1197
-343.75 -148.438 1292
39.0625 -62.5 1157
-234.375 421.875 1616
335.938 -109.375 1536
273.438 265.625 1250
-46.875 156.25 1227
93.75 140.625 1197
93.75 148.438 1202
15.625 -125 1381
-289.062 -234.375 1268
23.4375 -140.625 1445
0 70.3125 1202
-140.625 -234.375 3365
171.875 -78.125 1557
210.938 335.938 1496
132.812 328.125 1464
-414.062 273.438 1288
281.25 -195.312 1483
85.9375 31.25 1185
179.688 -281.25 1489
-476.562 335.938 1398
-62.5 70.3125 1197
171.875 312.5 1255
-85.9375 406.25 1483
-390.625 62.5 1202
-500 -429.688 3010
-398.438 375 1322
85.9375 265.625 1245
78.125 62.5 1193
328.125 351.562 1483
85.9375 257.812 1245
-125 0 1181
-15.625 70.3125 1197
171.875 -132.812 1543
343.75 54.6875 1317
-242.188 -132.812 1307
-500 -234.375 2723
-328.125 54.6875 1202
-250 -179.688 1283
-250 -273.438 1483
85.9375 15.625 1181
93.75 164.062 1210
-156.25 304.688 1926
-304.688 54.6875 1197
-70.3125 148.438 1214
-304.688 -218.75 1273
-500 39.0625 1185
-226.562 39.0625 1193
460.938 140.625 1177
-312.5 -265.625 1464
406.25 -265.625 3269
179.688 -23.4375 1594
-492.188 296.875 1439
-179.688 187.5 1873
-54.6875 218.75 1873
93.75 195.312 1219
156.25 148.438 1210
-54.6875 203.125 1873
-460.938 179.688 1223
-250 -210.938 1278
484.375 -171.875 3333
343.75 -93.75 1536
179.688 -39.0625 1564
226.562 -31.25 1557
93.75 187.5 1219
492.188 -117.188 3208
-367.188 242.188 1433
351.562 398.438 1509
-265.625 -218.75 1278
-203.125 78.125 1202
359.375 429.688 1427
46.875 -171.875 1680
70.3125 -140.625 3365
-39.0625 375 1601
289.062 -304.688 3269
-273.438 -296.875 1470
-320.312 -117.188 1302
421.875 -328.125 3238
367.188 351.562 1509
-406.25 320.312 1307
-343.75 359.375 1376
-320.312 54.6875 1197
-375 -78.125 1165
-421.875 -78.125 1169
250 -31.25 1550
-343.75 375 1381
-195.312 -242.188 1445
187.5 -187.5 1516
343.75 -78.125 1543
70.3125 382.812 1312
257.812 -187.5 1489
-406.25 367.188 1317
187.5 367.188 1427
-54.6875 367.188 1616
62.5 -148.438 1609
-203.125 -265.625 3300
-46.875 406.25 1523
265.625 -23.4375 1550
-476.562 273.438 1259
-296.875 -234.375 1268
93.75 210.938 1227
-101.562 398.438 1489
-500 -390.625 3037
171.875 -101.562 1550
398.438 406.25 1381
-437.5 265.625 1255
359.375 414.062 1458
-484.375 -15.625 1206
85.9375 437.5 1421
-304.688 -101.562 1245
179.688 -226.562 1503
382.812 421.875 1421
226.562 210.938 1227
-54.6875 234.375 1883
-203.125 -226.562 1439
312.5 117.188 1169
367.188 343.75 1509
-500 335.938 1338
-85.9375 226.562 1883
-492.188 -109.375 1255
-242.188 -250 1278
460.938 242.188 1232
-226.562 -265.625 1503
179.688 -250 1496
203.125 406.25 1433
-367.188 -62.5 1161
-46.875 148.438 1214
-39.0625 -62.5 1157
109.375 296.875 1255
-335.938 46.875 1197
-148.438 335.938 1833
93.75 203.125 1223
-312.5 296.875 1705
-70.3125 406.25 1483
-195.312 78.125 1202
171.875 -39.0625 1572
-210.938 -218.75 1381
-195.312 109.375 1165
70.3125 -132.812 3365
-320.312 -62.5 1165
-242.188 -218.75 1278
-492.188 289.062 1464
-171.875 -234.375 1458
-203.125 328.125 2256
203.125 375 1427
195.312 351.562 1464
-289.062 54.6875 1197
-429.688 265.625 1255
171.875 -109.375 1543
101.562 312.5 1268
171.875 -117.188 1543
367.188 367.188 1509
-125 78.125 1210
-468.75 351.562 1359
-140.625 429.688 1483
179.688 -218.75 1503
-125 62.5 1197
203.125 -31.25 1564
-281.25 -218.75 1273
-304.688 -78.125 1181
109.375 -70.3125 1748
406.25 -101.562 3468
304.688 156.25 1210
78.125 351.562 1307
179.688 -242.188 1503
335.938 -39.0625 1564
-242.188 62.5 1206
234.375 -117.188 1523
-265.625 -265.625 1464
257.812 -39.0625 1550
140.625 101.562 1173
-429.688 54.6875 1197
328.125 414.062 1452
289.062 -23.4375 1557
140.625 406.25 1415
-156.25 -78.125 1165
7.8125 -140.625 1477
-218.75 -242.188 1458
-398.438 62.5 1202
-468.75 335.938 1404
-453.125 23.4375 1185
-500 78.125 1153
-328.125 62.5 1206
-62.5 242.188 1883
171.875 -125 1543
-140.625 304.688 1926
78.125 250 1241
-203.125 62.5 1202
70.3125 -70.3125 1153
-39.0625 406.25 1516
382.812 398.438 1398
414.062 -367.188 3208
70.3125 437.5 1333
93.75 62.5 1273
-257.812 -125 1307
-312.5 46.875 1193
-445.312 226.562 1241
367.188 421.875 1464
23.4375 -70.3125 1157
398.438 421.875 1370
-281.25 -242.188 1268
70.3125 70.3125 1193
-335.938 226.562 1632
70.3125 421.875 1322
70.3125 -85.9375 1173
-460.938 296.875 1496
-500 -164.062 2723
-414.062 343.75 1307
-257.812 -242.188 1268
-265.625 70.3125 1210
-328.125 -156.25 1288
-195.312 367.188 1776
-468.75 -132.812 3365
-250 -312.5 1503
234.375 -23.4375 1557
70.3125 445.312 1333
85.9375 281.25 1255
296.875 -304.688 3269
218.75 -257.812 1477
-351.562 375 1376
-500 -85.9375 1206
-335.938 54.6875 1202
-62.5 281.25 1915
351.562 -171.875 1503
-242.188 -257.812 1477
-468.75 289.062 1509
179.688 -273.438 1496
320.312 101.562 1185
-132.812 62.5 1197
-421.875 359.375 1322
78.125 54.6875 1189
85.9375 0 1173
-31.25 414.062 1529
-93.75 62.5 1197
343.75 101.562 1189
-31.25 62.5 1197
-148.438 -132.812 1404
101.562 367.188 1439
-85.9375 -93.75 1206
132.812 101.562 1177
-500 -250 3208
250 203.125 1227
-125 304.688 1926
-70.3125 62.5 1197
54.6875 445.312 1333
-296.875 101.562 1161
265.625 -296.875 1470
46.875 320.312 1307
-62.5 320.312 1926
54.6875 70.3125 1189
39.0625 101.562 1169
156.25 421.875 1387
-343.75 54.6875 1202
312.5 101.562 1185
-359.375 54.6875 1197
171.875 -31.25 1579
-289.062 -296.875 1483
-304.688 -140.625 1297
343.75 421.875 1433
-179.688 -226.562 1458
-460.938 312.5 1464
-304.688 101.562 1161
218.75 390.625 1529
78.125 343.75 1307
-500 304.688 1404
-460.938 -132.812 3300
-328.125 -218.75 1264
-54.6875 406.25 1536
195.312 421.875 1452
93.75 164.062 1210
39.0625 70.3125 1185
179.688 -257.812 1496
-367.188 62.5 1210
351.562 -179.688 3433
-117.188 382.812 1572
-62.5 234.375 1883
-31.25 -70.3125 1161
-359.375 46.875 1197
85.9375 398.438 1464
-492.188 335.938 1338
54.6875 343.75 1307
203.125 343.75 1477
-492.188 -101.562 1210
93.75 218.75 1227
171.875 -46.875 1572
203.125 390.625 1427
179.688 -234.375 1503
-304.688 46.875 1193
179.688 -31.25 1564
-54.6875 226.562 1873
242.188 437.5 1421
70.3125 328.125 1292
-468.75 -70.3125 1169
-296.875 367.188 1748
335.938 312.5 1259
-250 -203.125 1278
210.938 406.25 1503
-179.688 62.5 1197
351.562 -164.062 1489
-437.5 179.688 1232
-453.125 70.3125 1177
335.938 265.625 1245
-23.4375 406.25 1550
-296.875 46.875 1197
351.562 -289.062 3333
78.125 406.25 1322
93.75 359.375 1452
-171.875 -265.625 3333
-429.688 359.375 1322
-468.75 117.188 1202
335.938 398.438 1452
-359.375 78.125 1177
101.562 429.688 1421
-46.875 -148.438 1273
-453.125 312.5 1464
-265.625 117.188 1173
93.75 398.438 1452
179.688 -164.062 1523
-273.438 -265.625 1458
-242.188 -187.5 1283
93.75 171.875 1210
-429.688 -78.125 1202
-484.375 265.625 1255
304.688 398.438 1496
-242.188 -242.188 1273
343.75 -78.125 1543
39.0625 -78.125 1153
-203.125 -250 1445
242.188 429.688 1421
242.188 367.188 1523
-390.625 -78.125 1193
226.562 390.625 1523
-328.125 -78.125 1197
-476.562 -132.812 3365
-468.75 -101.562 1283
359.375 132.812 1173
-460.938 351.562 1365
-273.438 -242.188 1273
-187.5 -203.125 1359
179.688 -156.25 1529
93.75 62.5 1273
-296.875 351.562 1785
-453.125 -62.5 1161
-500 -375 3092
-70.3125 -93.75 1206
179.688 328.125 1496
359.375 -265.625 1477
-203.125 382.812 1722
101.562 406.25 1439
62.5 70.3125 1193
-125 335.938 1663
-500 -242.188 2723
-39.0625 -109.375 1255
-445.312 265.625 1255
-500 -187.5 2701
156.25 -421.875 3208
242.188 101.562 1181
195.312 406.25 1433
171.875 -54.6875 1564
-62.5 406.25 1489
218.75 398.438 1489
-500 101.562 1173
257.812 265.625 1250
351.562 -156.25 1496
85.9375 101.562 1169
109.375 398.438 1421
85.9375 429.688 1427
-328.125 46.875 1197
-437.5 -78.125 1165
281.25 39.0625 1359
-54.6875 343.75 1632
226.562 375 1543
187.5 -250 1496
-460.938 70.3125 1173
359.375 -281.25 3300
-500 -312.5 3120
-273.438 46.875 1197
-289.062 -156.25 1292
-62.5 250 1883
-203.125 -265.625 3300
-15.625 117.188 1165
-257.812 -218.75 1278
93.75 210.938 1227
-437.5 54.6875 1197
-171.875 -226.562 1458
-437.5 335.938 1302
-468.75 250 1255
171.875 -101.562 1550
-468.75 -39.0625 1165
-500 320.312 1392
-500 109.375 1193
-492.188 -39.0625 1214
-320.312 46.875 1193
179.688 -250 1496
-101.562 62.5 1202
-445.312 46.875 1189
-492.188 109.375 1202
210.938 367.188 1445
-437.5 109.375 1189
70.3125 210.938 1227
-289.062 46.875 1197
-414.062 351.562 1312
-414.062 210.938 1297
-250 -179.688 1283
-437.5 351.562 1392
257.812 437.5 1421
-500 -289.062 3120
-390.625 390.625 1343
-289.062 -250 1264
257.812 351.562 1489
320.312 117.188 1169
-54.6875 -101.562 1264
-195.312 -250 1458
203.125 421.875 1452
-23.4375 -70.3125 1161
-62.5 210.938 1873
-500 -273.438 3178
-46.875 62.5 1193
-468.75 226.562 1241
93.75 156.25 1210
351.562 -171.875 1503
93.75 179.688 1214
343.75 -289.062 3333
171.875 -109.375 1543
-54.6875 218.75 1873
-460.938 117.188 1202
-304.688 -234.375 1264
359.375 335.938 1509
179.688 -140.625 1529
-265.625 46.875 1197
242.188 203.125 1223
-257.812 -78.125 1177
375 -7.8125 1317
-500 -218.75 2701
-242.188 -250 1278
390.625 406.25 1398
-398.438 421.875 1338
-195.312 -234.375 1445
93.75 226.562 1232
15.625 70.3125 1197
78.125 429.688 1333
-210.938 -210.938 1381
-218.75 62.5 1206
-453.125 343.75 1398
23.4375 -78.125 1165
359.375 -273.438 3333
343.75 -39.0625 1564
-54.6875 242.188 1883
-101.562 -117.188 1214
382.812 343.75 1458
187.5 421.875 1445
62.5 281.25 1255
265.625 429.688 1439
-453.125 15.625 1181
-148.438 62.5 1202
-210.938 -218.75 1381
-421.875 312.5 1297
179.688 -242.188 1503
359.375 -257.812 3333
-312.5 62.5 1206
242.188 421.875 1445
-500 -359.375 3092
-132.812 304.688 1926
117.188 429.688 1427
343.75 328.125 1509
-171.875 414.062 1543
-500 -203.125 2723
-312.5 54.6875 1197
-421.875 54.6875 1202
125 101.562 1169
-453.125 31.25 1185
-273.438 54.6875 1202
-78.125 406.25 1483
-460.938 304.688 1477
-281.25 46.875 1197
343.75 -70.3125 1543
93.75 203.125 1223
164.062 -351.562 3269
164.062 -351.562 3269
375 367.188 1470
-23.4375 390.625 1579
-500 -328.125 3092
179.688 -234.375 1503
-343.75 -171.875 1283
93.75 187.5 1219
-382.812 421.875 1365
-484.375 109.375 1202
-320.312 -156.25 1288
-179.688 -242.188 1458
93.75 429.688 1421
46.875 312.5 1292
-343.75 101.562 1161
-414.062 343.75 1307
46.875 367.188 1312
-109.375 62.5 1197
70.3125 -62.5 1153
265.625 -195.312 1489
-500 -125 1392
-54.6875 234.375 1883
234.375 304.688 1264
-500 -257.812 3178
351.562 -187.5 1503
-460.938 328.125 1421
335.938 -70.3125 1543
-39.0625 359.375 1616
-429.688 7.8125 1177
-492.188 -93.75 1202
304.688 -296.875 3269
-500 -210.938 2723
226.562 296.875 1259
93.75 218.75 1227
-421.875 328.125 1302
-179.688 -234.375 1458
-492.188 320.312 1392
351.562 375 1452
-46.875 164.062 1227
-210.938 62.5 1210
320.312 390.625 1503
-500 -179.688 2701
-468.75 304.688 1477
-148.438 -62.5 1161
-359.375 140.625 1227
-101.562 398.438 1489
-500 -453.125 3037
187.5 -273.438 1483
140.625 335.938 1458
-70.3125 281.25 1915
-343.75 46.875 1197
203.125 414.062 1470
351.562 -164.062 1489
-500 335.938 1338
-93.75 -62.5 1161
367.188 0 1307
351.562 -195.312 1496
-312.5 46.875 1193
-54.6875 171.875 1232
-109.375 -109.375 1210
-281.25 -140.625 1302
328.125 -23.4375 1557
-93.75 -117.188 1241
-304.688 132.812 1214
-382.812 -78.125 1197
187.5 -195.312 1509
304.688 -304.688 3269
265.625 398.438 1489
335.938 -296.875 3300
-414.062 164.062 1297
179.688 -218.75 1503
-429.688 226.562 1250
-484.375 328.125 1421
335.938 101.562 1189
-460.938 335.938 1410
226.562 406.25 1489
-109.375 -62.5 1165
-195.312 -226.562 1439
93.75 54.6875 1189
-281.25 -265.625 1458
-242.188 46.875 1193
343.75 -78.125 1543
-257.812 46.875 1193
-500 -234.375 2723
-437.5 117.188 1202
-296.875 210.938 1863
187.5 -31.25 1564
171.875 -78.125 1557
296.875 101.562 1177
93.75 234.375 1236
210.938 343.75 1496
492.188 -140.625 3238
-375 46.875 1193
-242.188 -257.812 1477
-460.938 109.375 1193
343.75 -85.9375 1543
-132.812 -234.375 3365
-500 -195.312 2723
85.9375 23.4375 1181
-242.188 -195.312 1283
-500 -437.5 3037
70.3125 437.5 1333
-296.875 234.375 1863
-148.438 78.125 1210
-500 -85.9375 1206
-500 -296.875 3120
-492.188 257.812 1255
-250 367.188 1785
289.062 -195.312 1483
-195.312 62.5 1202
375 382.812 1470
-70.3125 -125 1255
-39.0625 -117.188 1255
0 -62.5 1161
125 296.875 1255
39.0625 -70.3125 1157
-117.188 62.5 1197
-500 -265.625 3178
-171.875 -242.188 1458
-406.25 382.812 1328
226.562 367.188 1536
351.562 -187.5 1503
-320.312 -164.062 1288
359.375 195.312 1223
-39.0625 382.812 1594
351.562 -242.188 1477
125 414.062 1392
62.5 257.812 1245
-281.25 -164.062 1292
148.438 328.125 1464
-296.875 -132.812 1297
-460.938 250 1255
-312.5 -125 1297
-406.25 390.625 1333
-335.938 54.6875 1202
117.188 375 1421
-500 -445.312 3037
-500 -226.562 2701
148.438 421.875 1387
-171.875 62.5 1206
179.688 -203.125 1516
-375 78.125 1165
-140.625 62.5 1197
250 343.75 1496
164.062 421.875 1398
-148.438 304.688 1926
-46.875 101.562 1165
-296.875 -250 1264
-296.875 -265.625 1458
-187.5 -226.562 1458
265.625 -179.688 1496
-320.312 -109.375 1302
164.062 296.875 1259
-156.25 -234.375 3365
31.25 -171.875 1688
-484.375 226.562 1241
-203.125 304.688 1926
335.938 -54.6875 1543
-218.75 -132.812 1404
-250 -273.438 1483
-218.75 46.875 1193
210.938 421.875 1421
-109.375 304.688 1926
242.188 406.25 1477
-351.562 46.875 1197
195.312 -23.4375 1579
171.875 -117.188 1543
234.375 414.062 1458
101.562 367.188 1439
296.875 -296.875 3300
351.562 -156.25 1496
78.125 156.25 1206
-390.625 218.75 1343
-492.188 46.875 1232
171.875 -70.3125 1557
226.562 429.688 1421
296.875 -273.438 1458
-421.875 296.875 1288
-164.062 62.5 1202
226.562 421.875 1452
-484.375 39.0625 1259
-39.0625 367.188 1609
93.75 210.938 1227
-85.9375 -62.5 1161
179.688 -210.938 1509
343.75 226.562 1197
-54.6875 250 1883
-500 -320.312 3120
335.938 -273.438 1458
-93.75 343.75 1624
-296.875 -164.062 1292
257.812 -187.5 1489
-359.375 -62.5 1161
23.4375 -320.312 3333
171.875 -85.9375 1557
-265.625 -273.438 1464
195.312 296.875 1259
-281.25 -250 1268
250 437.5 1421
375 101.562 1181
-250 -187.5 1283
468.75 101.562 1177
-343.75 -218.75 1268
359.375 -273.438 3333
70.3125 62.5 1193
343.75 -109.375 1536
-234.375 -218.75 1483
171.875 -54.6875 1564
62.5 101.562 1169
-156.25 62.5 1202
460.938 250 1241
367.188 -15.625 1302
93.75 195.312 1219
-31.25 367.188 1609
-500 -406.25 3037
-460.938 320.312 1445
-312.5 -296.875 1496
187.5 414.062 1439
257.812 429.688 1427
-242.188 -203.125 1278
-382.812 414.062 1370
-132.812 62.5 1197
-70.3125 406.25 1483
-117.188 304.688 1926
171.875 -62.5 1557
179.688 -195.312 1516
234.375 265.625 1245
234.375 421.875 1445
-265.625 -218.75 1278
312.5 -273.438 1458
109.375 101.562 1173
-85.9375 320.312 1926
-500 -101.562 1210
359.375 -265.625 1477
265.625 437.5 1421
-328.125 -125 1297
484.375 -273.438 3269
242.188 312.5 1255
0 398.438 1594
-296.875 -250 1264
-453.125 7.8125 1181
-414.062 -109.375 1322
171.875 -93.75 1557
-62.5 257.812 1894
351.562 -187.5 1503
281.25 312.5 1255
351.562 -39.0625 1663
281.25 -23.4375 1557
109.375 429.688 1433
-328.125 54.6875 1202
148.438 398.438 1404
-265.625 351.562 1785
343.75 -125 1523
257.812 398.438 1496
171.875 -101.562 1550
359.375 351.562 1458
-304.688 46.875 1193
-23.4375 -62.5 1161
-312.5 -234.375 1264
-140.625 54.6875 1197
218.75 375 1439
93.75 -39.0625 1161
93.75 -31.25 1165
351.562 -242.188 1477
-15.625 375 1586
-453.125 39.0625 1189
-500 -382.812 3092
54.6875 148.438 1210
-453.125 179.688 1223
-429.688 218.75 1250
-226.562 46.875 1193
257.812 -23.4375 1550
-453.125 296.875 1496
-296.875 54.6875 1202
-500 -335.938 3092
-109.375 -226.562 3333
-171.875 304.688 1926
-54.6875 242.188 1883
-296.875 195.312 1873
179.688 -234.375 1503
195.312 -39.0625 1557
-78.125 437.5 1489
-296.875 62.5 1206
-289.062 -195.312 1283
-70.3125 437.5 1489
359.375 -250 3333
140.625 367.188 1421
-195.312 -125 1404
289.062 -195.312 1483
93.75 54.6875 1189
-343.75 -195.312 1273
-445.312 218.75 1236
359.375 -257.812 3333
-500 -140.625 2701
-429.688 257.812 1255
-273.438 -125 1307
93.75 187.5 1219
-281.25 -320.312 3269
203.125 -23.4375 1579
-320.312 54.6875 1197
-437.5 187.5 1232
31.25 70.3125 1197
-289.062 46.875 1197
109.375 312.5 1264
-70.3125 242.188 1883
-70.3125 328.125 1926
351.562 15.625 1317
-304.688 54.6875 1197
-351.562 -23.4375 1173
-500 -62.5 1197
335.938 -46.875 1543
-242.188 -117.188 1307
-320.312 46.875 1193
93.75 203.125 1223
171.875 -23.4375 1557
351.562 -140.625 3433
-125 62.5 1197
93.75 242.188 1236
335.938 414.062 1452
351.562 429.688 1427
250 -23.4375 1550
-7.8125 -70.3125 1161
-125 -117.188 1210
-203.125 -156.25 1381
273.438 -23.4375 1557
171.875 101.562 1177
468.75 203.125 1223
-304.688 -187.5 1283
-343.75 62.5 1210
85.9375 -54.6875 1149
-109.375 390.625 1572
351.562 -187.5 1503
-476.562 -101.562 1264
-460.938 31.25 1189
210.938 390.625 1427
234.375 101.562 1177
-296.875 46.875 1197
-343.75 -234.375 1264
-195.312 -234.375 1445
187.5 -265.625 1483
265.625 -187.5 1496
-343.75 164.062 1601
-500 -429.688 3010
-304.688 -250 1278
-210.938 46.875 1197
343.75 -62.5 1550
15.625 421.875 1647
62.5 -171.875 3399
46.875 375 1312
343.75 429.688 1427
62.5 156.25 1214
-343.75 -226.562 1264
93.75 -23.4375 1165
250 429.688 1427
421.875 140.625 1193
-218.75 320.312 1843
-492.188 -15.625 1206
-46.875 70.3125 1193
343.75 -70.3125 1543
421.875 -125 3433
-101.562 62.5 1202
328.125 148.438 1210
-281.25 54.6875 1197
-453.125 328.125 1421
-273.438 -242.188 1273
-437.5 164.062 1227
78.125 359.375 1307
218.75 437.5 1427
226.562 218.75 1223
78.125 328.125 1292
359.375 382.812 1529
-31.25 -125 1255
148.438 15.625 1433
-468.75 -101.562 1283
468.75 156.25 1206
-453.125 15.625 1181
93.75 171.875 1210
-500 -460.938 3010
234.375 179.688 1219
-242.188 -125 1312
179.688 -218.75 1503
-398.438 406.25 1338
445.312 -234.375 3333
-15.625 62.5 1197
234.375 312.5 1264
85.9375 -31.25 1165
-429.688 164.062 1245
-31.25 375 1601
-273.438 -320.312 3238
-117.188 328.125 1926
-343.75 281.25 1536
429.688 281.25 1255
445.312 -31.25 1655
242.188 445.312 1387
-210.938 -234.375 1439
171.875 -109.375 1543
101.562 390.625 1433
-406.25 265.625 1312
-453.125 312.5 1464
62.5 46.875 1185
-78.125 -109.375 1202
-343.75 -117.188 1302
-23.4375 -70.3125 1161
343.75 265.625 1245
-54.6875 179.688 1853
-125 375 1572
78.125 375 1307
242.188 -23.4375 1557
-62.5 62.5 1193
93.75 -54.6875 1149
-476.562 281.25 1496
-273.438 46.875 1197
-257.812 -117.188 1317
-320.312 -203.125 1273
70.3125 -140.625 3365
335.938 31.25 1317
23.4375 -93.75 1227
234.375 406.25 1483
359.375 -242.188 3333
367.188 437.5 1433
-195.312 -250 1458
179.688 -226.562 1503
-351.562 296.875 1503
-343.75 -210.938 1268
93.75 0 1173
-195.312 46.875 1197
328.125 31.25 1328
171.875 -78.125 1557
171.875 -210.938 1516
359.375 367.188 1452
-484.375 0 1206
179.688 -187.5 1516
93.75 46.875 1181
-312.5 -265.625 1464
93.75 39.0625 1338
351.562 -132.812 3433
-234.375 46.875 1193
-203.125 -78.125 1165
-203.125 -78.125 1165
-31.25 101.562 1169
-179.688 398.438 1557
203.125 351.562 1470
-85.9375 -140.625 1278
-171.875 -257.812 1458
179.688 335.938 1489
-421.875 304.688 1292
-39.0625 -70.3125 1161
7.8125 -85.9375 1165
312.5 -70.3125 1523
-500 -398.438 3037
-85.9375 -132.812 1255
-500 -242.188 2723
-109.375 335.938 1663
-101.562 93.75 1181
-492.188 304.688 1404
-187.5 62.5 1197
257.812 101.562 1185
335.938 -31.25 1564
257.812 210.938 1232
359.375 -234.375 1489
-468.75 351.562 1359
281.25 -195.312 1483
195.312 -218.75 1496
-140.625 304.688 1926
-359.375 359.375 1376
-453.125 343.75 1398
-500 -281.25 3178
203.125 -31.25 1564
351.562 304.688 1255
351.562 312.5 1557
195.312 -31.25 1564
-203.125 46.875 1197
218.75 343.75 1496
-242.188 -265.625 1483
492.188 156.25 1206
-281.25 -203.125 1278
-273.438 -304.688 1470
195.312 242.188 1241
195.312 -62.5 1557
93.75 -7.8125 1169
-101.562 242.188 1894
445.312 226.562 1227
312.5 414.062 1458
93.75 195.312 1219
-226.562 -62.5 1161
-46.875 179.688 1853
171.875 -70.3125 1557
351.562 -148.438 3433
-101.562 -109.375 1214
257.812 343.75 1496
-460.938 23.4375 1185
187.5 101.562 1177
-398.438 -78.125 1193
-429.688 265.625 1255
-31.25 429.688 1536
-367.188 265.625 1427
-93.75 62.5 1197
210.938 335.938 1496
85.9375 31.25 1185
-500 -226.562 2701
164.062 359.375 1433
62.5 -164.062 3399
-406.25 257.812 1312
70.3125 164.062 1210
101.562 148.438 1202
351.562 -296.875 3300
187.5 312.5 1255
-500 -250 3208
343.75 414.062 1452
-203.125 -257.812 1445
-382.812 273.438 1398
-265.625 85.9375 1165
0 -70.3125 1161
-54.6875 -140.625 1278
-15.625 -132.812 1302
210.938 -328.125 3300
203.125 -164.062 1516
-62.5 257.812 1894
-265.625 46.875 1197
-250 -195.312 1283
93.75 -39.0625 1161
-492.188 335.938 1338
-453.125 335.938 1398
70.3125 250 1241
-93.75 367.188 1624
359.375 -242.188 3333
140.625 335.938 1458
7.8125 382.812 1757
359.375 -250 3333
93.75 -46.875 1153
-242.188 -179.688 1283
93.75 250 1241
343.75 -62.5 1550
93.75 210.938 1227
-492.188 85.9375 1165
93.75 203.125 1223
476.562 -70.3125 3399
-54.6875 257.812 1894
-31.25 -85.9375 1177
-31.25 382.812 1586
-296.875 203.125 1863
335.938 375 1452
-164.062 -62.5 1165
93.75 320.312 1516
187.5 -281.25 1483
335.938 320.312 1523
-125 328.125 1926
-390.625 382.812 1343
54.6875 -62.5 1153
93.75 31.25 1185
-453.125 0 1173
179.688 -171.875 1516
-429.688 46.875 1193
93.75 257.812 1245
296.875 304.688 1259
-421.875 359.375 1322
-257.812 46.875 1193
-335.938 -70.3125 1165
-437.5 46.875 1189
-460.938 296.875 1496
265.625 375 1496
-125 304.688 1926
351.562 296.875 1255
-320.312 -125 1297
101.562 382.812 1433
375 140.625 1197
351.562 101.562 1189
234.375 226.562 1210
85.9375 78.125 1223
93.75 390.625 1445
-500 304.688 1404
93.75 226.562 1232
-31.25 117.188 1165
-343.75 375 1381
-343.75 78.125 1177
351.562 -140.625 3433
382.812 382.812 1439
31.25 -62.5 1157
15.625 117.188 1165
-414.062 359.375 1312
351.562 -125 3468
-453.125 7.8125 1181
179.688 -164.062 1523
-46.875 343.75 1853
-156.25 421.875 1523
351.562 328.125 1536
-218.75 421.875 1609
-421.875 296.875 1288
78.125 382.812 1317
-226.562 -179.688 1398
351.562 -156.25 1496
-78.125 62.5 1197
-500 -78.125 1206
-289.062 -218.75 1273
-398.438 351.562 1322
-492.188 -85.9375 1236
-398.438 414.062 1338
-234.375 -132.812 1307
-359.375 179.688 1529
390.625 398.438 1398
93.75 -54.6875 1149
-62.5 265.625 1894
-281.25 62.5 1210
210.938 375 1439
-195.312 -226.562 1439
179.688 -210.938 1509
-289.062 54.6875 1197
-164.062 414.062 1536
-281.25 46.875 1197
359.375 -289.062 3300
93.75 7.8125 1181
-226.562 -257.812 1496
179.688 -195.312 1516
0 406.25 1601
-445.312 343.75 1398
-289.062 -195.312 1283
93.75 -23.4375 1165
-500 -273.438 3178
-335.938 -156.25 1288
-218.75 46.875 1193
-343.75 -234.375 1264
-312.5 -156.25 1288
-242.188 46.875 1193
-54.6875 328.125 1926
93.75 46.875 1181
-468.75 7.8125 1181
-437.5 70.3125 1177
-117.188 -234.375 3365
343.75 140.625 1202
210.938 398.438 1433
-500 -367.188 3092
62.5 367.188 1307
-406.25 375 1322
-242.188 -140.625 1302
-242.188 -78.125 1177
-101.562 335.938 1663
-312.5 -242.188 1264
93.75 234.375 1236
101.562 398.438 1439
-500 -304.688 3120
-453.125 320.312 1445
78.125 375 1307
-62.5 406.25 1489
62.5 46.875 1185
-460.938 289.062 1516
-179.688 46.875 1197
-210.938 -70.3125 1169
-343.75 -218.75 1268
-460.938 351.562 1365
-195.312 -242.188 1445
234.375 437.5 1421
-414.062 343.75 1307
-125 -78.125 1169
-31.25 -132.812 1273
-257.812 -187.5 1288
335.938 -39.0625 1564
398.438 101.562 1185
-343.75 -242.188 1264
-500 -257.812 3178
-39.0625 -117.188 1255
187.5 -242.188 1496
70.3125 46.875 1185
148.438 101.562 1173
-445.312 312.5 1470
-445.312 335.938 1415
-414.062 328.125 1302
-492.188 -117.188 1365
-398.438 343.75 1322
-453.125 250 1250
-257.812 -265.625 1470
93.75 242.188 1236
93.75 242.188 1236
-453.125 304.688 1477
171.875 -78.125 1557
-500 -101.562 1210
359.375 -226.562 3365
382.812 335.938 1458
-500 343.75 1338
179.688 -117.188 1543
-375 242.188 1433
265.625 101.562 1185
15.625 46.875 1189
156.25 296.875 1259
93.75 0 1173
62.5 296.875 1259
351.562 -265.625 1477
-429.688 210.938 1245
-335.938 -210.938 1268
343.75 -70.3125 1543
242.188 335.938 1503
93.75 62.5 1273
148.438 445.312 1410
351.562 140.625 1202
-125 -156.25 1410
39.0625 117.188 1161
242.188 289.062 1259
-500 -265.625 3178
-382.812 62.5 1202
179.688 -257.812 1496
-468.75 -70.3125 1169
242.188 343.75 1509
-500 -218.75 2701
-445.312 85.9375 1157
171.875 -46.875 1572
-312.5 -234.375 1264
453.125 -46.875 3433
-210.938 -273.438 3333
101.562 156.25 1210
-226.562 46.875 1193
93.75 265.625 1250
101.562 140.625 1197
-171.875 46.875 1197
-164.062 70.3125 1223
39.0625 46.875 1189
93.75 -7.8125 1169
476.562 -23.4375 3433
-382.812 7.8125 1177
-359.375 406.25 1370
-179.688 78.125 1206
-273.438 -265.625 1458
-70.3125 -62.5 1161
93.75 -46.875 1153
359.375 -257.812 3333
62.5 359.375 1307
93.75 210.938 1227
-54.6875 359.375 1624
210.938 429.688 1421
-429.688 70.3125 1173
-250 -117.188 1312
-500 -375 3092
-46.875 -125 1264
-187.5 46.875 1197
-117.188 70.3125 1223
93.75 -39.0625 1161
46.875 70.3125 1185
-109.375 390.625 1572
-93.75 -101.562 1210
351.562 -132.812 3433
70.3125 -148.438 3333
-187.5 109.375 1165
93.75 -31.25 1165
312.5 109.375 1169
-234.375 85.9375 1177
218.75 -46.875 1550
-117.188 367.188 1594
-148.438 46.875 1197
-257.812 -320.312 3208
390.625 421.875 1398
-500 -328.125 3092
-500 -359.375 3092
-476.562 -85.9375 1241
101.562 421.875 1445
93.75 23.4375 1181
-289.062 -171.875 1288
382.812 328.125 1458
281.25 289.062 1255
-46.875 171.875 1853
-54.6875 187.5 1863
-343.75 -226.562 1264
-500 -312.5 3120
179.688 -203.125 1516
273.438 -31.25 1550
-250 351.562 1785
320.312 343.75 1483
-468.75 273.438 1255
-257.812 -132.812 1307
218.75 359.375 1458
179.688 -179.688 1523
-70.3125 156.25 1227
-7.8125 421.875 1557
-46.875 179.688 1853
-500 -289.062 3120
242.188 203.125 1223
179.688 101.562 1177
-500 -296.875 3120
351.562 289.062 1259
-226.562 312.5 1894
-296.875 187.5 1863
-54.6875 250 1883
-265.625 -210.938 1283
93.75 15.625 1181
382.812 359.375 1445
78.125 187.5 1214
-460.938 281.25 1259
-250 289.062 1915
-492.188 320.312 1392
179.688 320.312 1523
359.375 335.938 1509
359.375 406.25 1470
-132.812 304.688 1926
312.5 -296.875 3238
54.6875 156.25 1223
375 304.688 1264
93.75 203.125 1223
-250 70.3125 1210
-484.375 -101.562 1264
-335.938 382.812 1381
-445.312 328.125 1427
93.75 7.8125 1181
195.312 101.562 1177
273.438 -296.875 1477
171.875 -54.6875 1564
-500 -320.312 3120
359.375 421.875 1464
-460.938 -132.812 3300
-250 -148.438 1297
-476.562 148.438 1214
226.562 156.25 1214
-484.375 -140.625 3333
343.75 -101.562 1536
-312.5 54.6875 1197
320.312 421.875 1445
179.688 -46.875 1557
-171.875 -273.438 3333
-257.812 351.562 1794
343.75 -140.625 1509
93.75 226.562 1232
101.562 390.625 1433
460.938 390.625 1297
359.375 289.062 1259
-351.562 62.5 1210
54.6875 46.875 1185
-453.125 -125 3300
-132.812 -125 1410
-343.75 265.625 1543
-171.875 421.875 1543
328.125 406.25 1452
-289.062 -265.625 1458
-265.625 -140.625 1302
328.125 -203.125 1483
-453.125 0 1173
203.125 437.5 1415
312.5 -203.125 1477
-484.375 257.812 1255
-421.875 289.062 1288
70.3125 406.25 1322
-31.25 -140.625 1278
-179.688 -265.625 3333
93.75 218.75 1227
445.312 210.938 1227
-164.062 46.875 1197
-421.875 296.875 1288
-203.125 -250 1445
-54.6875 437.5 1496
-70.3125 -156.25 1283
257.812 320.312 1503
-398.438 398.438 1338
226.562 445.312 1410
328.125 398.438 1489
414.062 320.312 1349
242.188 367.188 1523
-70.3125 273.438 1904
257.812 -195.312 1489
-31.25 390.625 1579
-250 46.875 1193
101.562 171.875 1210
-15.625 367.188 1804
335.938 -289.062 3300
-500 -406.25 3037
-500 320.312 1392
-195.312 375 1757
-375 125 1210
179.688 -156.25 1529
-492.188 31.25 1185
-203.125 46.875 1197
312.5 -304.688 3269
-195.312 46.875 1197
-328.125 46.875 1197
-460.938 250 1255
-500 289.062 1439
351.562 -117.188 1523
93.75 -15.625 1165
-414.062 375 1333
335.938 390.625 1470
398.438 414.062 1387
234.375 304.688 1259
-250 -265.625 1264
273.438 289.062 1255
-187.5 -234.375 1439
-31.25 375 1601
351.562 0 1302
-406.25 367.188 1317
296.875 210.938 1223
62.5 343.75 1302
-492.188 -23.4375 1202
-23.4375 359.375 1601
93.75 375 1328
78.125 367.188 1307
-203.125 -257.812 1433
-23.4375 -132.812 1255
421.875 -117.188 3433
-93.75 398.438 1483
-335.938 351.562 1376
-70.3125 62.5 1193
-453.125 7.8125 1181
-23.4375 -398.438 3238
-46.875 148.438 1223
359.375 140.625 1206
93.75 54.6875 1181
-234.375 62.5 1210
-234.375 46.875 1193
-54.6875 179.688 1863
93.75 39.0625 1181
132.812 210.938 1223
-281.25 -250 1264
312.5 39.0625 1333
-500 328.125 1349
-187.5 -226.562 1445
-289.062 46.875 1197
171.875 -93.75 1557
492.188 39.0625 1328
-39.0625 148.438 1223
-125 46.875 1193
-500 -234.375 2701
-23.4375 382.812 1572
-78.125 -93.75 1165
-500 -421.875 3037
179.688 -171.875 1523
203.125 390.625 1421
-70.3125 312.5 1926
320.312 -195.312 1477
-85.9375 46.875 1193
-500 -171.875 2701
343.75 -257.812 1464
85.9375 296.875 1259
359.375 -226.562 1483
382.812 140.625 1202
179.688 -148.438 1529
218.75 351.562 1410
-304.688 54.6875 1206
93.75 31.25 1181
78.125 171.875 1210
93.75 46.875 1181
-351.562 54.6875 1197
-289.062 62.5 1206
70.3125 -62.5 1153
187.5 -257.812 1489
-406.25 312.5 1297
-414.062 46.875 1193
-500 296.875 1427
-257.812 -210.938 1278
289.062 398.438 1477
-273.438 -226.562 1268
-109.375 46.875 1193
-421.875 46.875 1193
-468.75 250 1255
-39.0625 -125 1255
-140.625 46.875 1197
-218.75 46.875 1193
-62.5 265.625 1894
-39.0625 -109.375 1259
179.688 -164.062 1523
-7.8125 -132.812 1307
210.938 328.125 1496
-492.188 312.5 1392
-234.375 -148.438 1288
-250 -125 1312
-7.8125 70.3125 1219
156.25 343.75 1452
164.062 382.812 1404
226.562 265.625 1250
-476.562 -132.812 1255
-70.3125 265.625 1894
-226.562 359.375 1766
359.375 39.0625 1302
-328.125 -109.375 1297
-62.5 -132.812 1250
-476.562 351.562 1359
-312.5 -242.188 1259
-289.062 257.812 1883
351.562 -109.375 1536
210.938 382.812 1392
-132.812 429.688 1516
179.688 -93.75 1550
-484.375 343.75 1359
398.438 210.938 1223
-460.938 312.5 1452
359.375 -289.062 3300
78.125 382.812 1312
-54.6875 62.5 1197
359.375 -218.75 1496
-492.188 328.125 1349
-492.188 343.75 1365
-265.625 -117.188 1312
-234.375 -265.625 1477
-500 -382.812 3064
93.75 0 1173
-343.75 -250 1264
359.375 -265.625 1458
-500 -390.625 3092
54.6875 85.9375 1185
85.9375 304.688 1283
367.188 -7.8125 1302
-351.562 125 1219
-242.188 -312.5 1483
140.625 375 1415
187.5 -250 1496
187.5 398.438 1421
179.688 -85.9375 1550
203.125 -304.688 1477
-500 -335.938 3092
-437.5 328.125 1415
-234.375 -171.875 1273
-437.5 156.25 1219
343.75 -46.875 1550
289.062 101.562 1165
304.688 101.562 1165
-117.188 382.812 1516
101.562 156.25 1210
-296.875 54.6875 1206
117.188 140.625 1202
78.125 54.6875 1189
-445.312 320.312 1439
-437.5 343.75 1387
179.688 -125 1543
335.938 421.875 1433
-398.438 406.25 1338
-218.75 -164.062 1250
203.125 -312.5 3300
-54.6875 187.5 1863
-445.312 343.75 1376
-406.25 187.5 1302
343.75 343.75 1489
-320.312 -265.625 1470
-117.188 109.375 1165
-117.188 62.5 1197
-335.938 -109.375 1297
-179.688 429.688 1594
367.188 343.75 1464
-93.75 335.938 1632
31.25 -62.5 1153
-117.188 46.875 1193
-54.6875 195.312 1873
-23.4375 -62.5 1161
-343.75 -234.375 1259
187.5 -273.438 1483
265.625 -187.5 1489
-335.938 429.688 1381
-437.5 171.875 1223
398.438 312.5 1433
203.125 320.312 1489
-132.812 46.875 1197
-281.25 -117.188 1307
101.562 164.062 1210
203.125 398.438 1433
195.312 437.5 1376
-421.875 203.125 1255
-85.9375 62.5 1202
242.188 -312.5 3300
-335.938 359.375 1376
234.375 -257.812 1470
164.062 367.188 1415
195.312 328.125 1483
15.625 -85.9375 1169
187.5 -226.562 1496
23.4375 46.875 1189
93.75 218.75 1232
367.188 335.938 1543
117.188 445.312 1398
-500 -148.438 1458
187.5 -218.75 1503
-23.4375 46.875 1193
-54.6875 257.812 1894
187.5 -234.375 1496
-500 -242.188 2680
-429.688 46.875 1193
187.5 -39.0625 1564
-289.062 359.375 1748
78.125 46.875 1185
234.375 429.688 1421
-500 281.25 1464
-273.438 -148.438 1302
359.375 -203.125 1483
226.562 -226.562 1483
218.75 -31.25 1557
351.562 -125 1516
343.75 343.75 1489
-70.3125 46.875 1193
273.438 -195.312 1483
-210.938 -179.688 1415
-164.062 -242.188 1452
-296.875 -312.5 1496
-343.75 335.938 1381
250 101.562 1165
273.438 328.125 1483
-484.375 335.938 1398
-85.9375 -85.9375 1165
-289.062 -164.062 1288
-203.125 -164.062 1387
-39.0625 46.875 1193
-62.5 46.875 1193
101.562 179.688 1214
257.812 289.062 1255
179.688 312.5 1509
-7.8125 -125 1307
242.188 437.5 1398
78.125 375 1312
78.125 343.75 1288
-492.188 289.062 1439
-101.562 312.5 1915
218.75 289.062 1259
-437.5 312.5 1464
-210.938 -203.125 1376
476.562 187.5 1214
359.375 -23.4375 1302
187.5 -23.4375 1564
-46.875 46.875 1193
273.438 -203.125 1477
-335.938 343.75 1376
210.938 351.562 1452
-195.312 328.125 1833
-70.3125 78.125 1197
-31.25 351.562 1601
7.8125 46.875 1189
179.688 -140.625 1536
234.375 -312.5 3300
226.562 359.375 1410
-484.375 320.312 1427
15.625 46.875 1189
-101.562 304.688 1926
101.562 171.875 1210
-187.5 -226.562 1445
476.562 195.312 1219
-234.375 -234.375 1273
-500 312.5 1392
476.562 -15.625 1509
312.5 210.938 1227
476.562 343.75 1283
93.75 421.875 1458
359.375 218.75 1227
234.375 218.75 1210
179.688 421.875 1421
-93.75 304.688 1926
359.375 -218.75 1496
46.875 46.875 1189
-179.688 46.875 1197
406.25 437.5 1349
-7.8125 46.875 1193
-343.75 -78.125 1165
351.562 -117.188 1523
476.562 -156.25 3333
54.6875 375 1322
-476.562 -101.562 1259
-304.688 -148.438 1292
484.375 343.75 1283
-203.125 -265.625 1433
226.562 -31.25 1557
93.75 351.562 1302
-351.562 375 1381
250 351.562 1503
-46.875 -85.9375 1165
-460.938 304.688 1470
-218.75 -257.812 1445
-78.125 46.875 1193
78.125 -78.125 1153
23.4375 -70.3125 1153
-468.75 -109.375 1264
-296.875 -78.125 1161
93.75 15.625 1181
-179.688 -226.562 1343
-171.875 -226.562 1343
226.562 -304.688 1470
101.562 375 1439
-148.438 93.75 1161
132.812 445.312 1404
-257.812 101.562 1161
-492.188 -156.25 2701
78.125 390.625 1317
-335.938 -125 1297
218.75 101.562 1169
-171.875 -156.25 1387
351.562 -109.375 1536
78.125 203.125 1223
-179.688 62.5 1202
156.25 367.188 1415
-281.25 54.6875 1202
359.375 -195.312 1489
-78.125 -78.125 1161
-343.75 375 1376
46.875 117.188 1157
31.25 46.875 1185
-101.562 -78.125 1161
132.812 406.25 1398
93.75 132.812 1197
132.812 367.188 1415
281.25 406.25 1458
210.938 367.188 1427
195.312 -312.5 3300
-453.125 351.562 1359
187.5 -265.625 1489
-351.562 -62.5 1161
-250 -140.625 1307
-367.188 -78.125 1165
171.875 -39.0625 1572
390.625 289.062 1250
-468.75 296.875 1470
-359.375 289.062 1483
132.812 414.062 1398
-500 -250 2680
-500 -39.0625 1181
-500 -46.875 1185
179.688 -109.375 1543
-46.875 187.5 1863
-375 46.875 1193
187.5 -31.25 1564
203.125 406.25 1445
-343.75 382.812 1381
-210.938 93.75 1165
359.375 328.125 1483
101.562 187.5 1219
-437.5 148.438 1214
-109.375 390.625 1496
-54.6875 265.625 1904
281.25 101.562 1169
218.75 265.625 1250
-328.125 78.125 1161
-492.188 304.688 1452
-492.188 -15.625 1197
-242.188 -320.312 3238
-39.0625 -70.3125 1157
-62.5 62.5 1193
-500 -15.625 1177
93.75 -15.625 1165
179.688 -101.562 1536
-117.188 304.688 1926
15.625 -70.3125 1153
-101.562 62.5 1202
23.4375 78.125 1206
-500 -343.75 3037
-500 -296.875 3149
46.875 -70.3125 1153
-289.062 265.625 1843
179.688 -164.062 1523
382.812 390.625 1452
-312.5 -265.625 1458
359.375 -242.188 1483
54.6875 70.3125 1219
375 320.312 1516
187.5 -304.688 1483
-468.75 -101.562 1297
-195.312 -257.812 1439
-421.875 281.25 1288
-46.875 179.688 1863
-15.625 148.438 1227
85.9375 320.312 1292
-187.5 -140.625 1398
-242.188 -187.5 1283
101.562 140.625 1202
93.75 187.5 1214
-70.3125 296.875 1926
-500 -265.625 3149
-460.938 335.938 1398
343.75 -296.875 3300
320.312 -296.875 1445
-273.438 -250 1264
195.312 414.062 1439
250 296.875 1259
-109.375 359.375 1601
15.625 429.688 1594
-171.875 46.875 1197
-296.875 179.688 1776
-7.8125 -85.9375 1153
-335.938 -140.625 1292
-31.25 359.375 1601
351.562 -296.875 3300
-62.5 273.438 1894
351.562 -140.625 1509
195.312 429.688 1376
250 210.938 1219
-31.25 -140.625 1278
179.688 -156.25 1523
70.3125 -78.125 1153
-218.75 320.312 1853
273.438 -187.5 1489
-234.375 -250 1273
85.9375 312.5 1283
-15.625 -125 1255
-460.938 351.562 1359
62.5 351.562 1307
-484.375 304.688 1464
-101.562 -109.375 1214
-132.812 62.5 1210
179.688 -148.438 1529
-335.938 -117.188 1297
-62.5 -109.375 1197
218.75 429.688 1427
-445.312 351.562 1359
187.5 -289.062 1483
359.375 -203.125 1483
70.3125 156.25 1214
-70.3125 -117.188 1197
-31.25 -148.438 1273
343.75 -31.25 1557
281.25 304.688 1259
-437.5 226.562 1241
-23.4375 -70.3125 1157
-406.25 375 1328
70.3125 70.3125 1219
-109.375 304.688 1926
85.9375 304.688 1283
351.562 -148.438 1503
-54.6875 46.875 1193
-187.5 -78.125 1165
-164.062 -148.438 1387
281.25 296.875 1259
-414.062 328.125 1307
-312.5 -242.188 1259
-312.5 -273.438 1470
406.25 398.438 1376
-335.938 375 1376
-117.188 93.75 1161
-93.75 312.5 1926
375 359.375 1496
351.562 -164.062 1503
78.125 406.25 1322
187.5 -281.25 1483
-250 -156.25 1297
-187.5 -148.438 1398
-93.75 46.875 1193
-125 328.125 1926
351.562 -117.188 1523
85.9375 390.625 1317
179.688 -132.812 1543
273.438 312.5 1503
-101.562 46.875 1197
-78.125 -85.9375 1165
-500 -398.438 3064
78.125 -70.3125 1149
-476.562 257.812 1259
-453.125 343.75 1370
359.375 -234.375 1483
359.375 -234.375 1483
-93.75 367.188 1609
343.75 -78.125 1536
304.688 -296.875 1452
359.375 -210.938 1483
-453.125 289.062 1503
85.9375 296.875 1259
296.875 -23.4375 1550
210.938 -31.25 1557
492.188 -46.875 3178
-125 -39.0625 1169
484.375 -54.6875 3208
-23.4375 -101.562 1202
-273.438 -101.562 1264
351.562 -109.375 1536
23.4375 -109.375 1264
-101.562 -125 1214
-179.688 -125 1322
460.938 -93.75 3433
351.562 -93.75 1557
-179.688 -93.75 1181
-351.562 -93.75 1241
-468.75 -93.75 1223
257.812 -195.312 1489
265.625 -195.312 1483
375 -203.125 3399
-257.812 -218.75 1278
453.125 -250 3300
-218.75 -250 1483
-226.562 -250 1477
-234.375 -226.562 1273
-187.5 -226.562 1445
-187.5 -234.375 1439
429.688 -164.062 3333
187.5 -171.875 1516
335.938 -171.875 1503
31.25 -187.5 3433
-335.938 -148.438 1288
31.25 -156.25 1470
23.4375 -132.812 1333
179.688 -140.625 1536
0 -359.375 3300
390.625 -359.375 3208
-500 -351.562 3037
351.562 -367.188 3208
70.3125 -375 3269
109.375 -343.75 3269
335.938 -328.125 3269
242.188 -328.125 3269
-500 -320.312 3120
460.938 -296.875 3238
7.8125 -289.062 3365
492.188 -273.438 3238
109.375 -273.438 3333
359.375 -281.25 1458
453.125 -265.625 3269
226.562 -445.312 3178
-46.875 -437.5 3208
109.375 -398.438 3238
226.562 -382.812 3269
-15.625 46.875 1189
-437.5 46.875 1189
54.6875 46.875 1189
-273.438 54.6875 1202
-500 54.6875 1157
-500 31.25 1185
93.75 0 1173
-156.25 62.5 1210
-109.375 70.3125 1210
-78.125 78.125 1197
203.125 148.438 1206
-46.875 148.438 1223
328.125 140.625 1206
296.875 140.625 1202
492.188 140.625 1193
101.562 179.688 1214
343.75 203.125 1223
-445.312 203.125 1232
-406.25 210.938 1297
265.625 210.938 1227
78.125 226.562 1232
93.75 234.375 1232
93.75 242.188 1236
210.938 382.812 1392
31.25 375 1766
-54.6875 406.25 1483
-78.125 406.25 1489
-70.3125 406.25 1496
-62.5 398.438 1550
70.3125 367.188 1307
375 328.125 1516
-78.125 328.125 1926
-203.125 312.5 1915
-164.062 320.312 1926
484.375 265.625 1250
93.75 250 1236
-125 296.875 1926
-398.438 289.062 1333
-195.312 -226.562 1365
-210.938 -234.375 1470
-265.625 -234.375 1268
179.688 -250 1503
445.312 -218.75 3300
101.562 -210.938 3399
54.6875 -171.875 1601
437.5 -164.062 3333
7.8125 -164.062 1601
179.688 -179.688 1523
46.875 -187.5 3399
117.188 -140.625 3433
-273.438 -140.625 1302
-15.625 -140.625 1458
421.875 -132.812 3399
-195.312 -132.812 1410
-109.375 -132.812 1214
359.375 -156.25 3433
-46.875 -156.25 1273
-218.75 -156.25 1259
437.5 -148.438 3365
476.562 -31.25 3468
468.75 -31.25 1586
93.75 -31.25 1165
171.875 -15.625 1529
273.438 -15.625 1543
437.5 -7.8125 1523
273.438 -7.8125 1516
429.688 -46.875 1713
93.75 -46.875 1157
-148.438 -39.0625 1169
93.75 -39.0625 1165
171.875 -54.6875 1564
117.188 -54.6875 1696
171.875 -62.5 1564
460.938 -101.562 3399
-109.375 -101.562 1214
-187.5 -101.562 1255
-281.25 -109.375 1297
-234.375 -117.188 1307
-210.938 -117.188 1328
-296.875 -117.188 1302
54.6875 -125 1307
453.125 -125 3399
-109.375 -93.75 1197
-70.3125 -93.75 1197
-328.125 -93.75 1219
-429.688 -93.75 1227
414.062 -85.9375 3468
-62.5 -359.375 3238
-328.125 -359.375 3208
0 -351.562 3300
445.312 -367.188 3208
273.438 -367.188 3238
-70.3125 -367.188 3238
203.125 -375 3269
273.438 -375 3238
-101.562 -375 3238
-23.4375 -375 3238
203.125 -328.125 3300
101.562 -328.125 3300
312.5 -335.938 3238
125 -335.938 3300
101.562 -335.938 3300
117.188 -343.75 3300
445.312 -281.25 3269
85.9375 -281.25 3365
-46.875 -281.25 3333
-367.188 -281.25 3238
7.8125 -273.438 3365
125 -273.438 3365
-7.8125 -273.438 3365
-468.75 -273.438 3238
-304.688 -273.438 1464
460.938 -257.812 3269
-234.375 -257.812 1470
390.625 -257.812 3300
140.625 -265.625 3365
468.75 -296.875 3208
-296.875 -296.875 1496
-15.625 -296.875 3333
-46.875 -296.875 3333
140.625 -289.062 3365
-320.312 -304.688 1523
-23.4375 -304.688 3333
-70.3125 -304.688 3300
359.375 -312.5 3269
468.75 -312.5 3178
-359.375 -312.5 3208
-304.688 -312.5 1509
-31.25 -312.5 3300
140.625 -437.5 3178
15.625 -437.5 3238
-242.188 -437.5 3178
-125 -429.688 3208
-70.3125 -429.688 3208
226.562 -429.688 3178
218.75 -414.062 3208
187.5 -414.062 3269
46.875 -414.062 3238
0 -414.062 3238
-156.25 -414.062 3208
-179.688 -414.062 3208
226.562 -421.875 3178
85.9375 -421.875 3238
-148.438 -421.875 3208
-421.875 -421.875 3120
218.75 -398.438 3238
85.9375 -398.438 3238
210.938 -406.25 3238
179.688 -406.25 3269
62.5 -406.25 3238
257.812 -406.25 3178
-156.25 -406.25 3208
-125 -406.25 3208
210.938 -382.812 3269
234.375 -382.812 3238
31.25 -382.812 3269
-437.5 -382.812 3149
-15.625 -382.812 3238
-85.9375 -390.625 3238
218.75 -390.625 3238
351.562 -390.625 3178
-15.625 -390.625 3238
62.5 -460.938 3149
-54.6875 -460.938 3178
-460.938 -460.938 3064
-109.375 -453.125 3208
46.875 -476.562 3178
-226.562 70.3125 1197
-132.812 70.3125 1210
164.062 70.3125 1241
-273.438 62.5 1206
-109.375 62.5 1197
-226.562 62.5 1210
-140.625 78.125 1193
-156.25 78.125 1189
-250 78.125 1173
492.188 54.6875 1292
140.625 54.6875 1278
-328.125 54.6875 1206
-398.438 54.6875 1202
343.75 39.0625 1312
359.375 7.8125 1302
250 7.8125 1439
242.188 23.4375 1398
250 156.25 1210
101.562 156.25 1210
-460.938 156.25 1219
484.375 171.875 1210
132.812 171.875 1210
-390.625 171.875 1359
-460.938 171.875 1223
-375 171.875 1398
-171.875 171.875 1873
109.375 140.625 1202
187.5 140.625 1206
203.125 140.625 1206
171.875 140.625 1206
-492.188 140.625 1214
289.062 148.438 1206
-421.875 148.438 1250
-453.125 148.438 1210
-468.75 148.438 1214
351.562 148.438 1206
343.75 148.438 1206
101.562 148.438 1206
109.375 148.438 1210
296.875 203.125 1223
-414.062 203.125 1273
-468.75 203.125 1236
-500 203.125 1232
93.75 210.938 1223
132.812 195.312 1219
-54.6875 195.312 1873
-460.938 195.312 1232
-414.062 195.312 1273
101.562 187.5 1219
-460.938 187.5 1227
-468.75 187.5 1227
-398.438 187.5 1333
273.438 218.75 1206
-109.375 218.75 1883
460.938 226.562 1227
265.625 226.562 1202
406.25 226.562 1227
148.438 226.562 1236
367.188 242.188 1241
179.688 242.188 1241
453.125 234.375 1227
429.688 234.375 1227
-367.188 234.375 1464
117.188 421.875 1433
203.125 421.875 1445
-140.625 421.875 1489
-226.562 421.875 1616
164.062 406.25 1398
210.938 406.25 1433
-179.688 406.25 1543
-54.6875 414.062 1483
351.562 382.812 1543
320.312 382.812 1496
140.625 375 1415
304.688 375 1483
343.75 398.438 1483
78.125 390.625 1317
218.75 390.625 1392
-335.938 390.625 1365
-406.25 351.562 1312
171.875 359.375 1427
476.562 320.312 1268
-62.5 320.312 1926
343.75 312.5 1523
250 335.938 1503
-406.25 328.125 1307
-375 328.125 1398
-406.25 304.688 1297
-187.5 304.688 1926
85.9375 257.812 1245
171.875 250 1241
179.688 250 1241
-62.5 250 1883
468.75 273.438 1245
109.375 -226.562 3399
148.438 -226.562 3365
-265.625 -226.562 1273
-375 -234.375 3269
398.438 -242.188 3300
492.188 -250 3269
109.375 -250 3399
-78.125 -250 3365
109.375 -218.75 3399
-296.875 -218.75 1273
-437.5 -218.75 3269
-468.75 -218.75 3269
54.6875 -218.75 3399
132.812 -218.75 3399
421.875 -210.938 3333
492.188 -210.938 3300
125 -210.938 3399
-234.375 -210.938 1283
-242.188 -210.938 1283
46.875 -195.312 3399
54.6875 -195.312 3399
125 -195.312 3399
-156.25 -195.312 1354
-406.25 -195.312 3300
484.375 -203.125 3300
31.25 -203.125 3433
93.75 -203.125 3399
101.562 -203.125 3399
140.625 -164.062 3365
23.4375 -164.062 1624
-289.062 -164.062 1288
492.188 -171.875 3269
101.562 -171.875 3433
0 -171.875 1647
-242.188 -171.875 1288
125 -179.688 3399
468.75 -187.5 3300
492.188 -187.5 3300
179.688 -187.5 1523
304.688 -140.625 1503
-7.8125 -140.625 1398
-335.938 -132.812 1292
375 -132.812 3433
179.688 -148.438 1529
320.312 -15.625 1509
492.188 -7.8125 1503
265.625 -7.8125 1503
218.75 -23.4375 1564
-101.562 -23.4375 1169
312.5 -23.4375 1550
203.125 -31.25 1557
23.4375 -54.6875 1157
-265.625 -101.562 1255
-148.438 -125 1307
468.75 -70.3125 3433
289.062 -375 3208
312.5 -375 3178
46.875 -328.125 3300
484.375 -320.312 3208
187.5 -320.312 3300
257.812 -335.938 3269
210.938 -335.938 3300
289.062 -343.75 3269
-328.125 -281.25 1529
273.438 -445.312 3149
39.0625 -429.688 3238
-39.0625 -414.062 3238
-375 179.688 1387
273.438 140.625 1202
-445.312 140.625 1206
-351.562 195.312 1543
445.312 242.188 1232
398.438 70.3125 1255
-164.062 62.5 1214
359.375 85.9375 1206
-320.312 54.6875 1206
-437.5 54.6875 1197
-148.438 46.875 1197
335.938 31.25 1317
296.875 39.0625 1343
273.438 23.4375 1398
210.938 15.625 1410
93.75 15.625 1181
78.125 15.625 1177
-70.3125 15.625 1181
-93.75 437.5 1477
78.125 398.438 1317
39.0625 398.438 1333
-93.75 398.438 1483
-109.375 390.625 1496
-210.938 390.625 1680
250 390.625 1496
453.125 390.625 1297
335.938 382.812 1496
343.75 382.812 1470
-382.812 382.812 1359
39.0625 375 1739
187.5 375 1415
335.938 414.062 1452
460.938 406.25 1307
78.125 406.25 1322
-460.938 406.25 1579
-46.875 429.688 1496
234.375 421.875 1427
460.938 312.5 1259
289.062 312.5 1496
-382.812 312.5 1365
-445.312 312.5 1458
-109.375 328.125 1904
328.125 335.938 1489
460.938 367.188 1283
343.75 367.188 1452
31.25 367.188 1785
-109.375 367.188 1601
156.25 351.562 1439
312.5 351.562 1477
-39.0625 304.688 1926
468.75 296.875 1255
-343.75 296.875 1543
226.562 289.062 1259
242.188 250 1241
-414.062 265.625 1273
312.5 -156.25 1503
343.75 -148.438 1503
453.125 -242.188 3300
453.125 -234.375 3333
85.9375 -62.5 1153
171.875 -414.062 3238
179.688 -351.562 3300
171.875 -335.938 3269
476.562 171.875 1210
85.9375 62.5 1189
101.562 62.5 1255
-359.375 62.5 1193
-390.625 250 1359
-39.0625 62.5 1197
101.562 171.875 1210
-203.125 -39.0625 1173
-367.188 281.25 1458
132.812 54.6875 1278
-468.75 23.4375 1189
23.4375 15.625 1181
-328.125 0 1177
85.9375 7.8125 1173
