ply
format ascii 1.0
comment Created by Open3D
element vertex 2325
property double x
property double y
property double z
end_header
-226.562 -367.188 3120
-132.812 117.188 1073
-218.75 -101.562 1022
203.125 -109.375 1105
-359.375 -375 3092
-312.5 335.938 1477
437.5 195.312 2103
-437.5 -320.312 1268
-195.312 414.062 1292
-500 -375 995
-39.0625 -78.125 1245
-179.688 -210.938 1134
250 -296.875 943
242.188 -375 1013
351.562 -296.875 3037
-500 -234.375 989
-31.25 414.062 1041
-445.312 -15.625 903
406.25 -289.062 2958
421.875 367.188 930
375 -15.625 1232
-210.938 -125 1047
78.125 429.688 1123
226.562 -203.125 1019
-171.875 -328.125 3208
-187.5 -296.875 1245
242.188 46.875 1165
-382.812 -312.5 1259
-210.938 -367.188 3120
-39.0625 -117.188 1283
-70.3125 437.5 1496
-140.625 421.875 1523
117.188 429.688 1130
-101.562 437.5 1509
-359.375 296.875 954
-359.375 296.875 954
-242.188 203.125 943
54.6875 406.25 1025
-250 -15.625 951
-195.312 15.625 1094
-296.875 -312.5 1255
398.438 187.5 1050
-85.9375 406.25 1126
203.125 -31.25 1181
359.375 -296.875 3037
-343.75 320.312 1489
117.188 -320.312 943
148.438 187.5 1013
-296.875 335.938 1477
257.812 -312.5 946
78.125 -429.688 1063
31.25 421.875 1130
-234.375 93.75 967
-125 414.062 1349
-132.812 -359.375 3092
242.188 -382.812 1022
382.812 39.0625 1181
-375 328.125 1509
-375 -375 3092
-171.875 -70.3125 1161
226.562 -125 1094
-15.625 414.062 1025
-218.75 101.562 1025
-218.75 390.625 1227
351.562 382.812 925
-93.75 -296.875 3120
-101.562 -359.375 3092
-234.375 343.75 1084
-179.688 -46.875 1134
-226.562 93.75 1025
-242.188 171.875 970
281.25 -390.625 2835
15.625 445.312 1523
-164.062 -93.75 1145
484.375 -273.438 2933
406.25 281.25 981
39.0625 -93.75 1149
-289.062 195.312 903
-445.312 -320.312 1259
382.812 -296.875 2984
398.438 -289.062 2958
359.375 -117.188 1338
-39.0625 -132.812 1302
-148.438 -117.188 1219
257.812 -148.438 1359
-429.688 -164.062 1025
78.125 -31.25 1202
101.562 -226.562 1019
-171.875 -226.562 1153
54.6875 375 1041
-234.375 -367.188 3120
-187.5 -46.875 1119
-46.875 -351.562 3092
140.625 -203.125 1028
382.812 31.25 1185
-23.4375 -54.6875 1232
23.4375 437.5 1523
375 -85.9375 1297
7.8125 421.875 1126
-375 -85.9375 1004
-468.75 -304.688 1245
-171.875 -210.938 1134
-398.438 -375 3092
85.9375 429.688 1123
-304.688 335.938 1477
0 -312.5 989
15.625 398.438 1031
31.25 -179.688 1080
-132.812 398.438 1123
242.188 -390.625 1034
-429.688 -179.688 1010
-289.062 -304.688 1250
31.25 -328.125 962
210.938 -140.625 1077
312.5 -304.688 3037
7.8125 -46.875 1223
-125 -195.312 1292
62.5 -328.125 954
-500 -210.938 906
62.5 -195.312 1054
-500 -281.25 984
273.438 406.25 1044
-187.5 -304.688 1250
-54.6875 -351.562 3120
-421.875 -375 3092
-156.25 -289.062 1236
-226.562 242.188 973
15.625 -46.875 1219
-281.25 -304.688 1250
-148.438 429.688 1516
-101.562 429.688 1516
-250 210.938 935
7.8125 -281.25 1007
250 -359.375 989
117.188 -195.312 1041
0 -117.188 1149
-85.9375 414.062 1354
476.562 -273.438 2984
398.438 171.875 1063
7.8125 445.312 1523
250 -328.125 951
-335.938 328.125 1483
-54.6875 437.5 1503
101.562 -203.125 1038
-218.75 46.875 1028
-195.312 -296.875 1245
-156.25 398.438 1126
-85.9375 -46.875 1214
-148.438 -359.375 3092
242.188 -265.625 970
203.125 7.8125 1185
-492.188 -328.125 995
-398.438 -312.5 1259
-31.25 406.25 1041
-421.875 -62.5 913
242.188 -273.438 964
-406.25 -375 3092
-445.312 117.188 860
203.125 -117.188 1097
101.562 429.688 1130
398.438 179.688 1057
101.562 -195.312 1041
-148.438 421.875 1516
-414.062 -343.75 3178
234.375 -234.375 995
62.5 375 1038
-406.25 -343.75 3178
-492.188 406.25 1464
-375 335.938 1516
62.5 -31.25 1210
390.625 101.562 1123
-242.188 335.938 1070
-476.562 -39.0625 959
-296.875 335.938 1477
281.25 -39.0625 1250
-359.375 304.688 1509
-242.188 -367.188 3092
-382.812 -375 3092
-351.562 -312.5 1259
343.75 -296.875 3037
195.312 -85.9375 1130
-437.5 -23.4375 903
-140.625 -359.375 3092
296.875 375 925
109.375 429.688 1130
-414.062 -320.312 1264
421.875 -85.9375 2618
117.188 203.125 1025
484.375 273.438 1981
125 429.688 1126
-257.812 70.3125 896
304.688 367.188 923
382.812 46.875 1173
-156.25 421.875 1516
-78.125 46.875 1134
-296.875 -304.688 1245
-429.688 -375 3092
414.062 367.188 925
367.188 -78.125 1297
78.125 -203.125 1044
226.562 -187.5 1038
367.188 -54.6875 1273
-500 312.5 1376
-218.75 -367.188 3120
382.812 70.3125 1153
-31.25 -62.5 1232
-296.875 171.875 878
390.625 -289.062 3010
359.375 -101.562 1322
62.5 382.812 1044
109.375 421.875 1115
-367.188 343.75 1509
70.3125 -62.5 1165
304.688 -304.688 3037
-39.0625 -70.3125 1236
-132.812 -195.312 1232
23.4375 421.875 1126
-39.0625 -140.625 1138
-250 -367.188 3092
-437.5 -343.75 3178
-187.5 421.875 1312
70.3125 -421.875 1047
-492.188 -226.562 951
70.3125 429.688 1123
-125 429.688 1516
-312.5 335.938 1477
-335.938 335.938 1477
-39.0625 -101.562 1268
296.875 -304.688 3037
-195.312 414.062 1292
39.0625 414.062 1031
-39.0625 414.062 1050
-437.5 -70.3125 915
289.062 -304.688 3064
-132.812 -359.375 3092
-257.812 -367.188 3092
-406.25 -312.5 1259
218.75 -171.875 1047
7.8125 398.438 1025
421.875 54.6875 2333
148.438 -23.4375 1197
46.875 -328.125 959
484.375 31.25 2398
421.875 398.438 928
-78.125 437.5 1503
242.188 -367.188 1001
-203.125 -328.125 3208
-234.375 -7.8125 954
-234.375 -31.25 964
-148.438 -289.062 1236
-304.688 -304.688 1245
328.125 -304.688 3037
156.25 437.5 1126
54.6875 -31.25 1210
-117.188 421.875 1349
-492.188 -304.688 1004
375 -23.4375 1241
-62.5 -351.562 3120
164.062 195.312 1034
-125 414.062 1349
-46.875 437.5 1489
359.375 -109.375 1333
132.812 -320.312 940
-359.375 312.5 1543
-320.312 406.25 1509
351.562 -296.875 3037
-125 398.438 1126
15.625 -335.938 962
62.5 -203.125 1047
406.25 312.5 959
-132.812 421.875 1516
-109.375 429.688 1516
31.25 429.688 1523
31.25 -39.0625 1214
-179.688 414.062 1376
-195.312 -328.125 3208
-195.312 -23.4375 1028
109.375 -203.125 1034
62.5 -382.812 987
250 -328.125 951
-125 -359.375 3120
-101.562 -148.438 1317
-500 -257.812 995
39.0625 390.625 1025
-39.0625 -125 1292
-367.188 -375 3092
-281.25 218.75 935
-273.438 218.75 935
242.188 -375 1013
-171.875 -39.0625 1145
-23.4375 406.25 1031
-437.5 -375 3092
-148.438 -359.375 3092
437.5 -281.25 2958
-414.062 -375 3092
23.4375 -156.25 1105
117.188 -195.312 1041
-179.688 0 1169
250 -335.938 964
-289.062 -304.688 1245
-70.3125 -351.562 3120
-156.25 -359.375 3120
-93.75 -320.312 3178
265.625 -312.5 956
257.812 -312.5 951
-429.688 -46.875 918
117.188 421.875 1119
-203.125 -296.875 1245
-101.562 437.5 1509
-23.4375 414.062 1130
-195.312 -296.875 1245
-39.0625 -187.5 1105
-164.062 -359.375 3120
-265.625 281.25 940
-500 -210.938 910
-210.938 398.438 1250
-39.0625 -132.812 1153
-304.688 335.938 1470
179.688 -351.562 962
-101.562 414.062 1343
-164.062 398.438 1130
210.938 -101.562 1112
-312.5 -304.688 1245
-257.812 0 938
-164.062 -359.375 3120
70.3125 -437.5 1077
-101.562 -195.312 1370
382.812 54.6875 1169
234.375 -54.6875 1259
109.375 -328.125 946
-54.6875 437.5 1503
125 -195.312 1041
-445.312 -375 3092
-375 -375 3092
210.938 -148.438 1070
93.75 179.688 1041
-203.125 421.875 1307
-304.688 140.625 851
0 421.875 1165
-15.625 -46.875 1223
-210.938 -296.875 1245
-203.125 437.5 1349
-296.875 -304.688 1245
367.188 -62.5 1283
-156.25 -296.875 1245
-156.25 -117.188 1232
-320.312 335.938 1470
-296.875 335.938 1477
-476.562 -320.312 1115
-421.875 -320.312 1259
-406.25 -375 3092
15.625 -39.0625 1214
-281.25 304.688 948
-39.0625 -148.438 1138
39.0625 429.688 1529
-398.438 265.625 946
296.875 382.812 935
484.375 343.75 1873
-93.75 -195.312 1370
85.9375 429.688 1123
-460.938 -375 3064
-218.75 -31.25 1004
-460.938 -320.312 1264
23.4375 398.438 1028
46.875 -335.938 954
132.812 429.688 1126
-132.812 398.438 1126
-476.562 -218.75 951
62.5 429.688 1119
414.062 398.438 935
-62.5 414.062 1536
-39.0625 -62.5 1232
-304.688 -304.688 1245
-250 148.438 975
367.188 375 928
-15.625 -54.6875 1232
-31.25 -78.125 1197
-273.438 343.75 1483
-242.188 328.125 1060
-398.438 -312.5 1259
390.625 109.375 1112
-351.562 351.562 1489
-15.625 -156.25 1123
-492.188 320.312 1354
242.188 -148.438 1365
101.562 -203.125 1038
-265.625 -367.188 3092
-85.9375 -289.062 3092
-156.25 421.875 1516
70.3125 -31.25 1210
-273.438 -367.188 3092
-335.938 328.125 1477
203.125 -78.125 1145
117.188 -23.4375 1210
-445.312 -39.0625 908
429.688 -23.4375 2503
-70.3125 359.375 1047
-398.438 -375 3092
-54.6875 -351.562 3092
101.562 421.875 1119
101.562 429.688 1119
343.75 -296.875 3037
250 -320.312 948
-265.625 -304.688 1245
-85.9375 429.688 1529
-406.25 -312.5 1259
-421.875 -312.5 1259
-484.375 -320.312 1108
-62.5 437.5 1503
-85.9375 437.5 1509
23.4375 421.875 1130
125 -23.4375 1202
31.25 421.875 1130
382.812 -289.062 3037
-226.562 -335.938 3208
-148.438 414.062 1516
-7.8125 -296.875 1010
-78.125 -351.562 3120
-195.312 437.5 1349
-31.25 414.062 1134
-421.875 -375 3092
226.562 -54.6875 1259
-445.312 -273.438 1031
46.875 -445.312 1080
-93.75 414.062 1343
468.75 -273.438 3010
0 -46.875 1223
15.625 -140.625 1119
-320.312 296.875 951
-93.75 -273.438 3037
-39.0625 414.062 1138
-453.125 -375 3064
375 -7.8125 1223
210.938 -140.625 1080
70.3125 -375 973
242.188 -367.188 1004
-414.062 -351.562 3178
-62.5 -351.562 3120
296.875 -304.688 3064
-484.375 257.812 959
234.375 382.812 935
31.25 414.062 1038
335.938 -296.875 3064
289.062 -304.688 3064
-476.562 257.812 956
125 421.875 1119
-164.062 -359.375 3120
-109.375 437.5 1509
-78.125 -359.375 3092
93.75 429.688 1119
54.6875 -335.938 954
-164.062 -296.875 1245
-281.25 -367.188 3092
-39.0625 406.25 1041
-250 -367.188 3092
7.8125 -351.562 959
-289.062 -367.188 3092
429.688 -281.25 2984
-296.875 -367.188 3092
15.625 -351.562 959
15.625 421.875 1134
-343.75 -304.688 1245
-390.625 -15.625 910
0 445.312 1503
101.562 -187.5 1054
-117.188 -320.312 3178
-218.75 -296.875 1241
476.562 -273.438 2984
-179.688 -359.375 3120
250 -328.125 954
-46.875 -187.5 1370
-179.688 -187.5 1112
203.125 -343.75 956
492.188 234.375 2028
-406.25 -78.125 910
-148.438 398.438 1138
226.562 -203.125 1028
226.562 -203.125 1028
23.4375 -39.0625 1214
-312.5 -304.688 1245
226.562 -109.375 1317
-468.75 -375 3037
23.4375 -351.562 959
-148.438 -289.062 1236
70.3125 -195.312 1060
70.3125 -195.312 1060
-23.4375 -54.6875 1232
218.75 -156.25 1067
140.625 -23.4375 1206
-140.625 406.25 1349
-445.312 -351.562 3178
-242.188 -23.4375 959
398.438 195.312 1044
-210.938 -296.875 1245
-70.3125 -351.562 3120
-31.25 -54.6875 1227
-265.625 312.5 948
187.5 -54.6875 1161
-195.312 7.8125 1097
-257.812 -367.188 3092
-304.688 -367.188 3092
-242.188 -54.6875 984
445.312 -70.3125 2618
-320.312 -304.688 1245
-476.562 -320.312 1115
195.312 -85.9375 1134
78.125 -335.938 948
23.4375 -398.438 1004
398.438 -31.25 2503
23.4375 429.688 1523
421.875 156.25 2156
390.625 117.188 1108
-289.062 132.812 854
-31.25 -85.9375 1197
-39.0625 -70.3125 1236
468.75 23.4375 2398
-62.5 -195.312 1370
406.25 273.438 984
406.25 296.875 970
148.438 -398.438 1013
-39.0625 -140.625 1145
-257.812 335.938 1080
-453.125 265.625 962
93.75 -195.312 1047
484.375 187.5 2103
-15.625 -242.188 1054
-70.3125 -289.062 3092
-39.0625 -156.25 1328
-226.562 -296.875 1241
-140.625 421.875 1509
-109.375 406.25 1349
54.6875 421.875 1130
-31.25 -187.5 1105
117.188 195.312 1031
-468.75 39.0625 891
140.625 437.5 1138
46.875 -343.75 954
117.188 -195.312 1041
328.125 -296.875 3064
406.25 265.625 992
-171.875 -359.375 3120
-382.812 -343.75 3178
281.25 -273.438 3149
-109.375 -320.312 3178
375 -296.875 2958
-390.625 -70.3125 920
-85.9375 -351.562 3120
-132.812 429.688 1509
218.75 -250 992
-281.25 343.75 1483
93.75 -187.5 1057
-429.688 -343.75 3178
-156.25 -289.062 1236
-164.062 437.5 1503
203.125 -109.375 1108
242.188 0 1206
-39.0625 -187.5 1105
-351.562 335.938 1509
-429.688 335.938 1572
-46.875 414.062 1119
39.0625 -289.062 992
-406.25 109.375 856
-500 -289.062 981
31.25 437.5 1523
54.6875 -250 1013
304.688 -31.25 1241
304.688 -31.25 1241
-351.562 -312.5 1259
-351.562 -304.688 1245
-218.75 398.438 1245
226.562 -289.062 956
7.8125 398.438 1034
-398.438 -31.25 920
-484.375 93.75 862
390.625 -289.062 2958
-429.688 -375 3092
281.25 -304.688 3037
250 -320.312 948
-179.688 421.875 1376
421.875 -281.25 2984
-218.75 93.75 1034
-390.625 -375 3092
15.625 429.688 1523
-109.375 429.688 1516
-93.75 -351.562 3120
218.75 -179.688 1050
-445.312 101.562 858
-140.625 429.688 1509
-148.438 406.25 1349
-351.562 320.312 1496
242.188 -359.375 992
-132.812 414.062 1349
-484.375 -320.312 1108
-414.062 -15.625 913
-156.25 429.688 1509
-164.062 421.875 1516
210.938 -148.438 1070
-195.312 -359.375 3120
-500 -335.938 995
-203.125 -148.438 1067
-343.75 -304.688 1245
-117.188 429.688 1516
-78.125 -351.562 3120
273.438 -304.688 951
203.125 -117.188 1101
-359.375 351.562 1503
375 0 1219
-390.625 -343.75 3178
-343.75 -312.5 1255
250 -304.688 948
-109.375 -195.312 1370
109.375 -187.5 1044
234.375 -15.625 1219
-171.875 -296.875 1245
335.938 7.8125 1202
46.875 421.875 1134
-437.5 296.875 1609
187.5 -62.5 1153
-218.75 -296.875 1241
250 -312.5 948
-460.938 343.75 1550
-187.5 -210.938 1134
-304.688 148.438 858
-39.0625 -148.438 1138
375 7.8125 1206
335.938 -132.812 1354
-492.188 -320.312 978
-234.375 -296.875 1241
-296.875 -335.938 3178
406.25 304.688 964
-187.5 -359.375 3120
218.75 -85.9375 1288
-281.25 54.6875 898
31.25 -414.062 1034
-281.25 -367.188 3092
-390.625 -46.875 930
-289.062 335.938 1483
101.562 437.5 1523
-46.875 421.875 1529
-273.438 132.812 896
-203.125 39.0625 1073
-328.125 -304.688 1245
-320.312 335.938 1470
23.4375 414.062 1038
125 187.5 1019
-187.5 -187.5 1112
-445.312 343.75 1550
-187.5 437.5 1349
-492.188 -218.75 910
343.75 -132.812 1354
93.75 -203.125 1041
93.75 -203.125 1041
-273.438 328.125 1489
-437.5 351.562 1543
375 -289.062 3037
132.812 -320.312 946
-15.625 -101.562 1173
109.375 -23.4375 1206
109.375 203.125 1025
109.375 -195.312 1041
-343.75 -335.938 3178
-468.75 46.875 894
289.062 -140.625 1365
242.188 -265.625 973
335.938 -265.625 3120
85.9375 429.688 1123
70.3125 -335.938 948
-93.75 437.5 1509
-218.75 -46.875 981
-226.562 -367.188 3120
-62.5 437.5 1503
-359.375 -335.938 3178
-171.875 -70.3125 1177
125 132.812 1004
226.562 382.812 938
-85.9375 -242.188 2958
140.625 140.625 989
-242.188 179.688 964
406.25 289.062 975
-7.8125 421.875 1165
-242.188 -367.188 3092
-78.125 406.25 1130
234.375 -148.438 1359
-93.75 429.688 1523
-421.875 -312.5 1259
-156.25 -265.625 1206
93.75 -328.125 946
195.312 -85.9375 1134
-164.062 -296.875 1245
-312.5 -367.188 3092
0 -148.438 1119
-335.938 -367.188 3092
-179.688 -359.375 3120
-156.25 -125 1232
132.812 -23.4375 1202
-296.875 -367.188 3092
-179.688 -70.3125 1169
414.062 -281.25 2984
179.688 -39.0625 1181
78.125 -429.688 1063
-78.125 429.688 1523
-203.125 0 1101
-195.312 -101.562 1063
-437.5 281.25 1624
-195.312 54.6875 1119
7.8125 -312.5 987
210.938 -148.438 1070
-140.625 -273.438 1223
359.375 -101.562 1322
-234.375 156.25 1028
242.188 -281.25 967
-320.312 -367.188 3092
85.9375 437.5 1523
-39.0625 421.875 1529
-343.75 -367.188 3092
-203.125 -93.75 1028
460.938 -273.438 2984
-132.812 -320.312 3120
-257.812 171.875 906
-39.0625 -156.25 1328
46.875 429.688 1134
-437.5 187.5 946
-101.562 -351.562 3120
-39.0625 -132.812 1153
-39.0625 -140.625 1145
-179.688 -46.875 1153
382.812 62.5 1161
-203.125 -62.5 1041
-304.688 -367.188 3092
234.375 -242.188 995
-335.938 -375 3092
390.625 125 1108
398.438 -187.5 2859
-296.875 117.188 854
-39.0625 -164.062 1338
351.562 367.188 928
-203.125 414.062 1292
367.188 -46.875 1259
-429.688 -312.5 1259
-187.5 -15.625 1115
359.375 -109.375 1333
-500 -343.75 992
-164.062 -101.562 1169
-265.625 203.125 930
-500 320.312 1354
-257.812 7.8125 933
320.312 367.188 928
234.375 -398.438 1044
195.312 -93.75 1119
250 -312.5 948
-179.688 -39.0625 1161
-218.75 -109.375 1028
359.375 -93.75 1317
-164.062 -328.125 3208
226.562 -210.938 1019
-289.062 78.125 875
-250 140.625 967
-218.75 -328.125 3208
-476.562 -23.4375 943
-148.438 -148.438 1259
-187.5 -328.125 3208
187.5 -62.5 1153
-210.938 -70.3125 1044
-218.75 93.75 1034
-210.938 -148.438 1067
421.875 -257.812 3064
-390.625 296.875 1529
-257.812 179.688 928
-265.625 -367.188 3092
-273.438 46.875 906
-132.812 -187.5 1307
-273.438 31.25 915
-101.562 -320.312 3208
7.8125 -179.688 1090
-195.312 -23.4375 1130
-265.625 312.5 946
-226.562 70.3125 1038
203.125 -125 1090
-234.375 -62.5 989
-203.125 -7.8125 1108
-343.75 296.875 954
-437.5 -375 3092
242.188 -273.438 973
437.5 296.875 1947
242.188 445.312 1134
-242.188 179.688 964
-242.188 320.312 946
-320.312 -382.812 3064
390.625 375 928
109.375 -187.5 1054
-156.25 -132.812 1241
-148.438 -156.25 1264
-23.4375 -46.875 1227
-218.75 39.0625 1041
-242.188 117.188 956
-226.562 -101.562 1025
-328.125 -367.188 3092
195.312 -78.125 1145
-210.938 23.4375 1084
-156.25 -125 1236
210.938 -156.25 1067
-109.375 -359.375 3092
-39.0625 -148.438 1138
-296.875 101.562 862
-171.875 -234.375 1169
-156.25 -273.438 1214
-203.125 39.0625 1130
367.188 -39.0625 1259
203.125 -117.188 1108
265.625 414.062 1063
-171.875 -78.125 1193
-179.688 -203.125 1130
195.312 -93.75 1123
-39.0625 -171.875 1115
-429.688 273.438 951
-164.062 -250 1185
-195.312 7.8125 1105
-164.062 398.438 1130
-140.625 -164.062 1273
179.688 -39.0625 1181
-492.188 -273.438 987
273.438 406.25 1050
-265.625 171.875 925
-164.062 -101.562 1185
195.312 -265.625 978
250 437.5 1115
375 -54.6875 1273
-226.562 117.188 1019
242.188 -351.562 984
195.312 -54.6875 1153
-445.312 -54.6875 925
-242.188 109.375 995
-234.375 -70.3125 998
23.4375 414.062 1126
492.188 218.75 2053
492.188 -398.438 2639
-203.125 31.25 1084
101.562 351.562 933
23.4375 343.75 938
-39.0625 343.75 940
-476.562 15.625 885
-265.625 23.4375 923
7.8125 398.438 1031
-250 210.938 938
382.812 -62.5 1288
-203.125 -93.75 1038
-39.0625 -156.25 1138
-39.0625 -156.25 1138
132.812 156.25 995
-406.25 109.375 856
234.375 -390.625 1041
-242.188 -39.0625 970
-210.938 70.3125 1105
-304.688 117.188 854
-179.688 -70.3125 1177
-281.25 195.312 908
-203.125 -148.438 1073
195.312 -265.625 978
-320.312 117.188 849
-500 -250 989
-132.812 406.25 1134
195.312 359.375 933
85.9375 -187.5 1057
-234.375 148.438 995
234.375 -250 995
398.438 187.5 1057
-109.375 -242.188 2958
101.562 -187.5 1057
203.125 414.062 1084
-484.375 15.625 882
-187.5 -23.4375 1130
-226.562 125 1060
-406.25 -23.4375 920
-250 -39.0625 970
203.125 -125 1090
-273.438 125 860
-210.938 62.5 1063
31.25 414.062 1034
-62.5 -312.5 3178
-218.75 85.9375 1044
-101.562 414.062 1338
218.75 -187.5 1047
-210.938 15.625 1087
-132.812 187.5 1025
414.062 23.4375 2415
-218.75 -62.5 1034
85.9375 15.625 1177
-328.125 -304.688 1250
-62.5 437.5 1496
-343.75 -304.688 1250
226.562 -210.938 1022
375 7.8125 1206
-210.938 54.6875 1063
-218.75 -296.875 1245
-218.75 39.0625 1041
-500 -210.938 918
218.75 -179.688 1054
234.375 -234.375 1004
-320.312 296.875 948
171.875 -31.25 1193
-265.625 195.312 925
179.688 -31.25 1189
54.6875 398.438 1031
-39.0625 -125 1165
-210.938 -62.5 1050
93.75 -187.5 1054
-234.375 85.9375 1016
-257.812 -15.625 954
-453.125 7.8125 894
-203.125 -7.8125 1108
-351.562 117.188 851
210.938 -148.438 1073
132.812 -320.312 946
70.3125 -406.25 1019
-460.938 -343.75 3120
-148.438 -140.625 1236
398.438 210.938 1034
-359.375 -39.0625 951
-62.5 359.375 1047
-281.25 304.688 948
-328.125 140.625 858
-226.562 -85.9375 1013
375 -15.625 1232
101.562 -421.875 1038
23.4375 398.438 1034
-179.688 -234.375 1165
-171.875 -78.125 1193
359.375 -85.9375 1312
-250 -23.4375 962
-171.875 -93.75 1197
-257.812 164.062 959
-484.375 -320.312 1123
-218.75 406.25 1259
203.125 -23.4375 1219
15.625 414.062 1038
382.812 54.6875 1165
-187.5 382.812 1130
390.625 132.812 1101
-195.312 -171.875 1094
-203.125 414.062 1302
-234.375 93.75 1028
-164.062 -117.188 1227
-445.312 101.562 858
-203.125 -70.3125 1041
-250 132.812 981
-414.062 -62.5 913
250 -320.312 954
-171.875 -70.3125 1185
234.375 -242.188 1001
-218.75 -54.6875 1034
-328.125 320.312 1489
-476.562 -218.75 951
93.75 -148.438 1090
226.562 54.6875 1157
-273.438 328.125 1483
164.062 -226.562 1013
-242.188 187.5 948
203.125 -132.812 1087
-437.5 -132.812 1044
85.9375 429.688 1123
-164.062 421.875 1381
15.625 398.438 1034
117.188 421.875 1115
132.812 -23.4375 1202
93.75 -203.125 1041
187.5 -70.3125 1149
-375 117.188 851
390.625 140.625 1090
398.438 203.125 1044
-164.062 -296.875 1245
-117.188 429.688 1392
117.188 54.6875 1145
-179.688 -46.875 1165
250 -312.5 954
242.188 -312.5 951
195.312 -85.9375 1138
-500 -304.688 984
210.938 -70.3125 1273
-390.625 -70.3125 920
242.188 -296.875 954
-39.0625 -171.875 1115
-46.875 -62.5 1232
-187.5 -23.4375 1130
-210.938 -296.875 1245
-218.75 -125 1044
-500 -210.938 918
-437.5 -148.438 1034
-265.625 31.25 915
-7.8125 421.875 1138
226.562 31.25 1181
-226.562 -296.875 1245
359.375 367.188 928
-390.625 109.375 856
-390.625 109.375 856
-234.375 140.625 995
-226.562 117.188 1019
-187.5 -54.6875 1145
226.562 -218.75 1016
-46.875 414.062 1123
-179.688 -210.938 1138
-367.188 109.375 856
-289.062 335.938 1483
54.6875 375 1047
-234.375 171.875 1022
234.375 -148.438 1365
101.562 429.688 1138
-273.438 39.0625 910
109.375 -195.312 1044
-320.312 -304.688 1245
-289.062 85.9375 873
0 445.312 1523
195.312 -93.75 1123
171.875 93.75 1119
-312.5 117.188 849
-210.938 -132.812 1054
-218.75 85.9375 1044
23.4375 -39.0625 1219
-132.812 429.688 1387
-429.688 117.188 858
-156.25 -125 1236
-421.875 -203.125 1028
-203.125 -171.875 1090
187.5 359.375 933
39.0625 398.438 1025
140.625 187.5 1019
-484.375 93.75 864
-242.188 -46.875 978
328.125 367.188 928
210.938 -156.25 1067
-78.125 359.375 1047
-226.562 62.5 1013
-296.875 335.938 1470
-203.125 406.25 1292
-195.312 390.625 1130
140.625 -23.4375 1202
-398.438 109.375 856
-203.125 31.25 1084
-210.938 437.5 1333
39.0625 343.75 935
125 421.875 1115
218.75 359.375 933
-39.0625 -179.688 1108
195.312 -101.562 1119
-312.5 132.812 849
-132.812 -156.25 1328
39.0625 414.062 1034
-367.188 117.188 851
-414.062 101.562 858
-242.188 109.375 995
-46.875 -85.9375 1202
-312.5 -304.688 1245
-476.562 257.812 956
23.4375 421.875 1126
-500 85.9375 862
-132.812 414.062 1349
31.25 414.062 1034
-39.0625 421.875 1529
-93.75 398.438 1130
-265.625 7.8125 930
-359.375 -46.875 951
-359.375 125 851
140.625 140.625 992
-304.688 125 849
-218.75 -109.375 1031
429.688 273.438 1981
-257.812 0 940
-429.688 101.562 856
-195.312 -31.25 1130
93.75 429.688 1123
234.375 -250 995
-421.875 273.438 954
460.938 273.438 1981
31.25 398.438 1025
-484.375 0 885
-281.25 70.3125 885
-203.125 -101.562 1067
421.875 382.812 933
-164.062 -273.438 1214
257.812 421.875 1084
-421.875 -312.5 1259
-343.75 281.25 946
-476.562 -15.625 940
-343.75 117.188 854
-203.125 382.812 1134
-320.312 125 849
-78.125 328.125 935
140.625 132.812 989
304.688 375 930
140.625 437.5 1105
-273.438 250 964
-179.688 -78.125 1181
398.438 367.188 930
-171.875 -78.125 1193
140.625 148.438 992
-164.062 421.875 1381
242.188 -62.5 1273
-414.062 -78.125 910
-468.75 -54.6875 925
-500 -328.125 995
-476.562 23.4375 885
-187.5 -195.312 1123
-320.312 335.938 1470
148.438 -23.4375 1202
-39.0625 414.062 1134
-203.125 -78.125 1041
-250 218.75 984
-156.25 421.875 1376
-437.5 101.562 858
-273.438 109.375 873
-367.188 312.5 1489
-218.75 304.688 943
-242.188 210.938 998
-93.75 414.062 1343
-234.375 351.562 1094
406.25 351.562 938
-148.438 406.25 1349
-476.562 93.75 864
-23.4375 390.625 1034
-203.125 -156.25 1077
-109.375 -195.312 1376
-257.812 296.875 943
-242.188 -62.5 989
-132.812 101.562 1087
-328.125 132.812 854
-218.75 39.0625 1041
242.188 -359.375 995
-367.188 289.062 948
156.25 156.25 1013
-39.0625 289.062 959
-226.562 304.688 943
-304.688 -304.688 1250
93.75 -195.312 1047
-351.562 125 851
-210.938 15.625 1087
-296.875 125 849
-195.312 0 1101
406.25 312.5 962
-195.312 0 1101
-179.688 382.812 1130
-179.688 382.812 1130
70.3125 -195.312 1057
-156.25 429.688 1381
-242.188 23.4375 933
-390.625 -7.8125 910
-210.938 54.6875 1063
343.75 367.188 928
-210.938 -46.875 1044
-218.75 -296.875 1245
-453.125 -46.875 920
-265.625 0 938
398.438 -70.3125 2579
-226.562 109.375 1019
-265.625 195.312 925
-273.438 304.688 948
406.25 367.188 930
-421.875 -31.25 913
-62.5 414.062 1126
468.75 195.312 2103
-187.5 390.625 1130
15.625 421.875 1126
46.875 -445.312 1080
-210.938 421.875 1302
-39.0625 -164.062 1134
23.4375 421.875 1126
-148.438 398.438 1130
-39.0625 -85.9375 1202
-164.062 -101.562 1185
-23.4375 406.25 1034
31.25 343.75 935
390.625 367.188 930
335.938 367.188 928
117.188 -187.5 1054
-468.75 -320.312 1264
117.188 351.562 935
117.188 421.875 1115
203.125 93.75 1119
-312.5 296.875 946
-109.375 429.688 1338
-484.375 -296.875 1031
382.812 -70.3125 1297
281.25 132.812 1097
-195.312 -195.312 1123
15.625 265.625 978
-406.25 -312.5 1259
-375 -23.4375 951
-210.938 -78.125 1034
-296.875 -304.688 1250
-429.688 -171.875 1028
85.9375 -187.5 1057
109.375 -23.4375 1214
23.4375 429.688 1523
-359.375 320.312 1489
390.625 -85.9375 2659
-414.062 -23.4375 915
-421.875 109.375 856
-218.75 -54.6875 1034
195.312 117.188 1101
-148.438 -148.438 1264
101.562 -187.5 1057
-242.188 171.875 964
-203.125 -7.8125 1108
-468.75 296.875 1586
-171.875 -242.188 1173
-429.688 54.6875 887
85.9375 437.5 1410
-101.562 46.875 1134
-164.062 -257.812 1197
-195.312 437.5 1349
-187.5 -31.25 1145
234.375 -93.75 1302
171.875 -31.25 1193
289.062 382.812 935
-453.125 93.75 860
-140.625 -179.688 1273
54.6875 414.062 1038
125 -23.4375 1202
-359.375 -7.8125 935
-125 320.312 938
273.438 398.438 1034
-453.125 101.562 860
-156.25 -210.938 1153
406.25 320.312 959
-460.938 0 901
140.625 31.25 1165
117.188 -23.4375 1210
-382.812 -78.125 923
-203.125 -296.875 1250
148.438 421.875 1108
-218.75 39.0625 1041
-398.438 -15.625 913
-414.062 -226.562 981
-281.25 46.875 903
203.125 -85.9375 1141
304.688 -31.25 1245
265.625 414.062 1063
101.562 429.688 1138
-31.25 414.062 1130
281.25 125 1101
-320.312 421.875 1496
203.125 -125 1090
-289.062 -304.688 1250
-390.625 -226.562 1145
406.25 335.938 948
-343.75 -304.688 1250
-242.188 312.5 946
-390.625 0 910
234.375 70.3125 1145
226.562 390.625 1034
-156.25 -140.625 1236
210.938 -15.625 1214
-437.5 -70.3125 920
-484.375 -218.75 951
203.125 -132.812 1087
-210.938 62.5 1063
226.562 39.0625 1173
265.625 125 1097
-203.125 156.25 1041
-140.625 -132.812 1255
-85.9375 328.125 935
-492.188 -218.75 948
-203.125 23.4375 1108
195.312 429.688 1119
296.875 -140.625 1376
-398.438 -312.5 1259
-234.375 -85.9375 1013
-421.875 -62.5 913
218.75 -187.5 1047
-234.375 140.625 995
-304.688 -304.688 1250
195.312 -101.562 1119
-93.75 429.688 1536
-234.375 -367.188 3092
-320.312 -367.188 3092
-156.25 -132.812 1241
54.6875 390.625 1038
-164.062 -109.375 1227
-406.25 101.562 858
-492.188 -320.312 984
46.875 -195.312 1063
-140.625 398.438 1134
-70.3125 359.375 1044
-164.062 398.438 1130
226.562 359.375 933
320.312 375 928
-101.562 -351.562 3120
-468.75 0 903
156.25 -23.4375 1202
-234.375 -70.3125 998
-78.125 359.375 1047
335.938 -132.812 1359
101.562 -195.312 1047
-437.5 -23.4375 906
93.75 234.375 1004
-195.312 -296.875 1245
234.375 -312.5 948
-46.875 437.5 1516
-148.438 -164.062 1264
250 23.4375 1189
-171.875 312.5 940
-179.688 -218.75 1149
-242.188 156.25 981
-343.75 289.062 954
15.625 445.312 1523
156.25 445.312 1165
-226.562 109.375 1019
-218.75 -31.25 1013
140.625 -15.625 1210
210.938 -164.062 1060
210.938 359.375 933
-468.75 -226.562 951
-218.75 78.125 1038
-187.5 -54.6875 1145
-164.062 -93.75 1210
-109.375 437.5 1392
226.562 70.3125 1145
-195.312 7.8125 1105
-156.25 -296.875 1250
-195.312 390.625 1130
-15.625 390.625 1031
-23.4375 265.625 978
-406.25 109.375 856
-273.438 265.625 951
-359.375 109.375 856
-304.688 335.938 1464
195.312 -39.0625 1181
-242.188 179.688 964
125 132.812 1001
-343.75 125 854
-390.625 109.375 856
31.25 421.875 1126
-250 132.812 981
0 421.875 1145
-195.312 414.062 1302
54.6875 421.875 1134
46.875 414.062 1038
-234.375 85.9375 1016
125 421.875 1115
492.188 -273.438 2958
-195.312 -179.688 1101
406.25 328.125 954
-296.875 109.375 858
101.562 -203.125 1041
-320.312 335.938 1470
-234.375 148.438 995
-125 414.062 1343
-46.875 234.375 995
-265.625 187.5 920
-164.062 -281.25 1223
-93.75 -195.312 1376
-312.5 335.938 1464
-39.0625 -156.25 1138
-242.188 109.375 995
-187.5 -23.4375 1130
0 -46.875 1227
-171.875 -85.9375 1197
132.812 421.875 1119
-23.4375 335.938 935
-39.0625 -171.875 1115
-304.688 296.875 946
226.562 15.625 1189
117.188 429.688 1130
-179.688 -78.125 1181
-179.688 -78.125 1181
-460.938 -320.312 1264
367.188 -85.9375 1307
289.062 359.375 933
-273.438 257.812 959
-289.062 93.75 867
-179.688 -359.375 3120
140.625 421.875 1112
187.5 -70.3125 1149
140.625 132.812 989
-31.25 406.25 1034
54.6875 -31.25 1214
-453.125 31.25 875
-445.312 15.625 885
-476.562 -39.0625 948
-390.625 -31.25 920
281.25 390.625 938
382.812 70.3125 1157
-156.25 312.5 938
-460.938 -54.6875 928
-414.062 -312.5 1259
179.688 -46.875 1181
-187.5 -203.125 1126
62.5 -31.25 1210
-476.562 257.812 956
-398.438 -31.25 923
-85.9375 429.688 1523
-281.25 328.125 1489
-109.375 414.062 1338
-250 203.125 933
-382.812 109.375 856
281.25 359.375 933
-500 250 948
218.75 46.875 1165
-70.3125 328.125 935
70.3125 429.688 1126
-351.562 132.812 854
-234.375 -78.125 1001
-210.938 7.8125 1080
-125 429.688 1387
-429.688 -70.3125 915
390.625 148.438 1087
242.188 437.5 1119
-15.625 406.25 1034
-70.3125 351.562 1038
-390.625 117.188 856
-289.062 70.3125 885
-179.688 312.5 940
-296.875 -304.688 1250
-343.75 289.062 954
85.9375 7.8125 1181
-46.875 328.125 935
218.75 -195.312 1038
-453.125 -320.312 1264
-296.875 335.938 1470
-7.8125 335.938 935
-273.438 39.0625 910
125 429.688 1126
-445.312 93.75 860
-156.25 -273.438 1214
-210.938 54.6875 1063
-335.938 289.062 946
-289.062 -304.688 1250
-468.75 -31.25 908
-500 273.438 1338
-281.25 257.812 954
414.062 210.938 1041
39.0625 414.062 1034
-226.562 -85.9375 1013
429.688 -265.625 3037
-203.125 234.375 981
359.375 -78.125 1297
-296.875 -367.188 3092
-179.688 382.812 1130
-62.5 328.125 935
320.312 359.375 930
-468.75 93.75 860
-273.438 46.875 906
210.938 398.438 1050
-171.875 382.812 1130
-203.125 -101.562 1067
-312.5 -304.688 1245
109.375 -187.5 1054
-70.3125 398.438 1034
-250 179.688 964
-156.25 421.875 1376
-335.938 117.188 854
109.375 -195.312 1044
-429.688 7.8125 915
156.25 171.875 1022
-171.875 7.8125 1165
-187.5 -218.75 1145
367.188 -39.0625 1259
-242.188 335.938 1070
-203.125 -15.625 1105
406.25 359.375 933
234.375 359.375 933
-312.5 -367.188 3092
-85.9375 414.062 1343
-328.125 117.188 854
-54.6875 328.125 935
-375 109.375 856
242.188 359.375 933
-429.688 -7.8125 908
-429.688 101.562 856
54.6875 343.75 935
-203.125 23.4375 1108
-148.438 421.875 1387
-226.562 54.6875 1044
-187.5 -31.25 1145
148.438 -320.312 946
-359.375 140.625 864
-226.562 93.75 1028
39.0625 429.688 1134
-31.25 414.062 1130
304.688 359.375 930
-7.8125 390.625 1025
375 15.625 1206
-78.125 406.25 1119
70.3125 -31.25 1210
-156.25 -289.062 1241
-148.438 429.688 1387
-429.688 140.625 885
-210.938 -132.812 1054
-296.875 93.75 867
187.5 -31.25 1227
382.812 367.188 930
250 429.688 1097
203.125 -132.812 1090
-15.625 335.938 938
406.25 304.688 967
31.25 429.688 1523
15.625 429.688 1529
-281.25 62.5 891
62.5 414.062 1119
-93.75 -351.562 3120
-125 414.062 1343
-500 -437.5 1028
-429.688 62.5 885
-187.5 390.625 1130
-164.062 -125 1236
-46.875 -78.125 1197
-445.312 -62.5 923
-398.438 101.562 858
125 351.562 935
-171.875 -257.812 1202
-109.375 320.312 938
398.438 218.75 1028
195.312 -109.375 1112
31.25 -39.0625 1214
148.438 421.875 1108
-257.812 164.062 930
-421.875 -7.8125 910
-218.75 31.25 1060
-445.312 -39.0625 910
-164.062 -109.375 1227
-148.438 -156.25 1268
-171.875 -101.562 1197
54.6875 414.062 1123
-78.125 398.438 1126
-46.875 -85.9375 1193
-421.875 -15.625 910
-187.5 -359.375 3092
-195.312 382.812 1130
-453.125 -62.5 933
-335.938 -367.188 3092
-257.812 -7.8125 946
-453.125 15.625 882
-250 39.0625 946
54.6875 375 1044
7.8125 390.625 1025
-218.75 414.062 1273
-101.562 -265.625 3010
-179.688 -242.188 1181
226.562 -226.562 1010
156.25 421.875 1108
-46.875 -101.562 1181
109.375 351.562 935
-367.188 -39.0625 951
-468.75 -320.312 1268
-273.438 23.4375 923
93.75 -109.375 1119
117.188 429.688 1130
-492.188 0 885
-85.9375 46.875 1138
0 390.625 1025
187.5 437.5 1123
-109.375 414.062 1343
-203.125 -46.875 1044
-218.75 -46.875 1038
-328.125 -367.188 3092
-421.875 101.562 858
-164.062 382.812 1126
-484.375 -218.75 951
-39.0625 -109.375 1181
171.875 -23.4375 1206
-390.625 234.375 962
-359.375 -375 3064
15.625 445.312 1516
-484.375 -320.312 1119
-398.438 -39.0625 930
-304.688 296.875 943
-46.875 437.5 1503
335.938 375 930
-406.25 289.062 954
-429.688 257.812 946
-93.75 437.5 1509
-140.625 421.875 1343
-179.688 -54.6875 1173
328.125 359.375 930
-257.812 156.25 930
-39.0625 437.5 1516
46.875 -335.938 956
-304.688 335.938 1477
101.562 -335.938 948
31.25 421.875 1130
-250 296.875 943
-109.375 406.25 1130
-187.5 421.875 1370
-453.125 -132.812 1034
179.688 -54.6875 1169
-78.125 437.5 1516
-242.188 171.875 981
46.875 429.688 1134
78.125 -203.125 1047
-218.75 -304.688 1255
-195.312 0 1108
335.938 359.375 933
-101.562 429.688 1343
-453.125 109.375 860
-140.625 429.688 1516
-250 -23.4375 964
382.812 78.125 1153
109.375 23.4375 1173
-195.312 -31.25 1134
109.375 -328.125 951
-484.375 15.625 882
476.562 109.375 2256
-234.375 140.625 995
-109.375 46.875 1134
132.812 429.688 1119
164.062 -23.4375 1206
78.125 -23.4375 1214
-78.125 -125 1302
187.5 -78.125 1141
-429.688 39.0625 903
-265.625 15.625 930
132.812 351.562 935
-210.938 -296.875 1250
-343.75 -367.188 3092
54.6875 -335.938 956
70.3125 -335.938 954
-226.562 117.188 1022
-351.562 117.188 851
-437.5 7.8125 906
-257.812 218.75 943
-218.75 -117.188 1047
195.312 -31.25 1232
-39.0625 -187.5 1097
-273.438 242.188 970
-250 242.188 973
210.938 46.875 1165
-85.9375 406.25 1145
-460.938 93.75 862
46.875 343.75 935
242.188 -351.562 992
101.562 31.25 1165
460.938 -273.438 2984
-23.4375 414.062 1034
-484.375 93.75 867
-171.875 -234.375 1173
250 -148.438 1376
-414.062 -242.188 1001
320.312 -304.688 3037
210.938 -39.0625 1241
-351.562 -148.438 1067
234.375 -382.812 1038
398.438 226.562 1025
-250 195.312 948
437.5 -31.25 2522
-359.375 -39.0625 951
-351.562 -304.688 1255
-210.938 -62.5 1050
-179.688 390.625 1126
195.312 -101.562 1119
-210.938 304.688 943
54.6875 398.438 1097
156.25 -7.8125 1206
-367.188 304.688 1496
234.375 -390.625 1047
210.938 15.625 1189
273.438 195.312 1050
-132.812 421.875 1343
117.188 -15.625 1206
-343.75 -132.812 1050
-296.875 296.875 943
-179.688 -62.5 1177
109.375 429.688 1130
140.625 351.562 933
-367.188 -23.4375 954
109.375 -203.125 1038
62.5 -203.125 1054
23.4375 445.312 1516
-140.625 -171.875 1288
-375 23.4375 915
-390.625 351.562 1557
-242.188 164.062 981
164.062 -31.25 1193
-250 125 981
179.688 -62.5 1153
-492.188 93.75 864
-70.3125 398.438 1038
-203.125 414.062 1288
-78.125 -351.562 3120
-273.438 304.688 946
-117.188 414.062 1343
-195.312 -7.8125 1126
-468.75 257.812 956
164.062 218.75 1025
-257.812 -23.4375 959
140.625 -23.4375 1206
-15.625 414.062 1034
70.3125 -414.062 1047
-218.75 85.9375 1041
-335.938 281.25 943
-117.188 429.688 1343
-226.562 109.375 1022
-117.188 320.312 938
-312.5 335.938 1477
-210.938 7.8125 1044
-203.125 -156.25 1084
-195.312 -335.938 3120
-273.438 234.375 975
148.438 -335.938 948
-406.25 117.188 856
-500 351.562 1392
-195.312 -39.0625 1130
-390.625 125 858
-93.75 429.688 1343
-281.25 -367.188 3092
-367.188 -15.625 946
-242.188 -46.875 978
-234.375 132.812 998
-62.5 398.438 1028
-406.25 -78.125 915
-421.875 117.188 858
179.688 -39.0625 1181
140.625 218.75 1022
-484.375 85.9375 869
-210.938 54.6875 1077
-218.75 -62.5 1038
-367.188 109.375 856
-265.625 -367.188 3092
-328.125 117.188 856
-351.562 289.062 954
39.0625 421.875 1130
234.375 -62.5 1273
-148.438 421.875 1529
-171.875 -359.375 3092
-281.25 210.938 925
-398.438 179.688 923
-179.688 398.438 1398
54.6875 390.625 1070
-210.938 375 1126
-156.25 398.438 1130
-375 109.375 856
203.125 -140.625 1080
-437.5 -54.6875 925
-492.188 7.8125 882
-445.312 -54.6875 928
406.25 281.25 981
-101.562 320.312 938
-226.562 -109.375 1034
0 335.938 938
-70.3125 437.5 1509
-234.375 359.375 1108
78.125 -210.938 1044
-203.125 -15.625 1077
-46.875 -187.5 1097
-171.875 -85.9375 1206
-39.0625 -179.688 1097
78.125 -195.312 1057
-343.75 109.375 856
203.125 -156.25 1070
85.9375 -210.938 1041
85.9375 429.688 1123
70.3125 343.75 935
15.625 421.875 1123
359.375 -39.0625 1264
70.3125 -210.938 1047
-226.562 -93.75 1022
156.25 351.562 933
-476.562 -54.6875 930
-156.25 -281.25 1232
-359.375 -15.625 948
-289.062 85.9375 875
-164.062 382.812 1126
-218.75 78.125 1041
62.5 429.688 1126
31.25 445.312 1516
289.062 -46.875 1273
-390.625 109.375 856
-390.625 -46.875 935
-398.438 -85.9375 920
132.812 429.688 1119
-453.125 7.8125 896
-265.625 218.75 943
296.875 -46.875 1268
-218.75 31.25 1060
-421.875 109.375 858
-218.75 93.75 1087
351.562 359.375 933
-445.312 -250 1038
-500 85.9375 864
0 406.25 1028
210.938 -171.875 1054
-296.875 117.188 856
-195.312 414.062 1288
273.438 398.438 1038
-335.938 289.062 943
-281.25 328.125 1496
226.562 -226.562 1010
-171.875 382.812 1126
218.75 -117.188 1112
-203.125 -179.688 1105
-289.062 296.875 943
-203.125 -164.062 1090
-343.75 132.812 854
-195.312 -203.125 1134
-242.188 296.875 943
242.188 437.5 1119
234.375 445.312 1138
-468.75 -296.875 1250
-7.8125 406.25 1028
-382.812 125 856
187.5 421.875 1101
-437.5 101.562 858
-250 -46.875 978
-195.312 390.625 1130
-273.438 320.312 1496
-210.938 -156.25 1084
-492.188 250 951
-382.812 -93.75 1013
93.75 -31.25 1197
-226.562 54.6875 1001
-171.875 -101.562 1197
-195.312 414.062 1288
-187.5 -31.25 1153
265.625 406.25 1054
78.125 -31.25 1197
54.6875 382.812 1047
140.625 429.688 1119
-492.188 85.9375 867
234.375 -328.125 959
-46.875 -93.75 1189
-210.938 -125 1050
70.3125 421.875 1126
234.375 -257.812 984
234.375 -257.812 984
-23.4375 390.625 1034
-46.875 414.062 1119
-414.062 101.562 858
-23.4375 414.062 1034
-460.938 343.75 1557
-15.625 -54.6875 1227
171.875 -39.0625 1181
382.812 359.375 930
-437.5 -78.125 920
7.8125 -335.938 970
-109.375 414.062 1343
39.0625 -39.0625 1202
-101.562 406.25 1130
-437.5 93.75 864
382.812 85.9375 1141
-203.125 23.4375 1084
46.875 421.875 1134
-203.125 398.438 1268
-414.062 -7.8125 918
-406.25 -54.6875 918
382.812 375 930
-500 -320.312 973
-304.688 109.375 858
359.375 375 930
-171.875 398.438 1130
-492.188 -7.8125 885
-78.125 429.688 1529
-437.5 -375 3092
-335.938 109.375 858
-179.688 31.25 1145
-179.688 421.875 1370
-195.312 429.688 1312
148.438 351.562 933
85.9375 164.062 1054
320.312 -31.25 1255
-187.5 -62.5 1149
-171.875 -242.188 1181
-500 250 951
-281.25 54.6875 898
414.062 343.75 948
-265.625 187.5 915
-257.812 156.25 930
78.125 414.062 1115
140.625 421.875 1108
210.938 -156.25 1067
-15.625 421.875 1138
-242.188 -54.6875 987
117.188 -328.125 948
-406.25 281.25 954
-156.25 -148.438 1241
-250 195.312 948
-414.062 -70.3125 913
7.8125 390.625 1025
-164.062 312.5 940
-203.125 304.688 940
-39.0625 421.875 1523
-187.5 414.062 1387
242.188 -343.75 984
-484.375 7.8125 885
62.5 343.75 935
85.9375 -203.125 1044
-484.375 257.812 954
-226.562 375 1134
15.625 390.625 1084
-210.938 -85.9375 1038
-78.125 406.25 1134
-375 117.188 854
398.438 375 930
0 -343.75 967
281.25 -304.688 3064
-210.938 -140.625 1067
-203.125 31.25 1087
-156.25 -54.6875 1227
-437.5 31.25 908
-39.0625 -117.188 1177
-171.875 390.625 1130
-156.25 382.812 1126
-500 -62.5 970
398.438 234.375 1019
-367.188 382.812 1523
-7.8125 -343.75 973
187.5 -101.562 1119
203.125 -140.625 1080
-195.312 -7.8125 1126
156.25 195.312 1041
23.4375 -343.75 962
203.125 406.25 1067
54.6875 429.688 1134
23.4375 -31.25 1214
-187.5 -39.0625 1153
164.062 226.562 1019
-210.938 46.875 1077
-492.188 -218.75 951
-500 -46.875 956
-242.188 101.562 1004
-179.688 195.312 1013
31.25 -343.75 959
-226.562 -101.562 1028
-234.375 70.3125 1016
-117.188 414.062 1343
218.75 39.0625 1173
-164.062 -257.812 1202
-484.375 -54.6875 930
78.125 429.688 1123
93.75 -210.938 1038
-234.375 78.125 1016
-226.562 101.562 1022
-367.188 281.25 948
179.688 -46.875 1177
187.5 -54.6875 1169
210.938 -164.062 1063
-54.6875 398.438 1034
218.75 382.812 1022
-414.062 -273.438 1214
62.5 414.062 1119
-140.625 421.875 1343
-46.875 421.875 1523
187.5 -78.125 1141
-445.312 0 903
23.4375 -39.0625 1219
-203.125 390.625 1134
-156.25 -132.812 1245
-203.125 15.625 1108
-171.875 -85.9375 1206
-195.312 -39.0625 1130
93.75 -187.5 1057
-257.812 171.875 918
414.062 93.75 2271
-234.375 132.812 998
195.312 0 1202
-351.562 312.5 1489
23.4375 390.625 1080
85.9375 -31.25 1197
-460.938 -390.625 3037
-335.938 140.625 858
210.938 39.0625 1169
-484.375 -46.875 959
-289.062 257.812 954
218.75 -46.875 1255
-218.75 187.5 1016
171.875 -320.312 948
101.562 23.4375 1173
-187.5 -15.625 1126
-164.062 -117.188 1232
-250 125 981
-445.312 -257.812 1038
289.062 125 1105
-31.25 437.5 1523
-85.9375 -351.562 3092
-273.438 343.75 1483
-492.188 -265.625 989
85.9375 343.75 935
164.062 -320.312 948
218.75 -195.312 1041
-476.562 15.625 887
-46.875 -101.562 1181
171.875 0 1197
-453.125 -242.188 1060
218.75 -203.125 1034
117.188 125 1001
-242.188 343.75 1080
-242.188 -70.3125 1001
-15.625 390.625 1034
-421.875 7.8125 923
-476.562 85.9375 867
-39.0625 414.062 1130
-257.812 218.75 943
-148.438 398.438 1145
46.875 367.188 1034
-421.875 23.4375 913
-351.562 320.312 1483
85.9375 -23.4375 1214
-218.75 70.3125 1044
335.938 -31.25 1255
-476.562 398.438 1477
179.688 -320.312 948
-148.438 -218.75 1232
148.438 -23.4375 1206
-179.688 -62.5 1177
-132.812 109.375 1084
-382.812 -31.25 954
78.125 343.75 935
109.375 -203.125 1038
140.625 132.812 992
242.188 -289.062 962
-468.75 343.75 1543
-351.562 132.812 854
-375 0 933
-398.438 117.188 856
-375 -312.5 1264
-164.062 -265.625 1210
234.375 -265.625 981
-468.75 -226.562 964
-445.312 109.375 858
101.562 -31.25 1193
328.125 -31.25 1255
-187.5 -203.125 1134
273.438 -289.062 3120
-367.188 109.375 856
-140.625 429.688 1516
-453.125 39.0625 875
7.8125 -46.875 1214
-85.9375 429.688 1523
-203.125 375 1130
-39.0625 -187.5 1097
-234.375 -93.75 1019
54.6875 421.875 1134
-140.625 406.25 1145
179.688 -54.6875 1169
-414.062 226.562 962
-296.875 296.875 943
93.75 429.688 1123
109.375 -195.312 1047
218.75 -312.5 954
78.125 -210.938 1044
-289.062 296.875 943
85.9375 -210.938 1041
62.5 421.875 1126
-429.688 265.625 948
46.875 390.625 1073
-476.562 -31.25 956
-335.938 117.188 854
-179.688 414.062 1387
-203.125 125 1063
-429.688 93.75 864
-70.3125 351.562 1031
187.5 -85.9375 1134
156.25 -31.25 1193
-429.688 -7.8125 908
195.312 -109.375 1112
15.625 335.938 938
140.625 -320.312 948
-265.625 78.125 898
-257.812 148.438 956
-250 304.688 943
-289.062 62.5 889
-179.688 -226.562 1165
-195.312 304.688 940
101.562 429.688 1138
-453.125 93.75 864
-476.562 -226.562 1057
-31.25 -62.5 1241
-429.688 101.562 858
-468.75 -117.188 1031
-46.875 -85.9375 1193
156.25 -320.312 948
296.875 93.75 1134
-351.562 -312.5 1259
70.3125 -23.4375 1210
31.25 390.625 1077
375 367.188 930
156.25 -39.0625 1185
132.812 -23.4375 1202
-218.75 -54.6875 998
-460.938 46.875 894
101.562 -39.0625 1185
-296.875 85.9375 875
-156.25 -140.625 1241
-359.375 109.375 856
367.188 -23.4375 1250
203.125 -39.0625 1241
46.875 -31.25 1219
250 359.375 933
164.062 -31.25 1193
-460.938 93.75 862
-117.188 421.875 1343
-187.5 -39.0625 1153
-164.062 421.875 1536
125 -31.25 1193
-460.938 -31.25 908
-242.188 164.062 981
-218.75 -132.812 1057
-429.688 0 910
70.3125 -210.938 1047
226.562 -218.75 1019
31.25 445.312 1516
-460.938 -234.375 964
351.562 0 1223
-85.9375 375 1077
-179.688 -218.75 1153
390.625 156.25 1084
164.062 179.688 1031
78.125 -335.938 951
-187.5 -62.5 1149
-140.625 -187.5 1297
-179.688 -171.875 1108
-7.8125 390.625 1028
-406.25 101.562 858
-78.125 -351.562 3120
-85.9375 -54.6875 1232
-195.312 -359.375 3120
-250 187.5 948
359.375 359.375 933
343.75 359.375 933
-437.5 -78.125 920
148.438 132.812 992
93.75 -203.125 1041
-226.562 101.562 1022
140.625 429.688 1119
-289.062 250 962
367.188 -31.25 1255
164.062 351.562 935
-468.75 -375 3037
-484.375 281.25 1609
54.6875 375 1044
-93.75 -195.312 1387
218.75 351.562 935
-23.4375 437.5 1529
-179.688 -85.9375 1145
203.125 -140.625 1080
-148.438 382.812 1119
-312.5 117.188 854
-46.875 -125 1161
-70.3125 -351.562 3120
-414.062 -85.9375 913
-179.688 -359.375 3092
-234.375 -78.125 1004
-375 125 854
-250 -31.25 970
195.312 148.438 1077
-437.5 -62.5 923
-46.875 -117.188 1177
195.312 -117.188 1101
-265.625 218.75 943
109.375 429.688 1130
-289.062 328.125 1503
-70.3125 -195.312 1381
-390.625 101.562 858
289.062 375 933
171.875 -39.0625 1181
70.3125 -203.125 1050
-273.438 -367.188 3092
-367.188 117.188 854
-335.938 328.125 1477
23.4375 421.875 1126
-203.125 -78.125 1073
-265.625 -367.188 3092
7.8125 -351.562 964
78.125 7.8125 1185
-445.312 7.8125 903
-476.562 0 894
-156.25 382.812 1126
-23.4375 85.9375 1112
257.812 421.875 1084
273.438 359.375 933
375 0 1223
7.8125 406.25 1034
-93.75 320.312 935
-62.5 398.438 1028
-7.8125 414.062 1138
-265.625 179.688 938
101.562 7.8125 1185
-445.312 -23.4375 906
-203.125 -15.625 1077
-328.125 109.375 858
-171.875 390.625 1130
-210.938 414.062 1283
-257.812 -367.188 3092
70.3125 414.062 1119
-210.938 0 1044
-164.062 414.062 1536
7.8125 445.312 1523
-250 171.875 981
-218.75 -117.188 1047
-273.438 31.25 918
-320.312 109.375 858
320.312 -140.625 1370
-359.375 -46.875 951
-351.562 109.375 856
-179.688 421.875 1370
-468.75 85.9375 867
218.75 -203.125 1034
-500 109.375 867
-156.25 421.875 1516
15.625 406.25 1119
125 -367.188 981
-171.875 -250 1189
195.312 351.562 933
-203.125 15.625 1108
-257.812 54.6875 923
-429.688 -375 3064
359.375 -78.125 1307
398.438 359.375 935
132.812 343.75 935
171.875 421.875 1101
-132.812 429.688 1529
218.75 -7.8125 1219
-218.75 375 1130
-359.375 273.438 943
-132.812 -203.125 1317
-218.75 -62.5 1038
-257.812 -15.625 956
70.3125 375 1044
-250 117.188 959
-281.25 335.938 1483
-46.875 398.438 1034
-390.625 -93.75 1013
-203.125 421.875 1307
-234.375 70.3125 1016
125 148.438 998
367.188 -54.6875 1278
-164.062 398.438 1130
23.4375 335.938 938
-226.562 -117.188 1044
-367.188 125 854
85.9375 156.25 1063
390.625 140.625 1090
15.625 -351.562 962
210.938 398.438 1050
-93.75 -54.6875 1232
46.875 -93.75 1149
0 -351.562 967
195.312 -70.3125 1153
85.9375 414.062 1112
31.25 421.875 1130
156.25 -328.125 948
-210.938 46.875 1077
-39.0625 328.125 938
-429.688 -23.4375 910
39.0625 -343.75 959
-320.312 132.812 851
398.438 85.9375 1141
62.5 367.188 940
-210.938 7.8125 1044
-304.688 -367.188 3092
343.75 -39.0625 1264
62.5 -85.9375 1157
-39.0625 -140.625 1153
31.25 -125 1130
93.75 -195.312 1050
179.688 -23.4375 1219
-234.375 156.25 1034
117.188 125 1001
-367.188 132.812 860
132.812 171.875 1016
281.25 382.812 940
195.312 -23.4375 1227
-257.812 -7.8125 946
125 -328.125 948
-382.812 109.375 856
-195.312 -179.688 1105
-195.312 -7.8125 1126
242.188 39.0625 1173
-179.688 -70.3125 1134
-210.938 429.688 1312
93.75 -23.4375 1214
109.375 -195.312 1047
-484.375 101.562 864
-78.125 351.562 1034
171.875 351.562 935
226.562 7.8125 1202
-242.188 156.25 984
101.562 -328.125 951
-421.875 -54.6875 918
-85.9375 -46.875 1223
-210.938 -85.9375 1038
-328.125 289.062 946
375 -289.062 3037
-85.9375 437.5 1509
-500 7.8125 915
-218.75 23.4375 1060
-195.312 -15.625 1126
-85.9375 398.438 1130
-164.062 -117.188 1232
226.562 78.125 1141
117.188 -328.125 948
-226.562 46.875 1050
398.438 179.688 1063
93.75 414.062 1108
78.125 -218.75 1038
117.188 -31.25 1197
85.9375 -195.312 1050
132.812 -328.125 948
-7.8125 421.875 1138
-46.875 -101.562 1181
-445.312 -46.875 915
-210.938 39.0625 1087
-242.188 101.562 1004
-203.125 -164.062 1090
-218.75 -46.875 1038
-367.188 -312.5 1264
289.062 -304.688 3064
187.5 -85.9375 1134
-148.438 -164.062 1273
156.25 179.688 1025
-226.562 109.375 1022
-195.312 -70.3125 1134
-476.562 -312.5 1264
31.25 -39.0625 1214
-492.188 85.9375 867
39.0625 390.625 1077
109.375 -31.25 1197
-476.562 -226.562 1057
46.875 445.312 1523
-242.188 328.125 1060
-187.5 421.875 1370
148.438 -328.125 948
203.125 -148.438 1077
-195.312 -46.875 1126
-250 187.5 948
101.562 343.75 935
406.25 328.125 956
15.625 -382.812 992
187.5 -320.312 948
