ply
format ascii 1.0
comment Created by Open3D
element vertex 2381
property double x
property double y
property double z
end_header
62.5 273.438 891
-257.812 62.5 864
-414.062 304.688 885
117.188 320.312 862
-46.875 39.0625 978
-203.125 304.688 889
-125 281.25 910
148.438 437.5 805
31.25 132.812 967
-101.562 -7.8125 973
-453.125 234.375 908
-85.9375 -70.3125 1060
-492.188 226.562 915
265.625 -171.875 3120
-117.188 -195.312 3149
-117.188 234.375 948
-460.938 -210.938 2984
-203.125 179.688 878
93.75 335.938 847
-171.875 250 933
-85.9375 -195.312 3149
-148.438 -140.625 1019
-453.125 164.062 970
39.0625 421.875 815
-93.75 -39.0625 967
-296.875 -156.25 3208
140.625 289.062 875
109.375 -179.688 3149
-398.438 375 831
-7.8125 -31.25 1214
-187.5 109.375 835
-46.875 46.875 978
-476.562 289.062 887
-226.562 70.3125 854
-140.625 70.3125 858
-171.875 -78.125 989
132.812 210.938 889
-421.875 -7.8125 1370
-15.625 93.75 920
429.688 31.25 1054
109.375 -54.6875 1241
-492.188 -414.062 2659
-257.812 -101.562 995
-54.6875 -31.25 970
-398.438 257.812 1080
-187.5 257.812 928
-218.75 171.875 871
414.062 273.438 1108
-390.625 -70.3125 2883
46.875 -187.5 3149
-484.375 328.125 903
-54.6875 -15.625 981
-140.625 54.6875 867
-54.6875 93.75 923
296.875 328.125 875
31.25 421.875 815
117.188 -101.562 3037
-281.25 328.125 869
-7.8125 -62.5 1250
-398.438 265.625 898
148.438 406.25 821
171.875 -179.688 3092
-109.375 -23.4375 973
-406.25 281.25 894
93.75 265.625 894
-54.6875 -23.4375 978
-54.6875 70.3125 978
273.438 -171.875 3120
-171.875 406.25 819
-109.375 414.062 815
-304.688 390.625 825
-85.9375 414.062 817
-109.375 125 1010
62.5 429.688 809
-257.812 398.438 823
-234.375 -125 995
-273.438 109.375 833
-265.625 46.875 1126
-289.062 62.5 860
-296.875 390.625 825
281.25 -171.875 3120
-210.938 -46.875 981
-15.625 46.875 1041
-460.938 -39.0625 2767
23.4375 421.875 815
-250 -140.625 1007
-257.812 78.125 849
-351.562 132.812 1022
273.438 421.875 811
85.9375 328.125 856
460.938 195.312 1165
85.9375 265.625 894
-187.5 406.25 819
-242.188 23.4375 1031
46.875 265.625 928
304.688 445.312 805
-46.875 0 989
117.188 -54.6875 1241
-179.688 117.188 835
-382.812 375 831
-429.688 -78.125 2883
117.188 421.875 811
453.125 132.812 1108
39.0625 117.188 930
-226.562 93.75 839
-70.3125 78.125 930
-62.5 -39.0625 970
-359.375 -203.125 3064
-429.688 -23.4375 1381
-218.75 93.75 841
-195.312 -62.5 981
93.75 421.875 811
7.8125 93.75 918
-273.438 62.5 862
-265.625 406.25 823
-265.625 109.375 833
-101.562 -195.312 3120
101.562 -54.6875 1236
-304.688 62.5 858
-101.562 414.062 817
-273.438 234.375 923
-351.562 382.812 827
-250 398.438 819
-187.5 226.562 915
179.688 -179.688 3120
-492.188 -195.312 2184
-312.5 78.125 847
382.812 78.125 1165
-429.688 234.375 920
-343.75 382.812 825
-460.938 -218.75 2984
132.812 250 875
132.812 250 875
-70.3125 -195.312 3149
-460.938 406.25 885
-460.938 203.125 930
-500 250 878
-171.875 -31.25 989
-320.312 -203.125 3092
-320.312 406.25 823
-23.4375 429.688 813
-187.5 -164.062 975
-242.188 398.438 821
-492.188 257.812 891
-195.312 414.062 819
-257.812 -203.125 3092
-414.062 289.062 973
304.688 414.062 813
-257.812 93.75 837
62.5 320.312 887
-70.3125 54.6875 981
-257.812 140.625 847
-242.188 179.688 875
-39.0625 437.5 817
-500 109.375 1019
-281.25 -93.75 1010
-148.438 164.062 869
-148.438 93.75 841
-234.375 93.75 839
-421.875 328.125 860
-281.25 109.375 833
-179.688 -62.5 984
-445.312 234.375 908
-242.188 70.3125 856
-140.625 -7.8125 1013
-148.438 132.812 845
-500 -31.25 1370
257.812 46.875 1138
-140.625 234.375 923
-257.812 125 835
-367.188 -15.625 1376
-203.125 -54.6875 981
-351.562 109.375 1050
-39.0625 156.25 935
-140.625 429.688 821
-437.5 375 894
0 85.9375 992
-304.688 -203.125 3092
-70.3125 85.9375 930
-492.188 -359.375 2503
46.875 -62.5 1250
-281.25 62.5 860
-312.5 -203.125 3092
-31.25 54.6875 981
-15.625 421.875 813
-31.25 429.688 813
-62.5 -195.312 3120
289.062 257.812 930
-242.188 93.75 839
-468.75 273.438 898
-445.312 -210.938 3092
-289.062 171.875 871
-125 421.875 817
-359.375 -15.625 1376
-437.5 -23.4375 1381
-203.125 -62.5 981
-93.75 -195.312 3149
-15.625 -62.5 1250
-78.125 -31.25 967
-250 -31.25 989
-273.438 -78.125 1001
257.812 0 1185
-203.125 85.9375 845
-210.938 156.25 860
0 -62.5 1250
-93.75 -70.3125 1044
-414.062 -78.125 2883
-492.188 70.3125 1057
-226.562 70.3125 854
-312.5 70.3125 858
257.812 7.8125 1177
39.0625 -62.5 1250
7.8125 421.875 815
-304.688 -195.312 3120
-39.0625 0 1007
78.125 445.312 817
-257.812 -23.4375 998
156.25 421.875 811
210.938 437.5 803
-453.125 164.062 970
-93.75 414.062 817
156.25 257.812 882
304.688 406.25 817
-101.562 421.875 817
54.6875 -187.5 3120
-23.4375 78.125 978
125 210.938 973
-179.688 -85.9375 984
46.875 421.875 813
70.3125 265.625 889
-109.375 -70.3125 1025
492.188 -179.688 1087
-250 93.75 837
-500 -429.688 2598
-226.562 140.625 847
-210.938 78.125 851
93.75 304.688 864
-476.562 359.375 878
-78.125 -23.4375 967
-195.312 -23.4375 989
375 -164.062 3064
-445.312 203.125 935
-78.125 78.125 933
-445.312 218.75 923
-296.875 62.5 862
-390.625 234.375 933
-148.438 257.812 928
-171.875 156.25 860
-289.062 390.625 827
-390.625 398.438 829
-234.375 70.3125 856
-7.8125 -62.5 1250
304.688 429.688 805
-54.6875 -23.4375 978
-78.125 -15.625 970
-484.375 -328.125 2789
-375 375 831
15.625 179.688 998
-140.625 164.062 869
-468.75 242.188 903
-257.812 109.375 833
31.25 78.125 928
-335.938 382.812 829
-484.375 -367.188 2701
-31.25 93.75 920
351.562 -164.062 3092
62.5 -187.5 3149
-140.625 -109.375 1010
-476.562 250 896
-406.25 203.125 1130
39.0625 70.3125 935
367.188 109.375 1278
-273.438 -7.8125 1013
359.375 93.75 1307
39.0625 445.312 819
242.188 -125 3149
-210.938 210.938 901
-93.75 23.4375 984
85.9375 289.062 875
-148.438 101.562 837
148.438 281.25 887
-125 -195.312 3149
-250 85.9375 845
-78.125 -195.312 3149
-460.938 -31.25 1398
-500 -31.25 1370
117.188 -54.6875 1241
367.188 -164.062 3092
-148.438 156.25 864
-257.812 78.125 849
-453.125 -210.938 3092
-195.312 109.375 835
382.812 -164.062 3064
406.25 187.5 1173
-414.062 304.688 885
226.562 445.312 807
437.5 0 1038
-148.438 140.625 851
-195.312 -54.6875 981
-429.688 -23.4375 1381
54.6875 421.875 813
54.6875 421.875 813
-312.5 132.812 1028
-54.6875 -195.312 3120
-15.625 429.688 813
-7.8125 46.875 1038
70.3125 -187.5 3120
-250 -117.188 1001
-203.125 109.375 835
-109.375 -195.312 3149
218.75 -46.875 1241
-398.438 257.812 1080
187.5 421.875 813
492.188 -70.3125 954
-54.6875 -7.8125 984
148.438 390.625 835
-187.5 -62.5 981
-210.938 125 839
-492.188 273.438 885
109.375 382.812 839
109.375 -54.6875 1241
-281.25 -203.125 3120
296.875 453.125 807
-203.125 85.9375 845
-375 382.812 827
-429.688 351.562 847
-257.812 93.75 837
-453.125 312.5 913
70.3125 375 845
148.438 312.5 891
-39.0625 -62.5 1245
78.125 -187.5 3120
-187.5 406.25 819
101.562 390.625 833
-460.938 265.625 906
-304.688 70.3125 858
-210.938 179.688 878
-187.5 132.812 843
-414.062 296.875 959
-265.625 250 930
281.25 195.312 989
-273.438 398.438 823
-179.688 156.25 860
-484.375 -195.312 3010
429.688 23.4375 1054
289.062 265.625 925
-39.0625 242.188 946
-140.625 156.25 864
-187.5 242.188 928
23.4375 85.9375 923
-203.125 265.625 920
-460.938 390.625 882
-109.375 421.875 815
-46.875 140.625 954
367.188 132.812 1177
-195.312 242.188 930
-476.562 -304.688 2835
-210.938 132.812 843
289.062 -93.75 3064
-390.625 375 831
-500 -140.625 2241
-351.562 -15.625 1376
-484.375 398.438 875
-7.8125 421.875 813
-62.5 31.25 975
7.8125 101.562 918
0 421.875 815
-226.562 93.75 839
-492.188 281.25 891
0 -62.5 1250
-359.375 -15.625 1376
117.188 375 841
-164.062 -148.438 1001
164.062 281.25 878
-421.875 -140.625 3120
85.9375 -46.875 1236
-421.875 320.312 864
-54.6875 93.75 923
-203.125 312.5 885
-242.188 398.438 821
187.5 -179.688 3120
-39.0625 234.375 956
-234.375 398.438 823
-93.75 70.3125 946
-62.5 242.188 943
-273.438 -203.125 3120
-250 -93.75 989
-78.125 414.062 815
-460.938 -289.062 2908
-460.938 -289.062 2908
-406.25 273.438 898
-500 140.625 1004
-242.188 -70.3125 984
-429.688 343.75 901
-164.062 406.25 819
-171.875 -171.875 1022
-148.438 -78.125 998
-156.25 156.25 864
437.5 187.5 1157
-296.875 187.5 885
226.562 429.688 809
-312.5 125 835
265.625 429.688 807
-125 429.688 817
-148.438 -85.9375 998
-234.375 -132.812 998
-468.75 140.625 1007
250 429.688 807
15.625 421.875 815
101.562 429.688 807
-242.188 70.3125 856
-171.875 242.188 933
218.75 429.688 807
-382.812 210.938 1123
-398.438 289.062 891
-359.375 148.438 1010
-398.438 382.812 829
-148.438 125 841
-218.75 70.3125 856
-328.125 -171.875 3208
62.5 460.938 833
-62.5 70.3125 987
304.688 -171.875 3092
-140.625 242.188 933
140.625 421.875 813
132.812 445.312 809
-367.188 -101.562 2958
-500 -109.375 2241
-210.938 -54.6875 981
101.562 359.375 835
-382.812 171.875 1169
-171.875 406.25 819
-242.188 -164.062 1016
-414.062 -148.438 3149
85.9375 359.375 856
117.188 367.188 831
-312.5 70.3125 858
54.6875 -62.5 1245
-273.438 156.25 858
-335.938 0 1381
-101.562 -39.0625 967
-54.6875 -15.625 981
-312.5 62.5 1097
187.5 -109.375 3120
-218.75 -54.6875 984
132.812 -54.6875 1241
-203.125 242.188 928
31.25 -54.6875 1241
-156.25 148.438 860
140.625 250 875
-148.438 234.375 923
203.125 -140.625 3178
-296.875 390.625 825
-54.6875 0 987
-218.75 85.9375 843
429.688 195.312 1169
343.75 429.688 975
-500 367.188 867
-484.375 -312.5 2789
273.438 -62.5 2984
-468.75 406.25 882
-148.438 148.438 860
343.75 218.75 1169
-101.562 -31.25 967
-70.3125 -195.312 3149
367.188 117.188 1273
-7.8125 93.75 925
-476.562 -62.5 2859
109.375 375 841
-195.312 -85.9375 981
-187.5 -62.5 981
-85.9375 414.062 817
-46.875 93.75 920
-78.125 -39.0625 967
-179.688 -62.5 984
-414.062 296.875 959
15.625 7.8125 1007
-453.125 -132.812 3064
31.25 421.875 815
-234.375 -46.875 984
-7.8125 78.125 995
-289.062 -93.75 1025
-187.5 289.062 903
-437.5 -210.938 3064
-484.375 289.062 887
62.5 -93.75 3037
-250 406.25 819
-367.188 -7.8125 1376
-414.062 -210.938 3092
-367.188 382.812 827
109.375 226.562 896
-445.312 289.062 898
171.875 281.25 873
367.188 -78.125 2984
23.4375 421.875 815
-257.812 -203.125 3092
359.375 101.562 1297
-500 257.812 873
-289.062 390.625 827
39.0625 421.875 815
-406.25 390.625 829
-484.375 -382.812 2723
-359.375 390.625 825
296.875 335.938 871
289.062 -171.875 3120
-421.875 -23.4375 1381
-46.875 -195.312 3120
-289.062 62.5 860
31.25 -62.5 1250
-500 -445.312 2541
-179.688 406.25 819
-234.375 -23.4375 989
-179.688 242.188 933
-54.6875 -31.25 970
-390.625 171.875 1169
-109.375 -31.25 967
-460.938 242.188 903
-492.188 -390.625 2639
-343.75 382.812 825
-304.688 109.375 833
78.125 265.625 891
-109.375 -62.5 1025
-257.812 62.5 864
-281.25 390.625 827
-218.75 140.625 849
-203.125 62.5 860
445.312 390.625 1007
7.8125 -62.5 1255
-460.938 -179.688 3092
-70.3125 414.062 817
304.688 437.5 803
-62.5 -195.312 3120
179.688 -179.688 3120
-54.6875 -195.312 3120
-250 85.9375 845
85.9375 335.938 841
156.25 -179.688 3120
-156.25 242.188 933
-273.438 62.5 862
-179.688 414.062 819
101.562 -179.688 3120
-492.188 335.938 896
210.938 421.875 811
-132.812 -46.875 1004
226.562 -46.875 1232
-62.5 414.062 817
-54.6875 156.25 943
109.375 421.875 813
-351.562 125 1019
-101.562 414.062 817
-156.25 -101.562 998
-304.688 406.25 827
-132.812 414.062 817
-257.812 125 835
-398.438 -210.938 3064
-421.875 -210.938 3092
-203.125 414.062 819
-125 414.062 817
-148.438 109.375 835
-265.625 242.188 925
-187.5 -85.9375 984
-234.375 93.75 839
-210.938 93.75 841
-492.188 304.688 873
-23.4375 46.875 1041
-429.688 -210.938 3064
-273.438 242.188 930
164.062 -179.688 3092
-226.562 242.188 930
-492.188 250 896
-414.062 -23.4375 1381
140.625 -54.6875 1241
-476.562 -281.25 2908
-476.562 -281.25 2908
289.062 234.375 954
93.75 -54.6875 1236
-210.938 -62.5 981
-164.062 242.188 933
-85.9375 -195.312 3149
125 445.312 809
85.9375 273.438 887
-148.438 250 935
-7.8125 70.3125 1004
-78.125 -7.8125 973
-382.812 375 831
-453.125 398.438 887
-125 23.4375 1149
15.625 85.9375 925
-414.062 367.188 837
-257.812 -132.812 1010
7.8125 -187.5 3149
-7.8125 156.25 920
-375 187.5 973
-242.188 93.75 839
296.875 -171.875 3092
-242.188 -46.875 987
-453.125 179.688 954
132.812 421.875 813
-234.375 117.188 833
-445.312 -132.812 3092
78.125 437.5 809
62.5 273.438 891
-250 93.75 837
-31.25 -195.312 3120
445.312 93.75 1084
93.75 -187.5 3120
-234.375 398.438 823
-250 -7.8125 1001
156.25 437.5 805
179.688 429.688 805
-226.562 -132.812 992
-78.125 -15.625 970
125 328.125 871
-500 250 878
-492.188 -85.9375 2301
78.125 421.875 811
-476.562 320.312 875
148.438 234.375 880
187.5 320.312 885
-468.75 390.625 880
-460.938 234.375 910
101.562 343.75 839
234.375 429.688 807
-148.438 242.188 933
-234.375 70.3125 856
-242.188 132.812 841
-257.812 85.9375 845
-164.062 -62.5 989
-445.312 210.938 928
-15.625 140.625 920
-54.6875 -23.4375 978
-468.75 -218.75 2984
-195.312 242.188 930
-242.188 242.188 928
-140.625 242.188 933
-70.3125 148.438 959
-445.312 -210.938 3092
-187.5 242.188 928
0 -62.5 1250
359.375 85.9375 1317
-218.75 179.688 878
-210.938 203.125 891
-429.688 218.75 923
-468.75 218.75 928
-390.625 218.75 1115
-156.25 257.812 930
-476.562 -31.25 2744
-218.75 242.188 930
-210.938 242.188 928
242.188 429.688 807
-421.875 289.062 964
62.5 312.5 891
-250 242.188 925
-210.938 109.375 835
-257.812 242.188 925
-242.188 117.188 833
-226.562 70.3125 854
-23.4375 93.75 920
-289.062 -203.125 3092
-93.75 242.188 943
-226.562 85.9375 843
-203.125 250 933
-242.188 85.9375 843
164.062 320.312 885
-406.25 273.438 898
-54.6875 -7.8125 984
-390.625 -210.938 3064
-398.438 226.562 1112
-312.5 132.812 1028
-117.188 -15.625 1031
-93.75 414.062 817
-171.875 132.812 843
-351.562 -15.625 1376
-351.562 390.625 825
-140.625 226.562 918
140.625 -179.688 3120
7.8125 54.6875 1016
-85.9375 78.125 935
187.5 -179.688 3120
-234.375 7.8125 1007
85.9375 -187.5 3120
15.625 -62.5 1250
-500 281.25 856
-343.75 70.3125 1283
-406.25 281.25 894
140.625 429.688 807
-179.688 234.375 920
-242.188 296.875 894
-492.188 -367.188 2522
359.375 117.188 1278
-171.875 -78.125 989
-218.75 70.3125 856
-437.5 390.625 896
62.5 421.875 813
85.9375 351.562 837
-242.188 179.688 875
15.625 -171.875 3178
-468.75 -265.625 2908
-117.188 101.562 1022
-250 70.3125 858
460.938 -54.6875 992
-421.875 320.312 864
-335.938 382.812 829
-234.375 242.188 928
-273.438 148.438 851
-265.625 78.125 849
-484.375 281.25 891
-234.375 234.375 923
-164.062 320.312 880
-156.25 78.125 851
-476.562 351.562 880
-171.875 242.188 933
78.125 -187.5 3120
-453.125 -210.938 3092
-250 414.062 821
-273.438 0 1028
-429.688 -23.4375 1381
-85.9375 -23.4375 967
289.062 273.438 920
-500 335.938 862
-500 304.688 847
148.438 453.125 819
-234.375 304.688 887
117.188 429.688 809
328.125 39.0625 1359
-257.812 -23.4375 998
-62.5 -39.0625 970
-460.938 406.25 885
-132.812 273.438 918
-429.688 343.75 901
125 320.312 864
-171.875 265.625 923
-117.188 179.688 995
-7.8125 429.688 813
-195.312 265.625 918
476.562 -70.3125 970
-54.6875 187.5 989
-85.9375 257.812 930
-398.438 250 1084
-289.062 218.75 906
-125 7.8125 1050
101.562 320.312 862
-320.312 54.6875 1101
-140.625 39.0625 1134
-382.812 -210.938 3064
132.812 296.875 869
-70.3125 85.9375 930
-179.688 31.25 1028
-210.938 320.312 878
-117.188 39.0625 1130
-156.25 -148.438 1019
-179.688 312.5 885
93.75 226.562 938
-460.938 328.125 901
7.8125 -62.5 1255
-328.125 382.812 829
-390.625 226.562 940
-62.5 -156.25 3208
-218.75 93.75 841
492.188 195.312 1157
-414.062 312.5 864
-257.812 203.125 894
-179.688 -93.75 987
437.5 195.312 1165
-156.25 93.75 841
-85.9375 15.625 978
-250 23.4375 1028
132.812 -54.6875 1241
15.625 -46.875 1232
-226.562 54.6875 871
429.688 203.125 1185
-421.875 367.188 835
-468.75 -273.438 2908
-242.188 -156.25 1016
15.625 218.75 967
-375 -210.938 3092
-148.438 187.5 887
-500 -31.25 1370
125 335.938 847
-234.375 85.9375 843
-226.562 265.625 920
-406.25 -23.4375 1387
-218.75 85.9375 843
-421.875 -23.4375 1381
-367.188 375 831
-351.562 93.75 1063
-453.125 226.562 918
-468.75 -257.812 2908
-70.3125 273.438 918
7.8125 195.312 987
-179.688 273.438 915
210.938 429.688 805
359.375 140.625 1250
-7.8125 78.125 995
-429.688 335.938 903
-171.875 -31.25 989
-93.75 7.8125 984
-351.562 101.562 1054
-7.8125 70.3125 1004
-164.062 406.25 819
-140.625 -62.5 998
-460.938 257.812 898
85.9375 281.25 878
-187.5 164.062 867
-210.938 85.9375 845
46.875 -187.5 3149
-39.0625 -195.312 3120
-203.125 132.812 843
-54.6875 414.062 815
-367.188 171.875 989
-226.562 117.188 835
-312.5 62.5 1097
-70.3125 78.125 930
-335.938 70.3125 1077
-93.75 421.875 817
-429.688 414.062 894
-242.188 70.3125 856
-85.9375 39.0625 978
-453.125 281.25 896
-500 62.5 1057
-78.125 414.062 815
-492.188 -70.3125 2381
117.188 210.938 973
-257.812 257.812 925
-484.375 273.438 887
46.875 421.875 813
23.4375 226.562 959
-187.5 -140.625 987
-125 187.5 889
-171.875 234.375 925
-23.4375 78.125 978
-195.312 -85.9375 981
-445.312 359.375 891
-23.4375 -93.75 3037
-7.8125 -62.5 1250
-7.8125 203.125 978
140.625 -101.562 3092
-15.625 -101.562 3037
85.9375 328.125 856
-78.125 210.938 970
296.875 85.9375 1317
-226.562 125 835
-257.812 -109.375 1001
-70.3125 -117.188 3092
-257.812 -93.75 992
-203.125 125 841
234.375 -70.3125 3010
-257.812 85.9375 845
-78.125 -39.0625 967
-476.562 -31.25 2744
-437.5 -210.938 3064
-164.062 156.25 864
54.6875 421.875 813
132.812 218.75 889
437.5 289.062 1094
-156.25 101.562 837
398.438 265.625 1119
117.188 242.188 880
156.25 429.688 807
-289.062 54.6875 860
-7.8125 85.9375 992
-500 -382.812 2598
46.875 54.6875 989
281.25 -171.875 3120
125 296.875 864
140.625 -54.6875 1241
-375 375 831
-54.6875 -15.625 981
-414.062 -23.4375 1381
335.938 39.0625 1359
-218.75 132.812 841
203.125 -179.688 3120
-164.062 54.6875 864
-257.812 -140.625 1013
101.562 335.938 854
-242.188 54.6875 864
85.9375 265.625 894
-148.438 406.25 819
23.4375 -62.5 1250
-468.75 -31.25 2744
-414.062 289.062 973
-414.062 -210.938 3092
-484.375 250 898
289.062 421.875 809
-242.188 15.625 1013
39.0625 -125 3149
-187.5 -164.062 975
-320.312 23.4375 1141
-500 273.438 858
-492.188 -406.25 2680
7.8125 187.5 992
-250 132.812 839
-156.25 406.25 819
-93.75 15.625 984
164.062 312.5 873
-359.375 382.812 829
-296.875 398.438 825
179.688 421.875 813
-257.812 -15.625 1001
46.875 343.75 869
-148.438 117.188 835
31.25 179.688 1001
304.688 -171.875 3092
-281.25 390.625 827
-476.562 -320.312 2789
-265.625 226.562 913
414.062 187.5 1173
-406.25 -210.938 3064
-234.375 -171.875 1022
-265.625 125 833
390.625 -164.062 3064
-234.375 54.6875 869
-476.562 226.562 918
-257.812 70.3125 856
-476.562 -328.125 2789
-250 148.438 851
-359.375 140.625 1019
179.688 265.625 910
-210.938 31.25 1031
-359.375 -210.938 3092
-460.938 -265.625 2984
-367.188 164.062 995
-500 -132.812 2286
-265.625 -15.625 1004
31.25 421.875 813
-468.75 203.125 930
-15.625 93.75 918
109.375 -187.5 3149
85.9375 343.75 837
-398.438 164.062 1173
-187.5 85.9375 843
-46.875 421.875 815
15.625 85.9375 920
-406.25 265.625 1073
70.3125 -62.5 1241
-210.938 148.438 856
15.625 -62.5 1245
-468.75 257.812 896
343.75 359.375 1031
-468.75 390.625 885
-273.438 406.25 825
-218.75 -85.9375 981
-500 289.062 854
-85.9375 414.062 817
39.0625 421.875 813
398.438 -164.062 2958
-15.625 421.875 813
296.875 343.75 862
-210.938 85.9375 843
132.812 210.938 887
-320.312 101.562 833
-70.3125 414.062 815
70.3125 421.875 811
-39.0625 148.438 933
164.062 421.875 811
-304.688 -62.5 1038
23.4375 148.438 981
-210.938 234.375 925
-289.062 148.438 854
93.75 328.125 858
-148.438 -203.125 3149
-78.125 70.3125 935
-265.625 -39.0625 995
234.375 421.875 809
-390.625 382.812 831
-382.812 -210.938 3092
-62.5 414.062 813
-437.5 382.812 831
-140.625 218.75 915
-250 -93.75 987
-429.688 335.938 906
-468.75 367.188 882
-23.4375 -195.312 3120
-320.312 382.812 827
-343.75 -210.938 3092
-304.688 164.062 869
85.9375 335.938 841
-226.562 398.438 821
-398.438 -210.938 3064
-156.25 109.375 837
-234.375 117.188 835
-273.438 390.625 825
-31.25 93.75 918
46.875 -62.5 1245
-460.938 226.562 918
70.3125 -187.5 3120
296.875 359.375 851
-78.125 -23.4375 970
-218.75 54.6875 867
-273.438 -39.0625 998
-335.938 54.6875 1101
101.562 421.875 811
-390.625 -210.938 3064
-46.875 414.062 817
210.938 -179.688 3120
-484.375 -31.25 1381
-492.188 218.75 906
250 421.875 811
93.75 312.5 864
93.75 312.5 864
-281.25 -54.6875 1004
23.4375 78.125 930
125 218.75 887
-117.188 -39.0625 973
414.062 289.062 1097
-257.812 -85.9375 987
-156.25 46.875 867
-351.562 -210.938 3092
39.0625 62.5 948
-453.125 218.75 920
296.875 351.562 856
-78.125 46.875 989
-187.5 218.75 915
-468.75 -242.188 2958
-296.875 54.6875 860
-382.812 382.812 829
359.375 109.375 1283
-31.25 -195.312 3120
-195.312 148.438 858
-429.688 -140.625 3092
-265.625 -203.125 3120
-171.875 179.688 885
-148.438 -7.8125 1013
85.9375 242.188 940
-23.4375 85.9375 975
-289.062 -39.0625 1016
-484.375 375 878
-242.188 -164.062 1019
-335.938 -210.938 3092
-7.8125 421.875 815
-203.125 148.438 856
-468.75 281.25 894
-140.625 406.25 819
-171.875 54.6875 864
-78.125 54.6875 1004
117.188 328.125 854
-265.625 148.438 854
-93.75 -39.0625 970
-320.312 93.75 835
-187.5 148.438 860
-218.75 398.438 819
31.25 -62.5 1245
85.9375 421.875 811
101.562 304.688 862
-328.125 382.812 825
125 421.875 811
-179.688 210.938 910
281.25 187.5 992
203.125 437.5 803
-250 117.188 835
-265.625 234.375 925
-398.438 367.188 835
-164.062 54.6875 864
15.625 70.3125 1001
-375 -210.938 3092
-101.562 39.0625 973
101.562 -187.5 3120
62.5 265.625 889
-46.875 -195.312 3120
148.438 437.5 807
265.625 421.875 809
0 421.875 813
78.125 250 887
62.5 -187.5 3149
-289.062 109.375 833
70.3125 351.562 839
-179.688 70.3125 854
-492.188 250 891
-78.125 -15.625 973
187.5 429.688 805
-54.6875 0 989
-289.062 398.438 825
-242.188 414.062 825
-210.938 132.812 845
304.688 429.688 803
-156.25 85.9375 843
289.062 -171.875 3092
-156.25 62.5 864
-101.562 -46.875 967
-414.062 367.188 835
-101.562 414.062 815
-281.25 0 1038
-156.25 70.3125 856
-406.25 367.188 837
46.875 335.938 869
-453.125 164.062 967
-54.6875 -70.3125 1250
-476.562 281.25 891
-390.625 210.938 1126
-445.312 242.188 906
-70.3125 -39.0625 964
421.875 39.0625 1060
-476.562 390.625 882
-148.438 39.0625 1130
-460.938 390.625 889
-453.125 328.125 901
-492.188 -31.25 1365
-414.062 210.938 1119
101.562 328.125 854
-320.312 -15.625 1370
-406.25 375 829
117.188 242.188 880
54.6875 343.75 860
70.3125 359.375 854
-31.25 179.688 998
-398.438 242.188 928
-39.0625 85.9375 975
-54.6875 -7.8125 989
-437.5 242.188 910
382.812 -164.062 3064
343.75 -15.625 2812
-453.125 343.75 891
23.4375 -62.5 1245
-476.562 242.188 896
351.562 429.688 975
-414.062 289.062 891
-234.375 -125 992
-15.625 -195.312 3120
273.438 148.438 1022
445.312 -23.4375 1019
-281.25 -101.562 1010
-359.375 375 831
-234.375 148.438 854
109.375 367.188 831
-242.188 117.188 835
0 -195.312 3149
-7.8125 70.3125 998
-156.25 171.875 878
218.75 -179.688 3120
-7.8125 -195.312 3149
164.062 429.688 805
101.562 257.812 891
-429.688 -210.938 3092
-445.312 -210.938 3092
-54.6875 101.562 918
85.9375 218.75 948
-359.375 -210.938 3092
78.125 -93.75 3037
-210.938 85.9375 843
117.188 218.75 889
-54.6875 7.8125 995
-421.875 -210.938 3092
-414.062 296.875 875
-445.312 203.125 930
-281.25 242.188 935
-492.188 296.875 878
320.312 -171.875 3092
132.812 437.5 807
382.812 187.5 1197
70.3125 304.688 891
-257.812 187.5 885
-406.25 265.625 1073
-54.6875 62.5 978
296.875 437.5 802
-203.125 -78.125 981
-476.562 -31.25 1381
-375 179.688 1153
484.375 -78.125 967
93.75 257.812 894
187.5 437.5 805
375 -164.062 3064
-460.938 187.5 943
-187.5 -46.875 987
-23.4375 93.75 920
-171.875 -78.125 989
62.5 304.688 896
54.6875 -62.5 1245
-54.6875 15.625 989
-257.812 -140.625 1010
-218.75 85.9375 841
-289.062 -46.875 1013
-31.25 -7.8125 1013
-148.438 179.688 885
23.4375 429.688 811
171.875 429.688 807
-179.688 242.188 935
-359.375 -7.8125 1381
-125 15.625 1054
-148.438 54.6875 862
-7.8125 78.125 992
-46.875 -70.3125 1245
-257.812 70.3125 854
-7.8125 85.9375 918
-132.812 -70.3125 1004
289.062 289.062 906
-31.25 93.75 918
-218.75 23.4375 1025
-54.6875 210.938 967
-437.5 226.562 915
-382.812 203.125 962
78.125 421.875 811
445.312 335.938 1054
-343.75 78.125 1073
-140.625 23.4375 1047
-164.062 242.188 935
-171.875 -39.0625 987
-257.812 117.188 835
-242.188 132.812 845
-492.188 -39.0625 2450
-257.812 132.812 843
304.688 101.562 1302
-93.75 -78.125 1054
140.625 328.125 878
-203.125 242.188 933
-179.688 -179.688 1025
382.812 132.812 1157
-156.25 242.188 935
31.25 -62.5 1245
-281.25 148.438 856
-296.875 195.312 887
-453.125 -195.312 3064
382.812 179.688 1177
125 -187.5 3120
-476.562 -296.875 2835
-156.25 164.062 871
-218.75 203.125 901
-210.938 203.125 896
-54.6875 414.062 815
-351.562 382.812 825
-140.625 -62.5 1001
-414.062 -15.625 1376
-484.375 265.625 891
-421.875 234.375 920
-257.812 -78.125 987
-210.938 398.438 821
148.438 -117.188 3120
-257.812 250 928
-140.625 -195.312 3149
-101.562 -23.4375 975
-367.188 375 831
390.625 187.5 1189
125 351.562 829
-203.125 -31.25 987
-7.8125 93.75 918
-382.812 -23.4375 1376
-390.625 226.562 940
335.938 242.188 1141
-179.688 148.438 860
-140.625 226.562 923
-171.875 -70.3125 989
23.4375 78.125 930
15.625 -187.5 3149
-234.375 -101.562 987
210.938 -15.625 1197
-210.938 -54.6875 981
148.438 421.875 811
54.6875 -101.562 3010
23.4375 -101.562 3064
-156.25 78.125 849
-140.625 234.375 928
78.125 343.75 837
164.062 -101.562 3064
-164.062 257.812 925
367.188 140.625 1206
406.25 445.312 964
85.9375 -109.375 3064
-234.375 335.938 862
-101.562 46.875 970
7.8125 85.9375 918
-320.312 109.375 833
-273.438 39.0625 1123
132.812 273.438 880
-304.688 -164.062 3208
312.5 -15.625 2812
62.5 421.875 811
7.8125 203.125 975
-476.562 -312.5 2789
-250 125 839
335.938 -78.125 3010
-70.3125 85.9375 925
203.125 421.875 809
-250 15.625 1025
226.562 421.875 809
-460.938 -226.562 2958
125 203.125 978
-132.812 -203.125 3120
-31.25 414.062 817
46.875 -62.5 1245
-23.4375 414.062 819
-187.5 265.625 915
-273.438 78.125 847
39.0625 -62.5 1245
257.812 421.875 809
109.375 -187.5 3149
-226.562 -164.062 989
-296.875 390.625 825
-320.312 101.562 833
-367.188 -210.938 3092
85.9375 257.812 887
-453.125 382.812 891
-429.688 203.125 925
-320.312 382.812 827
-148.438 156.25 867
281.25 421.875 809
70.3125 -62.5 1241
-320.312 93.75 835
-500 234.375 882
-156.25 140.625 854
-203.125 226.562 918
-156.25 218.75 915
62.5 -62.5 1241
-195.312 203.125 898
-125 -7.8125 1034
-273.438 390.625 825
-429.688 328.125 906
0 -125 3149
-296.875 148.438 854
328.125 -171.875 3064
-226.562 117.188 837
-70.3125 -31.25 964
-390.625 218.75 946
-289.062 148.438 854
-195.312 -179.688 1038
-132.812 406.25 819
117.188 -187.5 3120
-210.938 54.6875 867
-312.5 7.8125 1169
-414.062 -101.562 2958
257.812 7.8125 1173
-187.5 -171.875 987
-70.3125 54.6875 984
226.562 -179.688 3120
-171.875 171.875 875
-54.6875 54.6875 978
-226.562 226.562 920
171.875 273.438 913
-468.75 -101.562 2984
-164.062 171.875 878
296.875 367.188 847
-257.812 31.25 1047
-39.0625 414.062 817
-226.562 195.312 891
-140.625 210.938 908
-140.625 -117.188 1010
-250 117.188 835
-46.875 148.438 935
-179.688 125 841
-476.562 -171.875 3092
-429.688 335.938 906
78.125 335.938 839
-171.875 210.938 908
-210.938 125 841
-179.688 -93.75 984
-367.188 390.625 827
-242.188 195.312 889
-484.375 -304.688 2789
93.75 390.625 831
-500 242.188 882
-289.062 54.6875 858
-289.062 -210.938 3092
273.438 421.875 809
-320.312 85.9375 845
195.312 421.875 809
-312.5 382.812 829
-156.25 210.938 908
242.188 421.875 809
-312.5 140.625 851
-265.625 85.9375 841
148.438 250 878
109.375 421.875 811
-140.625 -140.625 1022
-148.438 -203.125 3149
-500 62.5 1067
-62.5 414.062 813
-312.5 54.6875 1105
78.125 320.312 860
-15.625 414.062 819
-85.9375 -15.625 970
-218.75 398.438 819
-375 382.812 829
-250 -23.4375 995
-304.688 54.6875 860
-304.688 414.062 837
296.875 421.875 807
-156.25 62.5 864
296.875 375 837
117.188 320.312 864
-210.938 398.438 821
281.25 203.125 978
-421.875 375 829
164.062 289.062 871
-335.938 -210.938 3092
273.438 156.25 1016
-265.625 125 837
54.6875 421.875 813
132.812 -187.5 3120
7.8125 -195.312 3149
-265.625 390.625 825
-195.312 101.562 835
-148.438 -23.4375 1004
31.25 70.3125 930
-328.125 -210.938 3092
218.75 421.875 811
-109.375 -203.125 3120
-468.75 328.125 896
-46.875 54.6875 978
-226.562 -148.438 984
-476.562 -351.562 2789
-320.312 -15.625 1370
-476.562 289.062 887
-140.625 406.25 819
-156.25 70.3125 856
-171.875 289.062 901
-218.75 70.3125 854
-500 328.125 862
-187.5 -93.75 981
-343.75 -210.938 3092
-351.562 375 831
-226.562 101.562 835
-257.812 390.625 827
70.3125 257.812 889
46.875 328.125 878
-265.625 195.312 891
-148.438 125 843
-250 85.9375 843
-156.25 -62.5 992
-460.938 -187.5 3064
484.375 195.312 1161
-140.625 31.25 1138
-382.812 -210.938 3092
257.812 15.625 1165
132.812 453.125 823
-375 -23.4375 1387
-437.5 351.562 839
-39.0625 -7.8125 1007
-296.875 54.6875 860
-218.75 164.062 867
-140.625 -203.125 3120
320.312 -171.875 3092
-226.562 148.438 854
-281.25 -210.938 3120
-93.75 -78.125 1054
468.75 195.312 1161
-54.6875 62.5 978
-210.938 101.562 835
-226.562 -132.812 995
-367.188 156.25 1001
-351.562 117.188 1038
0 -195.312 3149
39.0625 -62.5 1245
-296.875 -210.938 3092
-406.25 257.812 1080
-125 406.25 817
-39.0625 195.312 984
335.938 429.688 975
156.25 -54.6875 1236
-46.875 414.062 817
-484.375 -320.312 2789
-62.5 85.9375 923
54.6875 -62.5 1245
-343.75 382.812 825
-414.062 203.125 1130
-257.812 70.3125 854
-156.25 117.188 839
171.875 437.5 807
-398.438 242.188 928
-320.312 -210.938 3092
156.25 437.5 805
406.25 -164.062 2958
-70.3125 -39.0625 964
-70.3125 -46.875 964
-273.438 -210.938 3149
171.875 250 880
-281.25 234.375 938
-382.812 -23.4375 1376
226.562 437.5 805
273.438 -171.875 3092
289.062 296.875 898
-281.25 54.6875 858
31.25 -62.5 1245
-242.188 234.375 925
-257.812 117.188 835
-242.188 -171.875 1013
7.8125 0 1010
468.75 -171.875 1073
218.75 437.5 805
-312.5 -210.938 3092
-484.375 226.562 915
-117.188 -203.125 3120
-226.562 -164.062 989
-273.438 148.438 856
101.562 421.875 811
-320.312 7.8125 1169
-70.3125 429.688 817
-257.812 85.9375 843
-445.312 343.75 894
78.125 -187.5 3120
-265.625 242.188 933
-226.562 242.188 933
-148.438 242.188 935
-101.562 -7.8125 978
492.188 187.5 1145
359.375 62.5 1343
-156.25 234.375 928
15.625 -195.312 3149
70.3125 -62.5 1241
-265.625 -101.562 998
-445.312 234.375 910
-265.625 148.438 854
281.25 226.562 956
-312.5 132.812 847
-226.562 -179.688 1028
-460.938 398.438 887
210.938 -179.688 3120
-156.25 125 845
117.188 289.062 867
-453.125 289.062 896
31.25 429.688 813
296.875 -171.875 3092
468.75 187.5 1153
187.5 421.875 811
203.125 -179.688 3120
-429.688 328.125 906
-85.9375 414.062 817
-187.5 125 841
93.75 320.312 864
-484.375 210.938 918
15.625 93.75 920
-265.625 70.3125 854
-398.438 210.938 1123
62.5 265.625 889
-242.188 101.562 833
-210.938 226.562 918
-132.812 -203.125 3120
273.438 140.625 1034
-117.188 -46.875 1022
-148.438 132.812 849
-429.688 46.875 1297
78.125 265.625 891
-140.625 171.875 878
-304.688 382.812 831
-39.0625 -195.312 3120
156.25 257.812 887
171.875 265.625 910
359.375 78.125 1322
-414.062 281.25 891
-164.062 179.688 885
304.688 -171.875 3092
-476.562 273.438 894
54.6875 273.438 889
-320.312 78.125 845
-500 -398.438 2598
125 -187.5 3120
359.375 125 1219
421.875 187.5 1169
-500 257.812 871
70.3125 242.188 946
-7.8125 -195.312 3149
-125 -23.4375 1022
78.125 312.5 867
-148.438 -148.438 1025
-265.625 -78.125 992
-125 -140.625 1041
-476.562 -273.438 2883
398.438 187.5 1181
-226.562 414.062 821
-70.3125 156.25 954
-101.562 421.875 817
78.125 -62.5 1245
195.312 328.125 878
-187.5 -70.3125 984
-289.062 54.6875 858
117.188 421.875 811
-359.375 375 831
171.875 421.875 811
-117.188 406.25 817
-140.625 93.75 841
54.6875 -187.5 3120
-54.6875 23.4375 978
-164.062 39.0625 1041
117.188 203.125 975
-312.5 54.6875 1105
-218.75 85.9375 841
7.8125 85.9375 918
46.875 117.188 940
-54.6875 7.8125 995
-156.25 -23.4375 1001
85.9375 359.375 854
-179.688 -93.75 984
-23.4375 117.188 923
-421.875 304.688 875
-78.125 304.688 891
-265.625 -210.938 3092
0 -187.5 3149
-226.562 164.062 867
-93.75 15.625 987
-234.375 164.062 867
140.625 -187.5 3120
-320.312 109.375 833
-460.938 -218.75 2984
-117.188 -31.25 973
-31.25 46.875 1044
-445.312 335.938 896
-31.25 93.75 918
-234.375 101.562 835
-203.125 398.438 823
62.5 -54.6875 1236
492.188 210.938 1173
421.875 320.312 1063
-500 226.562 894
-320.312 85.9375 845
156.25 421.875 811
140.625 421.875 811
-398.438 367.188 835
-101.562 -54.6875 1041
-445.312 187.5 940
23.4375 -195.312 3149
132.812 421.875 811
-218.75 101.562 835
-125 -15.625 1025
-156.25 54.6875 867
-359.375 93.75 1245
-187.5 210.938 908
-500 265.625 862
484.375 -70.3125 964
-195.312 257.812 925
-468.75 312.5 882
-210.938 328.125 869
-304.688 31.25 1130
-281.25 367.188 841
-93.75 414.062 817
-203.125 156.25 864
62.5 -62.5 1241
-460.938 312.5 913
234.375 -179.688 3092
-281.25 210.938 903
-171.875 54.6875 864
-304.688 54.6875 860
296.875 445.312 805
445.312 195.312 1165
-273.438 7.8125 1028
-187.5 101.562 835
-484.375 335.938 894
-445.312 210.938 923
-484.375 -382.812 2723
-203.125 101.562 835
-117.188 -23.4375 981
-281.25 -109.375 1016
-39.0625 93.75 918
125 421.875 811
-156.25 93.75 839
250 421.875 811
-78.125 -46.875 964
242.188 -179.688 3092
250 -179.688 3092
0 85.9375 915
359.375 132.812 1259
-476.562 265.625 894
-476.562 390.625 882
-453.125 -46.875 2767
406.25 203.125 1177
-390.625 -125 3037
-484.375 296.875 882
-109.375 406.25 819
-148.438 171.875 878
-195.312 -46.875 984
-250 234.375 925
-257.812 148.438 856
109.375 453.125 825
-242.188 148.438 856
-257.812 15.625 1031
-171.875 148.438 860
-312.5 -250 3010
195.312 -179.688 3120
46.875 265.625 925
-492.188 -203.125 2170
453.125 -46.875 1007
320.312 445.312 807
218.75 -39.0625 1232
-257.812 390.625 827
-500 242.188 882
101.562 265.625 887
-132.812 -39.0625 1010
-265.625 85.9375 841
156.25 328.125 878
-257.812 -62.5 989
101.562 320.312 860
85.9375 273.438 880
-273.438 -62.5 998
-15.625 -195.312 3120
-468.75 132.812 1010
-234.375 62.5 862
265.625 421.875 809
101.562 351.562 833
132.812 203.125 978
23.4375 85.9375 930
-406.25 257.812 1080
70.3125 273.438 891
-484.375 -375 2701
70.3125 296.875 896
-156.25 132.812 849
-46.875 -109.375 3037
445.312 187.5 1157
187.5 -148.438 3149
-109.375 -54.6875 1031
54.6875 54.6875 959
-492.188 320.312 867
398.438 445.312 964
281.25 453.125 813
-7.8125 414.062 819
-406.25 367.188 837
289.062 421.875 807
-460.938 -234.375 2958
-484.375 -328.125 2744
406.25 179.688 1169
-179.688 -39.0625 987
-304.688 -210.938 3092
-242.188 62.5 862
390.625 -164.062 3064
398.438 179.688 1173
-476.562 218.75 920
-15.625 85.9375 981
-234.375 85.9375 841
-226.562 85.9375 841
-281.25 54.6875 858
234.375 421.875 809
-78.125 78.125 925
39.0625 421.875 813
85.9375 -62.5 1245
-257.812 187.5 885
-453.125 234.375 908
-31.25 414.062 817
-359.375 -23.4375 2789
-445.312 375 891
148.438 421.875 811
-62.5 85.9375 923
210.938 421.875 809
-468.75 -281.25 2883
281.25 421.875 809
93.75 421.875 811
265.625 437.5 805
-492.188 328.125 862
117.188 429.688 807
164.062 421.875 811
453.125 320.312 1067
-250 390.625 827
257.812 54.6875 1123
-257.812 -210.938 3092
-257.812 -210.938 3092
-218.75 117.188 835
296.875 429.688 802
-15.625 -7.8125 1013
-351.562 -210.938 3092
-257.812 117.188 835
265.625 429.688 805
-343.75 375 831
-109.375 -203.125 3120
-210.938 117.188 835
-242.188 85.9375 841
-125 406.25 817
-148.438 187.5 889
265.625 117.188 1057
-460.938 -242.188 2958
-257.812 234.375 925
-492.188 421.875 885
31.25 421.875 813
-437.5 351.562 839
78.125 320.312 860
-273.438 398.438 825
-242.188 -54.6875 984
93.75 335.938 851
-250 -164.062 1016
-265.625 101.562 833
-484.375 -390.625 2723
78.125 328.125 847
70.3125 -62.5 1241
101.562 429.688 807
109.375 210.938 970
-234.375 -164.062 989
-500 -39.0625 1365
460.938 210.938 1169
39.0625 -62.5 1245
-382.812 367.188 835
125 289.062 869
31.25 -195.312 3149
-390.625 218.75 946
406.25 171.875 1161
-250 85.9375 843
-156.25 85.9375 843
-421.875 406.25 843
-132.812 406.25 819
179.688 421.875 811
70.3125 218.75 964
-179.688 132.812 847
-101.562 406.25 819
-312.5 382.812 829
-101.562 -203.125 3120
156.25 -187.5 3092
-421.875 242.188 1090
335.938 -171.875 3037
-468.75 -226.562 2958
-39.0625 414.062 817
117.188 273.438 873
-93.75 -203.125 3120
-54.6875 140.625 943
101.562 218.75 887
-492.188 335.938 891
343.75 -171.875 3064
-296.875 54.6875 860
-429.688 359.375 837
-93.75 -31.25 967
-320.312 78.125 845
-289.062 54.6875 858
296.875 390.625 829
398.438 -164.062 2958
226.562 421.875 809
-171.875 -179.688 1025
-132.812 -93.75 1010
62.5 281.25 898
-148.438 -93.75 1001
257.812 -179.688 3092
-203.125 398.438 823
242.188 437.5 805
-296.875 101.562 833
195.312 421.875 809
-179.688 398.438 823
265.625 -179.688 3092
-257.812 85.9375 843
-187.5 -93.75 981
-101.562 46.875 970
-273.438 437.5 860
-15.625 414.062 819
296.875 437.5 802
164.062 437.5 805
-453.125 390.625 891
-453.125 156.25 987
-289.062 -210.938 3092
-281.25 -210.938 3120
54.6875 421.875 813
70.3125 343.75 837
-500 -203.125 2170
-421.875 281.25 940
-289.062 226.562 946
7.8125 414.062 817
109.375 421.875 811
-460.938 156.25 989
39.0625 265.625 925
-351.562 375 831
-242.188 -31.25 989
218.75 -179.688 3120
-500 -406.25 2639
-257.812 78.125 847
-406.25 -31.25 2767
-406.25 375 829
-179.688 23.4375 1031
343.75 -101.562 3092
-156.25 70.3125 856
132.812 -187.5 3120
54.6875 320.312 885
46.875 -195.312 3120
-62.5 429.688 815
296.875 414.062 813
85.9375 320.312 860
23.4375 437.5 813
-226.562 62.5 860
-195.312 398.438 821
-312.5 140.625 851
-421.875 367.188 833
265.625 109.375 1063
-476.562 -320.312 2789
-304.688 54.6875 860
-210.938 101.562 835
-101.562 31.25 975
0 414.062 817
226.562 -179.688 3120
-70.3125 -7.8125 975
-265.625 78.125 847
-304.688 382.812 831
-23.4375 -7.8125 1013
-398.438 187.5 1149
-468.75 195.312 1034
-257.812 398.438 825
70.3125 414.062 819
-195.312 101.562 835
-117.188 406.25 817
-156.25 62.5 864
-195.312 -70.3125 981
-468.75 398.438 885
-226.562 132.812 843
-492.188 359.375 875
-132.812 -54.6875 1004
328.125 -171.875 3064
-78.125 62.5 935
367.188 78.125 1232
-226.562 101.562 835
-70.3125 -23.4375 973
15.625 78.125 998
-414.062 281.25 891
-359.375 -23.4375 2789
-296.875 382.812 829
-484.375 -203.125 2984
-476.562 203.125 930
-179.688 101.562 835
273.438 421.875 809
-476.562 257.812 894
-140.625 203.125 901
39.0625 -195.312 3149
273.438 437.5 805
-445.312 390.625 896
101.562 250 889
-421.875 187.5 1141
-234.375 -210.938 3120
257.812 0 1185
218.75 421.875 811
-250 -210.938 3092
-296.875 -210.938 3092
-46.875 421.875 815
78.125 -62.5 1245
148.438 -187.5 3092
-195.312 132.812 847
-78.125 -46.875 964
-468.75 210.938 930
-484.375 359.375 880
-453.125 304.688 901
171.875 421.875 811
-492.188 -304.688 2286
-273.438 -210.938 3149
-140.625 234.375 928
-54.6875 132.812 956
-460.938 218.75 923
140.625 421.875 811
-453.125 218.75 920
414.062 210.938 1169
-195.312 226.562 918
15.625 414.062 817
-500 -460.938 2560
54.6875 312.5 887
-476.562 -179.688 3064
242.188 421.875 809
-390.625 210.938 1126
-31.25 78.125 975
140.625 -187.5 3120
93.75 -187.5 3120
-218.75 54.6875 867
-296.875 -78.125 1022
281.25 218.75 962
-125 -15.625 1025
-242.188 390.625 827
335.938 445.312 964
109.375 296.875 862
-218.75 -62.5 981
101.562 335.938 849
117.188 242.188 880
460.938 187.5 1153
-414.062 382.812 829
-320.312 101.562 833
-437.5 -85.9375 2908
-289.062 140.625 849
-265.625 -210.938 3092
-500 320.312 854
132.812 257.812 880
-171.875 210.938 908
453.125 187.5 1157
-156.25 78.125 849
148.438 320.312 885
-195.312 -93.75 981
-257.812 -156.25 1013
-234.375 132.812 845
-250 85.9375 843
-359.375 382.812 827
-148.438 226.562 923
-437.5 226.562 915
-335.938 382.812 825
-85.9375 -203.125 3120
31.25 101.562 928
-484.375 -335.938 2744
-132.812 171.875 878
-296.875 -203.125 3120
-500 -39.0625 1365
414.062 54.6875 1090
281.25 234.375 951
-101.562 23.4375 987
-78.125 78.125 925
-257.812 -78.125 987
-265.625 -101.562 998
-210.938 78.125 847
-468.75 351.562 885
-210.938 -140.625 984
-101.562 -39.0625 967
-109.375 242.188 940
-195.312 210.938 906
132.812 210.938 887
-234.375 -179.688 1016
-367.188 382.812 827
-312.5 101.562 833
-195.312 218.75 913
-445.312 -218.75 3064
7.8125 62.5 1004
-453.125 203.125 935
85.9375 -62.5 1245
-265.625 117.188 835
-93.75 406.25 821
-421.875 -31.25 2723
-484.375 367.188 878
-281.25 -46.875 1007
257.812 -171.875 3120
-437.5 218.75 920
250 429.688 805
62.5 414.062 817
-414.062 375 829
-437.5 343.75 901
-289.062 101.562 833
406.25 187.5 1173
-390.625 367.188 835
-93.75 -78.125 1054
-117.188 -203.125 3120
-335.938 398.438 825
-421.875 296.875 948
-226.562 -62.5 984
93.75 -179.688 3149
289.062 414.062 813
-195.312 156.25 864
-492.188 -453.125 2598
-7.8125 414.062 819
140.625 273.438 887
101.562 257.812 891
-70.3125 218.75 962
-500 351.562 873
296.875 398.438 823
-148.438 179.688 885
-15.625 226.562 959
-226.562 78.125 849
-492.188 250 891
-273.438 125 837
156.25 312.5 880
-375 171.875 1169
-250 70.3125 854
-78.125 -203.125 3120
54.6875 265.625 889
-179.688 7.8125 1010
-203.125 -54.6875 984
31.25 437.5 813
0 85.9375 915
-54.6875 85.9375 918
-492.188 -39.0625 2450
367.188 156.25 1177
-70.3125 15.625 975
-375 -23.4375 1387
414.062 265.625 1115
164.062 281.25 875
-195.312 281.25 906
492.188 -78.125 956
-250 -109.375 995
-312.5 -195.312 3120
125 265.625 887
375 179.688 1206
-23.4375 39.0625 1038
-187.5 148.438 860
-148.438 46.875 1130
179.688 -85.9375 3037
-195.312 234.375 923
-242.188 62.5 862
-351.562 -78.125 2908
-250 390.625 827
-31.25 187.5 992
-390.625 234.375 928
-70.3125 -203.125 3120
-234.375 -164.062 989
-382.812 195.312 1141
-257.812 265.625 915
-484.375 -367.188 2767
54.6875 -195.312 3120
-132.812 23.4375 1054
187.5 421.875 811
78.125 414.062 817
-398.438 234.375 1101
-195.312 39.0625 1041
-414.062 273.438 1063
-351.562 109.375 1047
-7.8125 70.3125 998
265.625 -171.875 3092
-93.75 23.4375 987
-62.5 414.062 813
437.5 -7.8125 1038
-226.562 -54.6875 984
-187.5 398.438 821
-250 78.125 845
-257.812 78.125 847
-140.625 46.875 1126
-156.25 250 933
-164.062 234.375 928
-257.812 62.5 860
-62.5 226.562 956
-62.5 -203.125 3120
-257.812 7.8125 1016
-273.438 242.188 933
-328.125 382.812 825
-171.875 398.438 823
-304.688 171.875 871
-242.188 234.375 925
-281.25 234.375 938
-7.8125 179.688 995
-484.375 312.5 875
-257.812 226.562 918
-476.562 117.188 1025
-234.375 437.5 856
-242.188 -210.938 3120
-296.875 156.25 858
-117.188 -39.0625 973
-164.062 125 843
289.062 312.5 885
-250 -78.125 987
484.375 187.5 1153
-179.688 -93.75 984
140.625 453.125 821
-476.562 234.375 913
476.562 187.5 1153
-140.625 62.5 862
109.375 203.125 975
-156.25 125 845
-195.312 250 933
-148.438 187.5 889
312.5 445.312 807
164.062 -187.5 3120
-54.6875 15.625 989
-109.375 406.25 819
-70.3125 -125 3120
351.562 -171.875 3064
-367.188 148.438 1189
23.4375 414.062 817
-273.438 70.3125 854
273.438 -179.688 3092
-335.938 375 831
-335.938 375 831
-296.875 140.625 851
-484.375 -39.0625 2767
125 375 843
-500 218.75 906
-210.938 78.125 847
179.688 -187.5 3120
-320.312 70.3125 1080
-460.938 156.25 989
101.562 367.188 837
70.3125 335.938 839
-226.562 62.5 860
156.25 429.688 805
-500 242.188 882
-359.375 -23.4375 2789
-179.688 31.25 1034
-226.562 -70.3125 984
31.25 414.062 817
-7.8125 -7.8125 1016
-23.4375 414.062 819
78.125 343.75 837
-250 234.375 925
-179.688 234.375 928
-101.562 406.25 819
93.75 -156.25 3208
-257.812 195.312 891
-414.062 359.375 839
-242.188 85.9375 841
-320.312 117.188 833
281.25 414.062 813
-257.812 234.375 925
62.5 421.875 811
-156.25 234.375 928
-156.25 226.562 923
15.625 78.125 998
-453.125 -218.75 3064
23.4375 70.3125 1004
-78.125 -140.625 3178
-210.938 234.375 925
-148.438 140.625 854
-250 0 1007
-234.375 -210.938 3120
164.062 429.688 805
-187.5 234.375 923
-242.188 390.625 827
257.812 -179.688 3092
-421.875 359.375 839
-414.062 429.688 935
-453.125 156.25 987
-187.5 -171.875 987
-468.75 250 896
93.75 414.062 817
-210.938 -70.3125 981
-414.062 -31.25 2723
-406.25 250 1084
-218.75 265.625 918
-343.75 375 831
-289.062 382.812 829
39.0625 414.062 817
-210.938 195.312 891
156.25 320.312 885
85.9375 414.062 817
-179.688 398.438 823
-226.562 78.125 849
-460.938 390.625 889
-203.125 234.375 923
-281.25 390.625 825
-164.062 398.438 823
-453.125 375 889
-54.6875 -203.125 3120
-31.25 70.3125 970
-179.688 148.438 860
-171.875 273.438 913
-156.25 -62.5 992
-382.812 367.188 835
171.875 429.688 807
-296.875 382.812 829
23.4375 -195.312 3149
109.375 265.625 885
-210.938 125 841
7.8125 -195.312 3149
-492.188 210.938 920
54.6875 328.125 880
-250 125 839
-390.625 210.938 1126
-468.75 -250 2958
-484.375 257.812 891
492.188 187.5 1145
117.188 203.125 975
-250 -148.438 1013
-85.9375 406.25 819
-234.375 234.375 928
39.0625 429.688 811
-195.312 234.375 923
156.25 -187.5 3092
-289.062 140.625 849
140.625 429.688 807
-93.75 -203.125 3120
7.8125 414.062 817
-234.375 -46.875 987
359.375 -93.75 3037
-484.375 398.438 880
85.9375 437.5 809
-125 -203.125 3120
-492.188 -390.625 2598
-500 281.25 854
-78.125 406.25 819
-54.6875 31.25 975
-492.188 -203.125 2170
-429.688 -218.75 3064
-132.812 406.25 819
-93.75 429.688 819
-460.938 -195.312 3064
-234.375 78.125 849
-125 -15.625 1025
273.438 164.062 1013
-265.625 234.375 925
-500 226.562 894
-242.188 -140.625 1001
-375 367.188 835
-375 367.188 835
-476.562 -39.0625 2767
46.875 414.062 817
-468.75 -93.75 2883
-132.812 -39.0625 1010
-156.25 -132.812 1010
382.812 445.312 967
-39.0625 421.875 815
78.125 210.938 970
46.875 -195.312 3120
62.5 -195.312 3120
-265.625 -140.625 1022
187.5 429.688 805
-187.5 140.625 851
-390.625 187.5 1145
-265.625 140.625 849
382.812 421.875 981
-476.562 398.438 882
-468.75 343.75 887
-210.938 -179.688 1034
-421.875 -31.25 2723
-265.625 187.5 885
171.875 -187.5 3092
109.375 343.75 833
-218.75 117.188 835
-117.188 414.062 817
-492.188 -39.0625 2450
-429.688 359.375 837
-500 296.875 871
-226.562 203.125 901
-437.5 -218.75 3064
-171.875 234.375 928
-70.3125 -46.875 964
-351.562 382.812 825
-421.875 203.125 925
-492.188 242.188 903
-445.312 -218.75 3064
359.375 -171.875 3064
-85.9375 62.5 935
257.812 31.25 1149
265.625 -179.688 3092
-109.375 23.4375 987
-101.562 39.0625 973
-476.562 -289.062 2883
-281.25 382.812 829
-289.062 -101.562 1022
-218.75 171.875 875
15.625 414.062 817
-460.938 -242.188 2958
-78.125 78.125 925
484.375 -187.5 1105
-421.875 -218.75 3064
109.375 421.875 811
-226.562 234.375 928
117.188 289.062 867
70.3125 -195.312 3120
-234.375 109.375 835
-164.062 234.375 928
-257.812 62.5 860
23.4375 62.5 1028
-429.688 218.75 925
-468.75 226.562 920
-148.438 195.312 896
-78.125 70.3125 935
31.25 460.938 841
-171.875 -39.0625 987
257.812 70.3125 1108
-390.625 -218.75 3064
281.25 -179.688 3092
-320.312 109.375 833
-257.812 -140.625 1010
-148.438 234.375 925
-265.625 78.125 847
70.3125 210.938 970
-429.688 320.312 910
-218.75 -171.875 1034
70.3125 289.062 906
-218.75 -179.688 1031
-351.562 93.75 1060
-187.5 398.438 821
-54.6875 23.4375 978
-453.125 273.438 901
-250 109.375 833
-226.562 -125 989
-445.312 367.188 891
-406.25 367.188 837
-125 414.062 817
289.062 437.5 802
-195.312 406.25 819
195.312 437.5 803
484.375 -156.25 1054
296.875 421.875 807
62.5 257.812 889
-203.125 398.438 823
-210.938 -23.4375 989
-7.8125 78.125 992
-414.062 -210.938 3064
-382.812 164.062 1173
-273.438 70.3125 854
-70.3125 -203.125 3120
-46.875 -203.125 3120
-210.938 70.3125 854
-179.688 -70.3125 987
117.188 414.062 815
-304.688 226.562 946
273.438 171.875 1004
-210.938 171.875 878
-476.562 281.25 891
-156.25 398.438 825
-93.75 406.25 821
101.562 375 843
-437.5 335.938 903
70.3125 -164.062 3208
367.188 148.438 1173
-421.875 289.062 959
-312.5 398.438 823
-117.188 -31.25 973
-492.188 -382.812 2579
-320.312 93.75 835
-328.125 398.438 831
-398.438 203.125 1126
-312.5 382.812 827
187.5 -187.5 3120
-179.688 140.625 858
-62.5 -203.125 3120
-70.3125 140.625 948
-320.312 15.625 1130
23.4375 125 970
-15.625 421.875 815
78.125 -195.312 3120
-281.25 101.562 833
328.125 -148.438 3149
-62.5 -31.25 973
257.812 429.688 805
-359.375 125 1028
117.188 320.312 864
-226.562 85.9375 841
453.125 195.312 1165
