ply
format ascii 1.0
comment Created by Open3D
element vertex 2326
property double x
property double y
property double z
end_header
390.625 -296.875 2933
-351.562 -85.9375 1007
351.562 390.625 910
-15.625 414.062 1022
242.188 -414.062 2767
-140.625 -70.3125 1157
-15.625 351.562 923
101.562 429.688 1070
-476.562 -304.688 989
39.0625 421.875 1013
-281.25 156.25 839
-257.812 304.688 933
234.375 -85.9375 1084
-7.8125 -109.375 1283
-468.75 -234.375 1010
93.75 429.688 1016
-148.438 -210.938 1138
-320.312 148.438 841
-62.5 406.25 1025
-156.25 390.625 1112
70.3125 429.688 1013
-429.688 39.0625 867
-171.875 -7.8125 1038
-132.812 -109.375 1149
-164.062 398.438 1119
-437.5 265.625 943
-367.188 7.8125 903
-125 -265.625 1206
132.812 -15.625 1165
-320.312 -320.312 1245
-195.312 117.188 1013
0 -156.25 1338
-78.125 437.5 1322
-468.75 257.812 948
429.688 398.438 910
-226.562 0 943
-265.625 93.75 873
-156.25 -46.875 1119
328.125 398.438 908
-7.8125 -117.188 1292
-250 257.812 959
-203.125 140.625 1047
-132.812 -101.562 1138
-210.938 109.375 943
273.438 -296.875 925
101.562 -328.125 935
0 -140.625 1112
242.188 -117.188 1054
-328.125 296.875 935
132.812 -195.312 1004
-312.5 140.625 841
-234.375 179.688 906
-218.75 54.6875 918
250 -132.812 1041
-164.062 -187.5 1115
-171.875 -93.75 1028
164.062 -187.5 1004
-125 -132.812 1197
-148.438 -70.3125 1141
289.062 -335.938 978
-429.688 -125 1019
-414.062 -39.0625 915
78.125 -335.938 938
46.875 429.688 1013
148.438 -179.688 1013
-125 -117.188 1153
-351.562 -390.625 3092
-187.5 -101.562 1028
-273.438 281.25 943
140.625 -195.312 1007
101.562 -234.375 987
-39.0625 343.75 925
476.562 -273.438 2933
-375 31.25 910
-54.6875 -195.312 1365
7.8125 -117.188 1126
-398.438 7.8125 901
-414.062 109.375 856
-7.8125 -125 1307
-54.6875 406.25 1025
187.5 -15.625 1157
-179.688 414.062 1255
7.8125 421.875 1016
-54.6875 437.5 1387
109.375 -203.125 1007
39.0625 359.375 920
-101.562 437.5 1333
335.938 -31.25 1245
-156.25 -187.5 1115
-335.938 296.875 935
62.5 -335.938 943
117.188 -187.5 1016
70.3125 437.5 1013
-281.25 171.875 849
0 406.25 1019
-484.375 -312.5 987
-445.312 265.625 943
-101.562 -187.5 1250
-414.062 23.4375 891
-164.062 0 1105
226.562 -62.5 1108
109.375 -320.312 930
-78.125 406.25 1101
-226.562 -304.688 1245
-421.875 -54.6875 928
-101.562 -320.312 3178
148.438 445.312 1090
-203.125 132.812 1016
187.5 -7.8125 1165
-7.8125 351.562 923
-453.125 15.625 880
-195.312 54.6875 1022
273.438 445.312 1047
125 -328.125 933
93.75 -187.5 1028
-171.875 -62.5 1038
-132.812 -234.375 1165
164.062 -187.5 1004
93.75 -15.625 1181
-132.812 218.75 1001
-54.6875 226.562 1001
234.375 -93.75 1070
101.562 -23.4375 1165
-132.812 -93.75 1181
171.875 375 918
46.875 -54.6875 1157
-257.812 312.5 933
-125 398.438 1112
-351.562 125 849
-7.8125 421.875 1022
-179.688 15.625 1047
-242.188 210.938 906
-148.438 -46.875 1145
125 -320.312 928
218.75 -39.0625 1130
-179.688 -70.3125 1010
140.625 -179.688 1019
70.3125 -328.125 938
-421.875 -132.812 1013
-164.062 390.625 1115
125 -195.312 1010
140.625 -320.312 928
-265.625 109.375 864
-445.312 -15.625 943
156.25 -7.8125 1165
-468.75 -328.125 1070
445.312 390.625 915
85.9375 109.375 1094
-218.75 -15.625 956
132.812 -7.8125 1169
-171.875 -70.3125 1031
125 -203.125 1004
78.125 429.688 1016
-148.438 390.625 1101
140.625 437.5 1080
281.25 -226.562 959
257.812 -171.875 1004
-250 62.5 898
148.438 46.875 1149
234.375 0 1206
-164.062 -304.688 1236
414.062 54.6875 1165
-203.125 78.125 1010
195.312 -15.625 1161
171.875 -15.625 1153
234.375 421.875 1010
-218.75 125 967
15.625 78.125 1119
117.188 101.562 1105
-78.125 429.688 1322
-101.562 218.75 1001
289.062 -46.875 1259
-156.25 -15.625 1126
-101.562 429.688 1333
0 445.312 1516
-476.562 23.4375 913
-179.688 -148.438 1073
281.25 -375 1028
398.438 406.25 906
-250 320.312 938
-156.25 -23.4375 1126
335.938 -132.812 2723
-429.688 15.625 896
-164.062 -31.25 1101
156.25 -179.688 1010
-132.812 398.438 1112
-171.875 23.4375 1090
-257.812 85.9375 882
257.812 85.9375 1134
-484.375 -296.875 989
-234.375 23.4375 928
289.062 -328.125 967
359.375 -304.688 2933
421.875 390.625 915
-171.875 -148.438 1073
-210.938 164.062 981
-382.812 117.188 854
-234.375 390.625 1529
234.375 7.8125 1197
-296.875 304.688 933
39.0625 -296.875 970
-132.812 -117.188 1153
-351.562 250 954
39.0625 -335.938 951
-421.875 -242.188 1044
-125 -15.625 1189
273.438 -226.562 959
265.625 -195.312 984
109.375 -437.5 1063
-171.875 31.25 1084
85.9375 398.438 923
-109.375 -164.062 1236
281.25 -257.812 930
234.375 -93.75 1070
289.062 -281.25 920
78.125 -445.312 2812
-54.6875 -46.875 1214
257.812 382.812 915
-218.75 171.875 954
7.8125 -39.0625 1214
-218.75 382.812 1119
-156.25 -210.938 1138
406.25 -23.4375 1241
-179.688 62.5 1038
-304.688 132.812 847
-375 132.812 847
-140.625 328.125 928
-140.625 -78.125 1157
31.25 -31.25 1206
148.438 203.125 998
242.188 -117.188 1054
429.688 281.25 987
-382.812 -78.125 903
328.125 179.688 1057
359.375 -15.625 1227
109.375 437.5 1094
46.875 -39.0625 1181
-203.125 -78.125 1007
437.5 -289.062 2908
-179.688 54.6875 1050
148.438 -15.625 1157
-226.562 156.25 901
-140.625 -226.562 1157
320.312 382.812 915
-500 -320.312 989
62.5 -437.5 2789
-117.188 -148.438 1177
421.875 148.438 1087
-203.125 148.438 1044
-7.8125 414.062 1019
-117.188 -140.625 1177
-156.25 -54.6875 1119
-312.5 148.438 841
31.25 406.25 1013
-187.5 -54.6875 992
195.312 -132.812 1038
-210.938 101.562 943
-140.625 429.688 1381
-210.938 367.188 1090
-187.5 -23.4375 1013
-320.312 132.812 847
-460.938 312.5 1586
-15.625 398.438 1050
-210.938 -39.0625 975
296.875 -140.625 2744
226.562 -140.625 1031
-93.75 335.938 925
-164.062 0 1105
-7.8125 -132.812 1312
-125 -125 1153
101.562 -445.312 2812
101.562 0 1185
-320.312 296.875 938
273.438 -304.688 930
78.125 437.5 1016
-140.625 -250 1185
54.6875 421.875 1013
281.25 -250 938
375 390.625 910
-218.75 -39.0625 975
281.25 382.812 913
46.875 421.875 1013
125 -187.5 1016
-500 -296.875 981
-273.438 132.812 847
-148.438 -54.6875 1138
-78.125 46.875 1134
-492.188 -257.812 989
242.188 -125 1044
-210.938 -46.875 981
250 -140.625 1031
-101.562 335.938 925
226.562 -62.5 1108
-500 -140.625 908
-195.312 54.6875 1022
-132.812 -101.562 1138
-343.75 125 849
-250 46.875 910
-179.688 -62.5 998
429.688 304.688 973
-234.375 179.688 906
-101.562 -203.125 1214
-414.062 117.188 849
-132.812 -250 1189
-250 312.5 933
-187.5 429.688 1288
0 -359.375 3092
70.3125 -445.312 2812
70.3125 -445.312 2812
429.688 390.625 913
-179.688 46.875 1041
179.688 437.5 1084
-7.8125 -125 1134
265.625 -203.125 989
-140.625 390.625 1112
273.438 382.812 913
-140.625 -93.75 1177
-468.75 -375 1077
-7.8125 -109.375 1149
109.375 429.688 1090
148.438 437.5 1097
148.438 -187.5 1016
-218.75 140.625 956
-46.875 437.5 1119
-171.875 -7.8125 1094
-203.125 -375 3092
226.562 -70.3125 1112
273.438 85.9375 1130
312.5 -31.25 1241
140.625 203.125 1004
-187.5 31.25 1047
-320.312 140.625 843
289.062 -273.438 928
101.562 -195.312 1025
-156.25 -148.438 1077
-195.312 -101.562 1022
-187.5 -93.75 1016
429.688 296.875 973
-195.312 -78.125 1004
281.25 437.5 1050
-7.8125 -101.562 1153
-492.188 273.438 1317
-187.5 -109.375 1031
78.125 398.438 1034
-85.9375 437.5 1322
46.875 359.375 923
-187.5 78.125 1028
-171.875 398.438 1126
-195.312 109.375 1016
-484.375 -273.438 995
453.125 -281.25 2933
-234.375 226.562 933
23.4375 406.25 1013
-453.125 7.8125 891
265.625 382.812 915
-242.188 39.0625 910
-414.062 7.8125 898
-195.312 398.438 1134
-445.312 109.375 856
-179.688 414.062 1288
-242.188 265.625 956
-164.062 -31.25 1094
-7.8125 -117.188 1138
-156.25 -31.25 1134
-218.75 125 973
-367.188 -7.8125 903
0 -179.688 1354
-156.25 421.875 1381
-54.6875 414.062 1119
-179.688 398.438 1141
421.875 101.562 1123
234.375 -7.8125 1206
-250 250 964
-429.688 -234.375 1057
156.25 234.375 1010
-132.812 -265.625 1197
234.375 -414.062 2812
-351.562 -78.125 995
-242.188 203.125 915
289.062 429.688 1031
140.625 -15.625 1169
-429.688 -117.188 1028
-289.062 304.688 935
429.688 265.625 995
117.188 429.688 1090
-7.8125 -140.625 1123
-203.125 132.812 1054
-320.312 304.688 946
78.125 382.812 923
203.125 -15.625 1165
-187.5 39.0625 1047
-171.875 23.4375 1077
296.875 15.625 1193
-171.875 414.062 1288
406.25 0 1210
-93.75 429.688 1322
-132.812 -117.188 1169
-398.438 46.875 896
273.438 -218.75 973
132.812 -179.688 1028
421.875 156.25 1077
-500 -218.75 867
148.438 -179.688 1022
-62.5 -46.875 1214
15.625 421.875 1022
-234.375 171.875 910
-93.75 -179.688 1307
-453.125 -46.875 923
242.188 -93.75 1087
-54.6875 406.25 1025
-140.625 -78.125 1173
171.875 156.25 975
-187.5 -46.875 998
-320.312 265.625 946
-421.875 109.375 851
-203.125 78.125 1016
-476.562 257.812 951
-218.75 164.062 973
-218.75 335.938 1044
203.125 437.5 1077
-7.8125 -132.812 1134
250 -414.062 2767
-484.375 -289.062 995
117.188 203.125 1025
265.625 -31.25 1236
-195.312 101.562 1034
-453.125 -15.625 940
-148.438 -210.938 1134
140.625 -179.688 1025
-156.25 -54.6875 1130
-70.3125 437.5 1370
406.25 390.625 913
398.438 -23.4375 1236
273.438 -234.375 962
46.875 -312.5 956
-398.438 304.688 1601
281.25 -367.188 1010
-54.6875 343.75 925
289.062 -320.312 946
-468.75 -367.188 1070
-78.125 414.062 1115
-164.062 -171.875 1090
-203.125 -70.3125 998
382.812 -125 1338
-257.812 70.3125 887
-296.875 429.688 1489
46.875 -343.75 948
-484.375 -226.562 998
-406.25 15.625 901
234.375 -101.562 1077
-109.375 -171.875 1255
234.375 31.25 1177
429.688 273.438 989
-226.562 210.938 935
-109.375 414.062 1126
-31.25 -31.25 1206
148.438 -7.8125 1185
250 -148.438 1034
273.438 -226.562 967
-484.375 -304.688 989
242.188 101.562 1115
-7.8125 -78.125 1165
-414.062 -257.812 1025
234.375 15.625 1185
-148.438 -234.375 1161
-414.062 125 849
-187.5 -125 1044
-164.062 0 1108
93.75 0 1181
242.188 -101.562 1080
-125 226.562 998
226.562 -70.3125 1112
203.125 -7.8125 1181
234.375 -62.5 1119
-125 -125 1165
-101.562 -195.312 1268
242.188 -125 1054
195.312 437.5 1080
218.75 -46.875 1134
109.375 367.188 920
195.312 -7.8125 1177
179.688 -15.625 1169
85.9375 -445.312 2812
85.9375 -328.125 938
-226.562 234.375 975
-390.625 -15.625 908
414.062 70.3125 1149
156.25 -23.4375 1165
-226.562 320.312 935
-117.188 -156.25 1241
179.688 -328.125 933
-132.812 0 1165
-234.375 15.625 930
140.625 -195.312 1013
164.062 -15.625 1169
281.25 -265.625 933
-125 -140.625 1197
-171.875 -140.625 1060
-226.562 -23.4375 959
195.312 375 918
210.938 -39.0625 1138
-156.25 -31.25 1134
-429.688 -54.6875 920
296.875 -39.0625 1245
382.812 390.625 910
-218.75 -23.4375 959
257.812 -171.875 1016
429.688 257.812 998
-445.312 -31.25 923
-187.5 70.3125 1050
164.062 -23.4375 1153
-210.938 101.562 1007
-304.688 257.812 951
-195.312 -85.9375 1013
78.125 406.25 1025
-437.5 54.6875 873
-210.938 140.625 1047
-171.875 -101.562 1034
-195.312 93.75 1034
-187.5 31.25 1047
-210.938 -62.5 989
-125 -132.812 1210
78.125 390.625 1028
-187.5 312.5 933
414.062 62.5 1157
-492.188 -250 882
-234.375 0 938
250 -125 1057
226.562 -23.4375 1149
-179.688 -132.812 1054
-187.5 78.125 1028
-328.125 351.562 1489
117.188 179.688 1041
85.9375 437.5 1108
-148.438 -78.125 1165
-156.25 -195.312 1115
-476.562 -273.438 1010
-265.625 85.9375 878
195.312 15.625 1181
-218.75 179.688 956
406.25 -289.062 2958
234.375 414.062 1019
-203.125 382.812 1126
-218.75 -343.75 3178
-125 -265.625 1197
-421.875 23.4375 885
70.3125 -31.25 1181
-351.562 140.625 845
-250 125 867
-265.625 101.562 867
289.062 140.625 1084
-367.188 140.625 847
-140.625 -101.562 1119
-195.312 101.562 1034
-179.688 7.8125 1063
-132.812 -109.375 1149
-351.562 -85.9375 1004
-171.875 -156.25 1077
-226.562 328.125 943
-179.688 -46.875 1034
187.5 375 918
-140.625 -234.375 1161
-484.375 -296.875 995
-226.562 -7.8125 946
-359.375 117.188 849
289.062 -320.312 946
-7.8125 -125 1134
54.6875 359.375 923
289.062 -289.062 925
-476.562 -390.625 1067
234.375 -101.562 1077
-296.875 132.812 845
-125 -273.438 1210
429.688 312.5 964
-429.688 -31.25 903
375 -125 1338
-7.8125 -148.438 1115
-7.8125 -140.625 1123
-117.188 -148.438 1197
250 -156.25 1028
429.688 250 1007
429.688 250 1007
335.938 382.812 913
-429.688 23.4375 873
343.75 -132.812 1338
-140.625 -78.125 1173
156.25 156.25 981
-390.625 281.25 943
-171.875 421.875 1328
-218.75 -31.25 964
-203.125 -85.9375 1010
-148.438 -54.6875 1153
-460.938 -218.75 998
-218.75 351.562 1067
-500 -398.438 987
-179.688 -78.125 1004
421.875 171.875 1067
46.875 414.062 1016
226.562 375 918
-164.062 -7.8125 1112
-179.688 382.812 1115
164.062 0 1185
-171.875 15.625 1090
226.562 421.875 1041
-226.562 -15.625 954
304.688 406.25 913
0 414.062 1022
-390.625 -62.5 903
367.188 15.625 1197
281.25 -359.375 998
-148.438 -226.562 1149
-179.688 46.875 1041
484.375 -273.438 2883
-468.75 -351.562 1067
-226.562 148.438 903
-234.375 31.25 915
-70.3125 203.125 1013
429.688 39.0625 1181
-375 -7.8125 910
-500 -289.062 984
-125 -250 1181
-132.812 429.688 1387
-171.875 -15.625 1087
398.438 -62.5 1278
398.438 390.625 910
-85.9375 335.938 925
-7.8125 -62.5 1232
-179.688 -140.625 1060
-187.5 -54.6875 998
-117.188 -289.062 1232
234.375 -414.062 2812
148.438 367.188 918
-414.062 0 894
-484.375 -289.062 995
-203.125 125 1013
-164.062 -85.9375 1050
39.0625 406.25 1019
78.125 429.688 1019
234.375 -101.562 1077
-218.75 187.5 956
429.688 335.938 946
421.875 125 1101
429.688 289.062 978
-70.3125 421.875 1119
375 -23.4375 1236
-218.75 125 973
70.3125 382.812 925
-226.562 140.625 903
-421.875 -7.8125 894
-7.8125 -132.812 1134
117.188 437.5 1105
-437.5 101.562 858
31.25 -281.25 989
187.5 -312.5 923
-476.562 -265.625 1013
265.625 -304.688 928
140.625 0 1185
7.8125 406.25 1016
289.062 421.875 1013
-156.25 -31.25 1134
281.25 -257.812 940
-460.938 -54.6875 973
218.75 -304.688 925
-195.312 390.625 1134
273.438 -312.5 935
-476.562 -257.812 1013
-273.438 109.375 862
-171.875 23.4375 1077
-367.188 -85.9375 910
-468.75 -359.375 1070
-31.25 304.688 948
-195.312 54.6875 1057
226.562 -78.125 1097
218.75 -54.6875 1126
-164.062 -148.438 1070
156.25 -289.062 935
398.438 -46.875 1259
0 421.875 1022
140.625 445.312 1112
-7.8125 -148.438 1115
-15.625 -78.125 1245
265.625 -210.938 981
85.9375 -78.125 1130
398.438 -54.6875 1268
429.688 375 923
273.438 -304.688 930
203.125 0 1193
-148.438 -218.75 1145
-132.812 -109.375 1149
242.188 -304.688 925
-210.938 101.562 1007
242.188 -132.812 1047
-398.438 -7.8125 903
406.25 -15.625 1227
-187.5 70.3125 1050
250 -109.375 1070
-132.812 -101.562 1197
-171.875 -93.75 1031
-390.625 -7.8125 906
234.375 -93.75 1084
101.562 437.5 1108
-203.125 70.3125 1013
-7.8125 -164.062 1333
101.562 -195.312 1025
-203.125 117.188 1016
-7.8125 398.438 1022
179.688 -7.8125 1177
117.188 46.875 1145
-226.562 210.938 935
-257.812 78.125 885
-148.438 -78.125 1165
-171.875 437.5 1365
-335.938 -31.25 940
234.375 -70.3125 1112
101.562 -15.625 1189
210.938 -31.25 1141
-125 -140.625 1197
-476.562 -312.5 987
-406.25 -15.625 901
-132.812 -273.438 1210
-203.125 132.812 1054
242.188 -273.438 933
-70.3125 406.25 1115
273.438 -242.188 954
281.25 -265.625 933
281.25 -242.188 954
242.188 -125 1054
-132.812 -257.812 1193
-117.188 -156.25 1241
-281.25 164.062 849
46.875 -273.438 984
281.25 -273.438 930
-7.8125 -140.625 1123
242.188 -296.875 925
31.25 -257.812 1004
-179.688 7.8125 1063
0 85.9375 1108
203.125 -23.4375 1153
234.375 -101.562 1077
156.25 -187.5 1013
-203.125 -70.3125 998
-125 -132.812 1210
-109.375 -164.062 1255
-46.875 343.75 925
-445.312 -101.562 1013
-218.75 -46.875 975
281.25 -375 1022
-156.25 -156.25 1080
-210.938 93.75 984
257.812 -187.5 995
-476.562 -382.812 1063
-15.625 -70.3125 1241
-351.562 -390.625 3092
-406.25 -62.5 908
-7.8125 -156.25 1119
-171.875 -78.125 1004
-187.5 -62.5 998
-250 54.6875 898
289.062 -296.875 928
-367.188 -54.6875 913
281.25 -351.562 987
414.062 390.625 913
234.375 -109.375 1070
421.875 164.062 1070
421.875 179.688 1060
-156.25 -62.5 1130
148.438 429.688 1077
-140.625 -85.9375 1177
-382.812 -46.875 903
-203.125 125 1013
-210.938 -46.875 978
429.688 281.25 984
-62.5 -367.188 3037
117.188 187.5 1038
421.875 187.5 1057
-148.438 -62.5 1157
335.938 179.688 1057
242.188 -117.188 1067
-187.5 -117.188 1038
234.375 -304.688 925
-195.312 -31.25 981
429.688 320.312 956
-406.25 -164.062 1016
-210.938 -54.6875 987
320.312 429.688 1013
289.062 382.812 913
-15.625 -54.6875 1227
-171.875 -148.438 1070
-117.188 328.125 925
-390.625 -210.938 978
85.9375 54.6875 1134
-156.25 -218.75 1145
304.688 382.812 913
-218.75 195.312 956
-164.062 -195.312 1115
-179.688 46.875 1041
265.625 -210.938 981
-164.062 -39.0625 1097
-500 -265.625 989
-210.938 148.438 1041
-195.312 -93.75 1016
218.75 210.938 1028
-187.5 -109.375 1031
250 -156.25 1028
-476.562 -250 1007
-437.5 -250 1044
265.625 -203.125 989
-281.25 125 847
54.6875 429.688 1016
-492.188 -242.188 880
406.25 7.8125 1206
-156.25 -203.125 1126
-179.688 -156.25 1077
-250 132.812 869
328.125 382.812 913
-7.8125 -164.062 1333
-218.75 359.375 1090
-468.75 -343.75 1070
289.062 -312.5 938
-171.875 15.625 1090
429.688 359.375 933
242.188 -132.812 1047
351.562 -31.25 1241
406.25 15.625 1202
101.562 -421.875 1050
-437.5 -234.375 1057
-492.188 148.438 903
62.5 359.375 923
-132.812 -54.6875 1219
218.75 -54.6875 1126
187.5 -15.625 1169
-164.062 -7.8125 1112
-156.25 -132.812 1063
-171.875 -70.3125 1001
-187.5 70.3125 1050
125 367.188 918
242.188 375 918
70.3125 -445.312 2812
-125 -218.75 1157
226.562 -78.125 1097
351.562 398.438 908
-171.875 -156.25 1077
226.562 -70.3125 1112
-15.625 -62.5 1236
-484.375 -218.75 1001
-15.625 -85.9375 1255
-273.438 125 851
343.75 187.5 1050
445.312 -351.562 2789
-132.812 -109.375 1149
-250 62.5 894
226.562 -54.6875 1126
-453.125 31.25 880
-15.625 -78.125 1245
179.688 195.312 1001
-218.75 117.188 970
257.812 -179.688 1007
-226.562 140.625 903
-140.625 -257.812 1193
148.438 140.625 981
-132.812 -250 1181
-179.688 -132.812 1054
234.375 -109.375 1070
-117.188 429.688 1387
-187.5 -132.812 1054
-273.438 140.625 843
421.875 140.625 1087
265.625 -218.75 973
-7.8125 -148.438 1115
-148.438 -218.75 1145
320.312 390.625 910
-156.25 -31.25 1134
-195.312 421.875 1283
-226.562 187.5 956
-421.875 -70.3125 910
-445.312 0 901
-132.812 -125 1165
468.75 328.125 1904
187.5 437.5 1084
-195.312 -39.0625 981
-156.25 -195.312 1115
281.25 -359.375 998
-179.688 39.0625 1084
140.625 164.062 1016
250 -164.062 1019
-460.938 39.0625 882
-164.062 -171.875 1090
406.25 406.25 910
-445.312 257.812 946
390.625 -101.562 1328
-171.875 -15.625 1087
-195.312 101.562 1034
-484.375 -289.062 995
-398.438 0 901
-54.6875 367.188 930
-62.5 414.062 1119
429.688 328.125 954
195.312 -312.5 923
46.875 406.25 1019
-171.875 -85.9375 1038
414.062 78.125 1138
-234.375 -382.812 3092
-148.438 -242.188 1169
-7.8125 -171.875 1354
-164.062 -179.688 1101
453.125 218.75 2053
-242.188 31.25 915
273.438 -390.625 1041
390.625 -15.625 1227
-203.125 70.3125 1013
-312.5 304.688 943
398.438 -54.6875 1268
-265.625 210.938 901
-328.125 312.5 946
-164.062 210.938 1001
-179.688 -85.9375 1016
-171.875 -93.75 1031
-140.625 -101.562 1119
414.062 70.3125 1149
-226.562 -382.812 3092
-140.625 -85.9375 1177
54.6875 437.5 1016
-437.5 -226.562 1031
-234.375 171.875 910
-468.75 -335.938 1070
-382.812 -390.625 3092
257.812 -187.5 995
-179.688 320.312 933
-171.875 -179.688 1101
-250 -382.812 3064
-164.062 -15.625 1108
-7.8125 -164.062 1333
54.6875 -320.312 948
328.125 -304.688 2958
296.875 414.062 913
-148.438 -375 3092
-156.25 -23.4375 1126
-156.25 -39.0625 1134
-7.8125 -62.5 1232
-484.375 -296.875 995
-156.25 -62.5 1130
-421.875 125 851
39.0625 -335.938 948
281.25 -343.75 978
-367.188 -390.625 3064
-117.188 226.562 995
-195.312 46.875 1022
0 -132.812 1134
-210.938 93.75 984
-148.438 -62.5 1157
109.375 -367.188 967
-195.312 -109.375 1028
-140.625 -375 3064
210.938 -31.25 1141
-476.562 -382.812 1063
-421.875 -140.625 1019
101.562 -203.125 1016
-218.75 179.688 956
-242.188 -382.812 3092
-320.312 -101.562 1019
-7.8125 -140.625 1123
-445.312 -109.375 1022
-250 39.0625 910
-7.8125 -156.25 1119
-195.312 93.75 1034
359.375 382.812 913
-343.75 296.875 943
-492.188 -320.312 973
273.438 -250 948
273.438 -250 948
-242.188 15.625 930
250 390.625 915
-242.188 203.125 915
273.438 -382.812 1028
242.188 -140.625 1044
117.188 -15.625 1185
226.562 -85.9375 1094
-148.438 -54.6875 1153
54.6875 -328.125 943
-125 -140.625 1197
-312.5 328.125 1477
226.562 -39.0625 1141
0 429.688 1119
-468.75 -234.375 1041
-484.375 -226.562 998
-187.5 23.4375 1047
-179.688 0 1067
-234.375 -7.8125 946
281.25 429.688 1031
273.438 -328.125 951
-445.312 -46.875 923
-414.062 -31.25 906
-429.688 7.8125 898
-234.375 7.8125 935
-328.125 -15.625 946
-375 -390.625 3064
-218.75 -31.25 964
125 429.688 1084
273.438 -390.625 1041
-203.125 125 1013
-109.375 -171.875 1255
-15.625 -85.9375 1255
-15.625 -85.9375 1255
-164.062 -7.8125 1112
-250 390.625 1516
265.625 -218.75 973
-140.625 -335.938 3178
273.438 -242.188 954
-7.8125 -85.9375 1161
242.188 -132.812 1047
-203.125 -93.75 1016
-226.562 203.125 951
-132.812 -257.812 1193
-78.125 -367.188 3092
-140.625 -242.188 1165
-460.938 -7.8125 933
-132.812 -117.188 1169
210.938 -46.875 1130
-257.812 62.5 896
-7.8125 -179.688 1359
257.812 -195.312 992
-250 234.375 928
-7.8125 -171.875 1354
406.25 0 1210
382.812 382.812 915
-7.8125 -164.062 1333
-226.562 -31.25 962
-195.312 -31.25 981
-156.25 -375 3092
7.8125 351.562 925
-375 -15.625 913
-242.188 195.312 906
-265.625 101.562 867
-226.562 62.5 896
281.25 -281.25 925
-203.125 -78.125 1004
-210.938 -70.3125 998
421.875 148.438 1084
-484.375 -273.438 995
-257.812 -382.812 3064
-15.625 -78.125 1245
390.625 390.625 910
335.938 398.438 910
-140.625 -93.75 1177
242.188 -140.625 1044
-234.375 164.062 935
-125 -281.25 1223
-148.438 398.438 1123
429.688 242.188 1010
296.875 390.625 910
-398.438 -390.625 3092
-453.125 7.8125 891
203.125 164.062 975
148.438 -187.5 1016
-148.438 -85.9375 1153
-203.125 320.312 933
-15.625 -70.3125 1241
-335.938 -7.8125 940
-437.5 46.875 869
218.75 -46.875 1134
-476.562 117.188 860
-125 -320.312 3149
281.25 -335.938 964
-132.812 -281.25 1223
-421.875 -390.625 3092
-171.875 -78.125 1004
-476.562 -375 1057
-437.5 -7.8125 903
-273.438 164.062 849
132.812 429.688 1077
398.438 -39.0625 1255
398.438 -39.0625 1255
226.562 -85.9375 1094
-187.5 -117.188 1038
-382.812 -359.375 3178
-398.438 -7.8125 903
117.188 23.4375 1165
-375 -78.125 913
234.375 23.4375 1181
-187.5 -62.5 998
-15.625 -93.75 1259
-187.5 -54.6875 998
-187.5 62.5 1050
-203.125 -23.4375 956
-164.062 -39.0625 1097
-179.688 39.0625 1084
234.375 -109.375 1070
-156.25 -39.0625 1134
46.875 -367.188 970
-164.062 390.625 1126
-421.875 -250 1038
273.438 -382.812 1028
406.25 -7.8125 1223
-195.312 -46.875 984
-500 -117.188 928
210.938 -23.4375 1157
148.438 140.625 981
203.125 -23.4375 1153
-210.938 156.25 984
375 382.812 913
-171.875 15.625 1090
-492.188 -398.438 987
31.25 -265.625 998
140.625 -195.312 1013
-226.562 320.312 935
250 -171.875 1013
421.875 195.312 1044
414.062 93.75 1130
-476.562 -218.75 998
203.125 23.4375 1173
-179.688 -85.9375 1016
-226.562 328.125 943
-195.312 93.75 1034
-109.375 -179.688 1210
-234.375 78.125 913
-484.375 125 867
250 -414.062 2767
-164.062 -46.875 1105
109.375 23.4375 1165
-390.625 -390.625 3092
234.375 -296.875 923
-187.5 70.3125 1050
-179.688 -140.625 1060
273.438 -375 1022
-195.312 46.875 1022
-148.438 -70.3125 1161
-125 429.688 1387
7.8125 -85.9375 1161
234.375 -117.188 1063
421.875 203.125 1041
-500 -406.25 984
234.375 -101.562 1077
-187.5 23.4375 1047
429.688 351.562 938
-171.875 -85.9375 1038
-148.438 437.5 1381
-164.062 -375 3092
-265.625 -382.812 3064
406.25 31.25 1189
429.688 343.75 943
-140.625 -101.562 1119
281.25 -367.188 1010
-460.938 -39.0625 959
-429.688 -390.625 3092
-164.062 -375 3092
390.625 -93.75 1312
-132.812 -125 1165
-328.125 320.312 1483
-179.688 0 1067
-468.75 -320.312 1080
429.688 382.812 915
-179.688 390.625 1126
-484.375 -210.938 930
-23.4375 390.625 1060
-210.938 148.438 1041
-218.75 -343.75 3178
281.25 -343.75 978
-328.125 304.688 946
164.062 445.312 1108
171.875 437.5 1084
273.438 -257.812 940
-250 226.562 923
-218.75 343.75 1060
218.75 7.8125 1189
343.75 218.75 1028
-406.25 -390.625 3092
-132.812 -117.188 1169
-7.8125 -179.688 1359
-414.062 -390.625 3092
-484.375 -390.625 1057
-93.75 429.688 1322
390.625 -78.125 1297
-15.625 -117.188 1288
226.562 -85.9375 1094
-15.625 -101.562 1273
-171.875 7.8125 1101
-476.562 -242.188 1010
93.75 -70.3125 1130
-218.75 117.188 970
-164.062 -15.625 1108
-218.75 203.125 951
-7.8125 -70.3125 1236
-203.125 70.3125 1013
-281.25 140.625 841
-171.875 -93.75 1031
-414.062 0 894
-218.75 31.25 933
-101.562 125 1070
101.562 -195.312 1025
31.25 421.875 1019
218.75 -54.6875 1141
54.6875 421.875 1022
281.25 -328.125 951
-85.9375 -367.188 3092
-125 -148.438 1219
-273.438 -382.812 3092
242.188 -148.438 1044
234.375 -117.188 1073
-15.625 -359.375 3092
343.75 -296.875 3010
-390.625 -31.25 913
-7.8125 -171.875 1097
-179.688 414.062 1297
421.875 210.938 1034
-15.625 -85.9375 1255
187.5 210.938 1022
101.562 -437.5 1060
-265.625 93.75 869
-203.125 117.188 998
-148.438 -296.875 1232
-179.688 7.8125 1087
-109.375 414.062 1338
-320.312 148.438 849
398.438 -31.25 1245
-382.812 -390.625 3092
-93.75 -367.188 3092
242.188 -140.625 1054
-179.688 -164.062 1077
281.25 -335.938 962
375 -164.062 2789
390.625 -85.9375 1297
-203.125 109.375 1022
-343.75 -23.4375 946
-156.25 -203.125 1119
265.625 -226.562 975
234.375 -296.875 925
156.25 -289.062 940
-242.188 23.4375 920
-62.5 382.812 1031
-359.375 -85.9375 1001
-390.625 -70.3125 906
-140.625 -93.75 1193
-335.938 -312.5 1250
210.938 -39.0625 1149
-500 -390.625 992
218.75 -62.5 1130
414.062 109.375 1108
-234.375 -304.688 1241
-476.562 -320.312 989
-492.188 -312.5 978
-15.625 -109.375 1273
-328.125 -312.5 1250
-289.062 -382.812 3092
-257.812 125 856
414.062 -70.3125 1273
218.75 375 920
-171.875 -23.4375 1097
-437.5 125 860
-445.312 -7.8125 903
140.625 375 920
-15.625 -70.3125 1236
-210.938 -54.6875 984
-203.125 390.625 1134
218.75 -23.4375 1173
-312.5 -312.5 1241
265.625 62.5 1145
164.062 164.062 978
-460.938 -328.125 1105
-171.875 -375 3092
-7.8125 -179.688 1094
-257.812 70.3125 885
429.688 171.875 1060
-195.312 -39.0625 1010
-250 -382.812 3064
-257.812 140.625 854
-406.25 -62.5 908
414.062 101.562 1119
445.312 406.25 910
429.688 367.188 925
-156.25 -226.562 1145
-117.188 -335.938 3208
226.562 -93.75 1090
421.875 171.875 1060
125 -179.688 1038
-15.625 -117.188 1283
257.812 -195.312 1001
234.375 85.9375 1123
-148.438 -210.938 1130
-234.375 164.062 946
406.25 39.0625 1173
273.438 -367.188 1001
273.438 -375 1016
-117.188 429.688 1509
289.062 421.875 1034
-15.625 -101.562 1268
-226.562 -15.625 948
-273.438 257.812 956
-492.188 -234.375 873
-132.812 -265.625 1193
414.062 382.812 915
-125 406.25 1126
-171.875 -164.062 1077
-117.188 398.438 1123
-273.438 117.188 851
-7.8125 -62.5 1232
-156.25 -46.875 1108
-367.188 -390.625 3092
390.625 398.438 910
-140.625 429.688 1381
-335.938 312.5 1483
406.25 23.4375 1189
-406.25 -7.8125 901
-187.5 -375 3092
-218.75 15.625 940
-218.75 -39.0625 967
281.25 -320.312 938
429.688 296.875 970
-187.5 -39.0625 1025
-179.688 39.0625 1063
-101.562 -367.188 3092
-445.312 265.625 951
70.3125 414.062 1007
-390.625 132.812 851
-195.312 -101.562 1019
-15.625 -125 1292
70.3125 359.375 925
-140.625 421.875 1381
148.438 -187.5 1025
-78.125 -367.188 3092
-351.562 -390.625 3092
242.188 -148.438 1044
-179.688 -375 3092
-195.312 -23.4375 959
-437.5 -390.625 3092
265.625 -312.5 930
265.625 -234.375 970
-343.75 -312.5 1250
257.812 -203.125 995
-500 -257.812 885
-109.375 -187.5 1273
-54.6875 414.062 1130
-148.438 -70.3125 1173
-218.75 171.875 964
0 -54.6875 1214
-187.5 -70.3125 1010
-70.3125 437.5 1496
-164.062 -46.875 1108
234.375 -125 1063
-62.5 -195.312 1365
-78.125 414.062 1126
-210.938 164.062 1028
234.375 414.062 1041
-117.188 -156.25 1259
-312.5 328.125 1477
-140.625 -109.375 1177
-218.75 -54.6875 981
-125 -289.062 1232
-218.75 179.688 959
-54.6875 179.688 1028
-218.75 359.375 1101
-468.75 -328.125 1087
-7.8125 -164.062 1101
-390.625 -54.6875 906
-171.875 7.8125 1090
164.062 234.375 1004
-445.312 -390.625 3092
-257.812 -312.5 1245
226.562 -85.9375 1101
-367.188 -78.125 910
-421.875 -390.625 3092
-335.938 -312.5 1250
78.125 -343.75 938
-289.062 140.625 841
-179.688 218.75 992
-15.625 -93.75 1259
-476.562 -250 1022
-242.188 195.312 920
-500 -187.5 880
-125 -132.812 1227
398.438 429.688 1766
-492.188 -304.688 984
242.188 -15.625 1210
-164.062 31.25 1134
-281.25 -382.812 3092
-93.75 -367.188 3092
101.562 -7.8125 1185
-101.562 429.688 1338
421.875 187.5 1050
273.438 437.5 1073
-437.5 101.562 856
-242.188 -304.688 1245
-421.875 109.375 854
-203.125 117.188 998
257.812 -62.5 1259
109.375 -257.812 978
-265.625 218.75 923
296.875 437.5 1041
-476.562 -375 1063
-70.3125 -375 3064
-468.75 -242.188 1041
429.688 304.688 964
-312.5 -382.812 3092
-148.438 -62.5 1165
273.438 -367.188 1001
-132.812 429.688 1381
-429.688 31.25 869
-101.562 437.5 1503
117.188 -195.312 1025
93.75 -195.312 1031
-484.375 -273.438 995
281.25 -328.125 951
70.3125 289.062 962
-187.5 -125 1038
-195.312 93.75 1031
-171.875 -187.5 1105
-335.938 148.438 858
242.188 -23.4375 1219
-85.9375 -367.188 3092
-304.688 -382.812 3092
-382.812 -15.625 910
-195.312 -46.875 1004
226.562 -93.75 1090
-406.25 -23.4375 903
-187.5 62.5 1047
-476.562 -210.938 940
-171.875 -23.4375 1097
-296.875 304.688 946
234.375 -117.188 1073
-164.062 -187.5 1105
-156.25 -296.875 1236
-226.562 203.125 948
-179.688 421.875 1297
-492.188 93.75 862
-15.625 -132.812 1302
-39.0625 273.438 967
0 421.875 1022
-343.75 125 847
-15.625 -117.188 1283
-437.5 304.688 1579
-289.062 335.938 1483
-429.688 328.125 1586
156.25 0 1181
-289.062 -382.812 3092
273.438 -359.375 987
-328.125 320.312 1483
-179.688 31.25 1060
-460.938 -328.125 1105
-250 218.75 925
210.938 -39.0625 1149
-242.188 31.25 913
210.938 -7.8125 1197
-132.812 398.438 1130
-164.062 -296.875 1236
54.6875 429.688 1123
281.25 -320.312 938
-210.938 -62.5 987
-500 -320.312 981
-367.188 -62.5 910
-140.625 -93.75 1193
-148.438 -226.562 1145
226.562 -78.125 1112
-148.438 -85.9375 1173
-125 -296.875 1232
-125 -296.875 1232
-343.75 -312.5 1250
429.688 312.5 962
-156.25 -70.3125 1134
-117.188 414.062 1349
-492.188 296.875 1328
-39.0625 414.062 1123
-210.938 -343.75 3149
281.25 -289.062 928
-132.812 -125 1181
-484.375 -281.25 998
-117.188 -164.062 1223
250 -171.875 1025
164.062 148.438 978
-351.562 -312.5 1250
-250 46.875 903
-15.625 -109.375 1273
-171.875 390.625 1134
273.438 -265.625 943
-164.062 -179.688 1094
-210.938 93.75 998
-328.125 125 845
-429.688 -7.8125 898
-273.438 101.562 864
-500 -398.438 989
-500 289.062 1333
-359.375 117.188 849
101.562 -187.5 1038
-492.188 -296.875 989
-31.25 -359.375 3092
-296.875 -382.812 3092
234.375 -125 1063
-484.375 -210.938 938
-429.688 -54.6875 925
-156.25 -210.938 1130
-250 -304.688 1245
-250 -304.688 1245
-281.25 171.875 867
-54.6875 437.5 1516
-242.188 7.8125 930
78.125 398.438 1028
-148.438 421.875 1381
-156.25 -46.875 1108
406.25 46.875 1165
250 -179.688 1019
-382.812 -62.5 906
429.688 328.125 951
-109.375 -367.188 3092
39.0625 -304.688 967
-15.625 -101.562 1268
-367.188 -320.312 1259
-15.625 -125 1292
-7.8125 -54.6875 1219
-257.812 156.25 869
-468.75 -328.125 1087
-476.562 -359.375 1060
-203.125 -375 3092
437.5 132.812 1094
414.062 46.875 1165
-429.688 335.938 1564
-476.562 -343.75 1057
445.312 203.125 2065
273.438 -273.438 938
296.875 429.688 1041
-390.625 -70.3125 906
-312.5 320.312 1483
-429.688 15.625 878
101.562 -429.688 1054
281.25 -273.438 938
-492.188 -343.75 987
-179.688 54.6875 1073
-281.25 -343.75 3149
-39.0625 -359.375 3092
0 445.312 1516
-179.688 -148.438 1063
-171.875 7.8125 1090
-226.562 320.312 943
-140.625 -242.188 1161
-179.688 -93.75 1038
-289.062 304.688 943
390.625 -78.125 1292
-132.812 -117.188 1185
132.812 -195.312 1019
273.438 -257.812 951
-46.875 437.5 1503
-23.4375 -359.375 3092
93.75 -195.312 1031
-242.188 -304.688 1245
148.438 140.625 987
-164.062 414.062 1387
-250 109.375 871
273.438 -359.375 987
-164.062 93.75 1084
-359.375 -85.9375 1001
-312.5 -382.812 3092
-31.25 414.062 1034
-320.312 328.125 1483
-273.438 359.375 1496
-140.625 -265.625 1193
218.75 -70.3125 1119
-117.188 398.438 1123
15.625 421.875 1022
265.625 445.312 1084
-15.625 -117.188 1283
-125 179.688 1025
-476.562 -367.188 1060
414.062 54.6875 1157
-343.75 343.75 1503
-117.188 -367.188 3092
-226.562 -7.8125 943
-164.062 -15.625 1115
-328.125 -382.812 3092
-132.812 -289.062 1232
-132.812 -132.812 1202
-250 31.25 913
406.25 -54.6875 1268
-320.312 -382.812 3092
-125 -281.25 1214
-281.25 335.938 1477
-164.062 -23.4375 1115
-109.375 398.438 1126
-210.938 -375 3092
234.375 -39.0625 1149
-195.312 39.0625 1031
226.562 -93.75 1090
-234.375 226.562 935
-210.938 148.438 981
70.3125 -445.312 1070
-460.938 46.875 894
-328.125 148.438 849
-476.562 -335.938 1067
-101.562 -367.188 3092
-351.562 -312.5 1250
-476.562 -320.312 989
-148.438 390.625 1130
-421.875 -265.625 1028
-179.688 -78.125 1010
-148.438 -70.3125 1173
-179.688 -62.5 1013
218.75 -62.5 1130
-125 406.25 1126
-195.312 85.9375 1031
-289.062 335.938 1483
195.312 101.562 1108
226.562 -62.5 1130
-15.625 -70.3125 1236
-265.625 195.312 891
242.188 -148.438 1044
-187.5 -62.5 1010
-187.5 15.625 1054
-234.375 7.8125 933
-140.625 -109.375 1177
242.188 -78.125 1105
-335.938 132.812 847
-218.75 171.875 964
-7.8125 -148.438 1115
-226.562 335.938 1057
15.625 -148.438 1108
203.125 375 920
218.75 140.625 1077
429.688 335.938 943
-382.812 140.625 862
-109.375 -195.312 1259
85.9375 -312.5 943
-296.875 335.938 1477
78.125 406.25 1022
70.3125 -31.25 1193
140.625 -195.312 1019
-164.062 406.25 1387
-109.375 125 1067
226.562 -31.25 1149
-476.562 -234.375 998
351.562 -304.688 2984
-234.375 164.062 946
421.875 218.75 1025
-414.062 -62.5 910
-140.625 -101.562 1185
-195.312 -375 3092
312.5 -93.75 1302
-335.938 -93.75 1007
242.188 406.25 1022
-226.562 195.312 956
234.375 -125 1063
-78.125 437.5 1503
421.875 234.375 1019
351.562 -125 1338
203.125 15.625 1177
101.562 -187.5 1038
-125 -140.625 1227
257.812 -210.938 987
312.5 -265.625 3064
-375 -54.6875 910
273.438 -265.625 943
226.562 -101.562 1090
-179.688 31.25 1060
-140.625 -250 1173
382.812 -296.875 2933
-500 -328.125 992
421.875 242.188 1007
-187.5 -375 3092
179.688 7.8125 1181
-7.8125 421.875 1022
-257.812 -304.688 1241
343.75 -304.688 2984
-242.188 328.125 943
-171.875 -296.875 1232
-335.938 -382.812 3092
390.625 -296.875 2933
-218.75 109.375 975
-15.625 -148.438 1317
140.625 -187.5 1025
-46.875 -359.375 3092
-257.812 54.6875 896
-367.188 -46.875 925
93.75 -421.875 1041
-132.812 -125 1181
390.625 -70.3125 1283
0 -46.875 1214
-289.062 140.625 841
-359.375 -312.5 1245
-359.375 -312.5 1245
-203.125 62.5 1031
-273.438 93.75 869
414.062 117.188 1105
-148.438 398.438 1130
-250 -304.688 1245
265.625 -234.375 970
-312.5 -312.5 1241
-125 -289.062 1232
390.625 -62.5 1273
-148.438 -250 1177
265.625 -398.438 1044
78.125 429.688 1115
-343.75 -382.812 3092
-382.812 -23.4375 913
-460.938 0 882
-125 -148.438 1219
421.875 203.125 1041
-187.5 54.6875 1073
-195.312 -39.0625 1010
-132.812 -289.062 1232
-15.625 -132.812 1302
-250 218.75 925
-15.625 -125 1292
-210.938 140.625 989
-234.375 0 935
-476.562 -210.938 940
101.562 -429.688 1054
-320.312 132.812 845
-203.125 398.438 1245
-148.438 -234.375 1161
-476.562 93.75 862
-203.125 117.188 998
406.25 54.6875 1157
265.625 -242.188 962
-62.5 39.0625 1134
-156.25 -46.875 1108
-390.625 140.625 862
7.8125 -39.0625 1206
359.375 304.688 962
-125 -367.188 3092
-460.938 7.8125 878
-125 -101.562 1245
265.625 -320.312 938
265.625 -390.625 1031
265.625 -390.625 1031
226.562 -101.562 1090
-351.562 -312.5 1250
-210.938 -78.125 998
398.438 -7.8125 1219
-195.312 -101.562 1019
-234.375 -15.625 948
-492.188 -250 885
-375 15.625 918
-15.625 -140.625 1307
421.875 210.938 1034
-226.562 -23.4375 954
218.75 -78.125 1108
250 -179.688 1019
-164.062 -117.188 1070
-140.625 390.625 1123
-179.688 -7.8125 1070
-359.375 -382.812 3092
-140.625 -335.938 3178
-140.625 -273.438 1206
273.438 -273.438 938
-468.75 -226.562 995
-156.25 -70.3125 1134
-343.75 304.688 951
-437.5 320.312 1572
164.062 148.438 978
-187.5 -54.6875 1010
-187.5 -125 1038
-148.438 -93.75 1161
375 39.0625 1173
273.438 -343.75 967
-367.188 -382.812 3092
-406.25 39.0625 901
-484.375 -265.625 995
-179.688 0 1087
-179.688 -54.6875 1038
7.8125 -46.875 1214
-390.625 -31.25 913
-335.938 -39.0625 940
-15.625 -187.5 1370
-492.188 -226.562 873
-476.562 31.25 901
-414.062 31.25 903
-171.875 -171.875 1087
-179.688 -296.875 1232
234.375 -125 1063
250 -187.5 1007
351.562 382.812 913
-164.062 -210.938 1130
-320.312 320.312 1483
39.0625 -320.312 959
-15.625 -117.188 1283
-437.5 -281.25 1025
242.188 -156.25 1041
398.438 0 1206
-140.625 -117.188 1169
234.375 -132.812 1057
437.5 179.688 1057
-484.375 -382.812 1057
-46.875 -265.625 2984
359.375 398.438 910
460.938 70.3125 2301
-125 -156.25 1181
-203.125 -78.125 1001
54.6875 -31.25 1202
-273.438 195.312 889
-179.688 -93.75 1038
-328.125 320.312 1483
-54.6875 -359.375 3092
62.5 -312.5 956
-320.312 -312.5 1250
-296.875 132.812 843
-15.625 -62.5 1232
-226.562 -375 3120
-140.625 -62.5 1165
-132.812 398.438 1130
-171.875 429.688 1370
-226.562 -359.375 3149
-125 429.688 1516
210.938 -46.875 1141
-445.312 109.375 856
406.25 70.3125 1145
-210.938 -31.25 967
-351.562 -382.812 3092
-234.375 -375 3120
-234.375 226.562 935
117.188 -156.25 1057
218.75 -31.25 1161
148.438 -304.688 930
-148.438 421.875 1381
-226.562 203.125 948
-187.5 421.875 1297
-210.938 85.9375 992
-187.5 -148.438 1063
-164.062 -23.4375 1115
359.375 -23.4375 1227
414.062 0 1210
-171.875 7.8125 1090
-234.375 210.938 946
-164.062 7.8125 1090
414.062 140.625 1084
414.062 132.812 1090
-421.875 -257.812 1034
-187.5 15.625 1054
414.062 148.438 1080
-289.062 148.438 841
-492.188 -296.875 989
-187.5 62.5 1047
-500 -125 928
-500 -125 928
-257.812 265.625 951
132.812 -195.312 1019
-195.312 85.9375 1031
-62.5 414.062 1105
-31.25 -320.312 3178
-328.125 -382.812 3092
-500 250 951
156.25 -125 1070
-117.188 414.062 1349
-132.812 -109.375 1210
-296.875 335.938 1477
-195.312 -54.6875 1001
-218.75 -46.875 973
-492.188 -320.312 978
390.625 -46.875 1259
-171.875 0 1101
-343.75 296.875 951
125 -187.5 1028
117.188 -242.188 984
-15.625 -148.438 1317
-15.625 -148.438 1317
-484.375 -304.688 992
-234.375 156.25 925
-304.688 -382.812 3092
-312.5 335.938 1489
-226.562 -39.0625 964
257.812 -210.938 987
-265.625 -304.688 1241
-140.625 -101.562 1185
-492.188 -304.688 984
-421.875 -320.312 1259
-359.375 -312.5 1245
-15.625 -132.812 1302
-500 93.75 858
-218.75 -375 3120
210.938 -54.6875 1134
-187.5 -132.812 1047
31.25 -304.688 973
-257.812 -304.688 1241
429.688 359.375 930
-367.188 -312.5 1245
-453.125 -15.625 935
-500 -250 885
335.938 390.625 910
-484.375 31.25 901
-218.75 164.062 964
-109.375 -187.5 1273
156.25 -187.5 1019
156.25 203.125 1004
-164.062 -187.5 1105
-195.312 39.0625 1031
-320.312 328.125 1483
-328.125 351.562 1489
-156.25 -210.938 1130
-203.125 101.562 1022
-421.875 343.75 1550
-492.188 -289.062 992
-218.75 -39.0625 967
273.438 -343.75 967
429.688 375 923
382.812 -109.375 1328
398.438 7.8125 1206
273.438 -335.938 956
273.438 -335.938 956
93.75 -195.312 1031
-226.562 195.312 956
-250 101.562 869
-179.688 31.25 1060
-398.438 -242.188 981
-242.188 187.5 920
414.062 125 1097
-187.5 -78.125 1010
265.625 -390.625 1031
-242.188 23.4375 920
-7.8125 -179.688 1094
-179.688 23.4375 1087
398.438 -78.125 1288
-195.312 -23.4375 959
-15.625 -140.625 1307
226.562 -101.562 1090
226.562 -101.562 1090
210.938 -15.625 1193
250 -187.5 1007
195.312 -15.625 1181
-195.312 -109.375 1025
-179.688 -125 1041
-289.062 156.25 849
-265.625 85.9375 875
281.25 -312.5 933
-382.812 -78.125 906
-460.938 312.5 1579
429.688 -289.062 2933
-382.812 312.5 1523
218.75 -70.3125 1119
218.75 -78.125 1108
-265.625 312.5 943
-382.812 -46.875 908
421.875 226.562 1022
7.8125 421.875 1025
85.9375 -328.125 938
312.5 390.625 913
437.5 429.688 1776
-156.25 -234.375 1157
390.625 -54.6875 1268
-203.125 109.375 1022
-484.375 320.312 1564
-132.812 -265.625 1193
-62.5 -359.375 3092
-359.375 335.938 1503
203.125 -31.25 1153
265.625 -382.812 1022
-132.812 -367.188 3092
-23.4375 -85.9375 1250
-23.4375 -85.9375 1250
-304.688 335.938 1477
421.875 179.688 1057
-78.125 -195.312 1365
265.625 -250 962
-15.625 -46.875 1214
484.375 -46.875 2522
-23.4375 -187.5 1365
406.25 62.5 1153
-187.5 54.6875 1063
-171.875 -31.25 1119
-242.188 101.562 913
-218.75 23.4375 925
-132.812 -296.875 1232
-132.812 -125 1219
-46.875 -359.375 3092
-39.0625 -359.375 3092
-500 328.125 1359
-273.438 -375 3092
-468.75 23.4375 875
-210.938 78.125 1010
-210.938 78.125 1010
-390.625 0 923
-429.688 23.4375 873
-210.938 140.625 989
-15.625 -85.9375 1181
-218.75 335.938 1060
429.688 289.062 975
-226.562 210.938 989
273.438 -351.562 973
460.938 257.812 1993
-54.6875 406.25 1022
-203.125 -85.9375 1004
-179.688 -7.8125 1101
-281.25 117.188 851
-140.625 -367.188 3092
-164.062 -54.6875 1134
-445.312 -281.25 1031
-468.75 -359.375 1080
-85.9375 429.688 1343
-78.125 429.688 1387
-15.625 -156.25 1328
421.875 234.375 1019
-101.562 429.688 1338
234.375 -132.812 1063
-453.125 15.625 885
-335.938 328.125 1529
101.562 -187.5 1044
-226.562 343.75 1073
-468.75 -39.0625 954
335.938 -304.688 3010
328.125 -304.688 3010
70.3125 0 1177
-296.875 304.688 943
-257.812 312.5 946
-484.375 -257.812 1010
-179.688 -148.438 1063
-164.062 0 1161
453.125 -281.25 2958
-39.0625 421.875 1529
257.812 -218.75 989
-406.25 -382.812 3120
-257.812 70.3125 885
46.875 -218.75 1034
492.188 70.3125 2286
-335.938 -382.812 3092
-226.562 -15.625 948
-187.5 15.625 1084
273.438 -281.25 938
-250 -375 3092
-132.812 -273.438 1202
-250 210.938 920
-359.375 -382.812 3092
-406.25 7.8125 910
-218.75 164.062 964
-398.438 -382.812 3120
-179.688 -70.3125 1034
171.875 195.312 1007
398.438 -15.625 1219
218.75 -15.625 1206
-382.812 -70.3125 908
-281.25 335.938 1477
-15.625 -148.438 1134
117.188 437.5 1108
-382.812 -382.812 3092
359.375 15.625 1189
-328.125 -101.562 1013
-156.25 -54.6875 1141
-15.625 -140.625 1134
0 -62.5 1197
101.562 -195.312 1034
-234.375 218.75 930
421.875 -289.062 2958
-7.8125 -171.875 1097
195.312 -23.4375 1173
-148.438 -93.75 1181
-148.438 -78.125 1134
-218.75 109.375 1001
-476.562 -351.562 1063
-164.062 -195.312 1108
-226.562 -375 3120
179.688 -312.5 928
-242.188 -375 3092
140.625 -187.5 1028
-367.188 -382.812 3092
-367.188 -312.5 1241
-203.125 54.6875 1022
414.062 156.25 1073
-132.812 421.875 1509
-148.438 -367.188 3092
226.562 -367.188 981
-171.875 0 1097
-179.688 -296.875 1232
273.438 -289.062 930
250 -195.312 1007
-195.312 -54.6875 1022
-328.125 -312.5 1250
-203.125 -101.562 1019
-429.688 -320.312 1259
-343.75 -382.812 3092
-187.5 -296.875 1232
-15.625 -164.062 1123
390.625 382.812 915
-414.062 -382.812 3092
429.688 367.188 923
-367.188 328.125 1516
421.875 242.188 1010
-273.438 164.062 864
-15.625 -156.25 1328
203.125 -31.25 1165
265.625 -375 1004
421.875 273.438 987
-195.312 78.125 1094
-140.625 -250 1173
414.062 164.062 1067
-210.938 -70.3125 995
-429.688 -250 1047
398.438 23.4375 1185
-250 23.4375 918
-406.25 -320.312 1255
-335.938 140.625 851
-335.938 140.625 851
265.625 -257.812 956
109.375 171.875 1044
-203.125 109.375 1013
265.625 -242.188 970
-148.438 -234.375 1153
-414.062 -320.312 1255
-445.312 7.8125 896
210.938 -54.6875 1141
78.125 390.625 1038
-179.688 398.438 1273
-375 -31.25 920
-226.562 195.312 967
-250 39.0625 906
-375 -312.5 1245
-7.8125 -54.6875 1219
-156.25 -164.062 1094
234.375 -140.625 1057
-226.562 -23.4375 954
-148.438 -226.562 1145
-23.4375 -78.125 1245
-203.125 62.5 1031
-117.188 398.438 1126
320.312 390.625 918
320.312 390.625 918
-484.375 -375 1054
-445.312 23.4375 871
-15.625 -171.875 1343
-390.625 -382.812 3120
226.562 -109.375 1087
-85.9375 -195.312 1365
93.75 23.4375 1153
-117.188 125 1067
273.438 -328.125 943
132.812 367.188 923
421.875 257.812 995
320.312 382.812 918
-23.4375 -320.312 3120
289.062 375 915
-468.75 296.875 1586
-140.625 398.438 1130
-46.875 375 1041
-265.625 78.125 880
-187.5 23.4375 1080
-210.938 85.9375 1004
-289.062 335.938 1477
-195.312 429.688 1312
-242.188 78.125 887
-187.5 54.6875 1063
-414.062 281.25 948
-15.625 -62.5 1227
382.812 -101.562 1312
-195.312 -343.75 3178
-187.5 406.25 1283
-187.5 7.8125 1080
-187.5 7.8125 1080
-242.188 39.0625 908
-70.3125 -359.375 3092
-390.625 281.25 948
-187.5 -78.125 1010
-250 46.875 903
-234.375 -375 3120
226.562 -109.375 1087
218.75 -78.125 1119
234.375 -46.875 1241
-171.875 -31.25 1119
-117.188 -164.062 1268
-210.938 132.812 992
-140.625 -109.375 1193
242.188 -164.062 1034
-109.375 -328.125 3178
-437.5 -39.0625 906
-132.812 -140.625 1219
-429.688 -382.812 3092
-242.188 187.5 920
-460.938 -39.0625 954
-460.938 -39.0625 954
398.438 7.8125 1202
-281.25 179.688 878
-375 -382.812 3092
-226.562 320.312 943
-39.0625 414.062 1126
-187.5 31.25 1077
-234.375 203.125 946
257.812 -226.562 981
140.625 367.188 923
-171.875 -171.875 1087
140.625 -179.688 1038
-156.25 -367.188 3120
-179.688 23.4375 1087
-390.625 -70.3125 906
-242.188 179.688 933
414.062 171.875 1060
-429.688 -273.438 1028
-210.938 78.125 1010
-484.375 171.875 940
-460.938 -15.625 935
273.438 -250 962
70.3125 382.812 1028
-265.625 -304.688 1236
-429.688 304.688 1594
-195.312 -62.5 1007
-281.25 -304.688 1236
-226.562 335.938 1060
132.812 -289.062 951
-164.062 -140.625 1067
234.375 -23.4375 1214
93.75 -242.188 998
210.938 -343.75 948
218.75 -85.9375 1112
-195.312 31.25 1067
-406.25 0 903
-476.562 -359.375 1063
-250 218.75 928
-156.25 -54.6875 1141
421.875 250 1004
-179.688 31.25 1077
257.812 -304.688 930
-414.062 -156.25 1025
429.688 390.625 913
-7.8125 -156.25 1119
-218.75 101.562 981
-15.625 -156.25 1328
-140.625 -117.188 1193
-101.562 -328.125 3149
-492.188 -289.062 998
-210.938 -375 3120
179.688 203.125 1019
39.0625 -39.0625 1202
-476.562 -242.188 998
-23.4375 -70.3125 1236
-273.438 109.375 858
-226.562 218.75 984
-203.125 54.6875 1022
-148.438 -70.3125 1165
-250 210.938 920
-421.875 -320.312 1255
-156.25 -78.125 1134
93.75 -437.5 1057
62.5 -46.875 1177
-226.562 125 975
273.438 -335.938 951
-234.375 156.25 954
125 15.625 1169
156.25 367.188 920
-265.625 226.562 933
-164.062 -31.25 1134
-15.625 -164.062 1123
-156.25 390.625 1130
234.375 -140.625 1057
-375 -7.8125 908
-414.062 -39.0625 906
-398.438 -351.562 3178
453.125 -39.0625 2522
265.625 -367.188 992
-257.812 46.875 903
93.75 398.438 1060
-226.562 46.875 910
-476.562 -367.188 1067
-148.438 -85.9375 1134
273.438 -328.125 943
-132.812 -289.062 1227
-195.312 437.5 1338
414.062 140.625 1084
398.438 15.625 1193
-148.438 -78.125 1134
109.375 -320.312 935
-140.625 -179.688 1115
-242.188 0 935
-195.312 78.125 1094
-437.5 -320.312 1259
-23.4375 -85.9375 1250
-195.312 -39.0625 981
375 -296.875 2958
281.25 -296.875 930
-218.75 -46.875 973
414.062 148.438 1080
-226.562 -31.25 956
101.562 359.375 925
296.875 406.25 923
140.625 -187.5 1028
414.062 335.938 943
-218.75 140.625 989
210.938 -54.6875 1141
-140.625 -109.375 1193
-171.875 -7.8125 1115
203.125 -39.0625 1153
-164.062 -54.6875 1134
-257.812 -375 3092
382.812 -93.75 1302
-179.688 -78.125 1034
-15.625 -171.875 1343
218.75 -85.9375 1112
-156.25 -218.75 1138
-234.375 -23.4375 954
-148.438 -257.812 1181
203.125 -15.625 1197
-195.312 -117.188 1034
265.625 -257.812 956
-460.938 23.4375 878
-203.125 93.75 1004
-203.125 -109.375 1022
-484.375 93.75 864
-171.875 -195.312 1108
-171.875 -195.312 1108
-429.688 312.5 1586
-187.5 46.875 1067
226.562 -117.188 1080
140.625 140.625 992
-23.4375 -78.125 1245
421.875 296.875 975
257.812 -289.062 933
-351.562 343.75 1503
421.875 265.625 992
-148.438 -242.188 1161
132.812 -320.312 930
-289.062 -343.75 3149
-62.5 -359.375 3092
-70.3125 -343.75 3149
-148.438 -203.125 1123
406.25 382.812 915
-164.062 -218.75 1134
-476.562 -328.125 1070
-179.688 -156.25 1070
-234.375 320.312 943
171.875 210.938 1019
-445.312 -15.625 906
-250 320.312 946
390.625 -39.0625 1250
-140.625 -296.875 1232
109.375 179.688 1041
-195.312 -125 1038
-218.75 -62.5 987
328.125 390.625 918
-226.562 187.5 964
-195.312 -296.875 1227
257.812 -312.5 930
125 437.5 1112
-203.125 -93.75 1010
-187.5 -140.625 1054
-132.812 -140.625 1219
140.625 -320.312 928
-148.438 -101.562 1181
132.812 -320.312 930
